# .PCD v0.7 - Point Cloud Data file format
VERSION 0.7
FIELDS x y z rgb
SIZE 4 4 4 4
TYPE F F F U
COUNT 1 1 1 1
WIDTH 1132
HEIGHT 1
VIEWPOINT 0 0 0 1 0 0 0
POINTS 1132
DATA ascii
0.10539673 0.073836155 0.21600784 3092271
0.10578562 0.073835641 0.21600634 3092271
0.10617451 0.07383512 0.21600482 3092271
0.10656339 0.073834598 0.2160033 3092271
0.10695226 0.073834077 0.21600178 3092271
0.10734115 0.073833562 0.21600027 3092271
0.10773001 0.073833048 0.21599875 3092271
0.10811887 0.073832527 0.21599723 3092271
0.10850773 0.073832013 0.21599573 3092271
0.10889658 0.073831491 0.21599421 3092271
0.10928542 0.07383097 0.21599269 3092271
0.10967427 0.073830456 0.21599118 3092271
0.1100631 0.073829941 0.21598966 3092271
0.11045193 0.07382942 0.21598814 3092271
0.11084075 0.073828906 0.21598664 3092271
0.11122957 0.073828384 0.21598512 3092271
0.11161838 0.073827863 0.2159836 3092271
0.11200719 0.073827349 0.21598209 3092271
0.11239599 0.073826835 0.21598057 3092271
0.11278479 0.073826313 0.21597905 3092271
0.11317358 0.073825799 0.21597755 3092271
0.11356237 0.073825277 0.21597603 3092271
0.11395115 0.073824756 0.21597451 3092271
0.11433993 0.073824242 0.215973 3092271
0.11472869 0.073823728 0.21597148 3092271
0.11511745 0.073823206 0.21596996 3092271
0.11550622 0.073822692 0.21596846 3092271
0.11589497 0.07382217 0.21596694 3092271
0.11628371 0.073821649 0.21596542 3092271
0.11667246 0.073821135 0.21596391 3092271
0.11706119 0.073820613 0.2159624 3092271
0.11744992 0.073820099 0.21596088 3092271
0.11783865 0.073819585 0.21595937 3092271
0.11822736 0.073819064 0.21595785 3092271
0.11861608 0.07381855 0.21595635 3092271
0.11900479 0.073818028 0.21595483 3092271
0.11939349 0.073817506 0.21595331 3092271
0.11978219 0.073816992 0.2159518 3092271
0.12017088 0.073816478 0.21595028 3092271
0.12055957 0.073815957 0.21594876 3092271
0.12094826 0.073815443 0.21594726 3092271
0.12133693 0.073814921 0.21594574 3092271
0.1217256 0.0738144 0.21594422 3092271
0.12211427 0.073813885 0.21594271 3092271
0.12250292 0.073813371 0.21594119 3092271
0.12289158 0.073812857 0.21593969 3092271
0.12328023 0.073812336 0.21593817 3092271
0.12366887 0.073811814 0.21593665 3092271
0.12405752 0.0738113 0.21593514 3092271
0.12444615 0.073810779 0.21593362 3092271
0.072710261 0.074269727 0.21613571 3092271
0.073099613 0.074269205 0.21613419 3092271
0.073488966 0.074268691 0.21613269 3092271
0.073878303 0.074268162 0.21613117 3092271
0.074267641 0.074267641 0.21612965 3092271
0.074656978 0.074267119 0.21612813 3092271
0.075046301 0.074266598 0.21612661 3092271
0.075435624 0.074266084 0.2161251 3092271
0.075824939 0.074265562 0.21612358 3092271
0.076214254 0.07426504 0.21612206 3092271
0.076603554 0.074264511 0.21612054 3092271
0.076992854 0.07426399 0.21611902 3092271
0.077382155 0.074263476 0.21611752 3092271
0.07777144 0.074262954 0.216116 3092271
0.078160718 0.074262433 0.21611448 3092271
0.078549996 0.074261911 0.21611296 3092271
0.078939267 0.07426139 0.21611144 3092271
0.079328537 0.074260868 0.21610993 3092271
0.0797178 0.074260347 0.21610841 3092271
0.080107056 0.074259825 0.21610689 3092271
0.080496304 0.074259304 0.21610537 3092271
0.080885552 0.074258782 0.21610387 3092271
0.081274793 0.07425826 0.21610235 3092271
0.081664026 0.074257739 0.21610083 3092271
0.082053252 0.074257217 0.21609931 3092271
0.08244247 0.074256696 0.21609779 3092271
0.082831696 0.074256182 0.21609628 3092271
0.083220907 0.074255653 0.21609476 3092271
0.08361011 0.074255131 0.21609324 3092271
0.083999313 0.07425461 0.21609172 3092271
0.084388509 0.074254096 0.21609022 3092271
0.084777698 0.074253574 0.2160887 3092271
0.085166886 0.074253052 0.21608718 3092271
0.08555606 0.074252531 0.21608566 3092271
0.085945234 0.074252002 0.21608414 3092271
0.086334407 0.074251488 0.21608263 3092271
0.086723566 0.074250966 0.21608111 3092271
0.087112725 0.074250445 0.21607959 3092271
0.087501876 0.074249923 0.21607807 3092271
0.087891027 0.074249402 0.21607657 3092271
0.088280164 0.07424888 0.21607505 3092271
0.0886693 0.074248359 0.21607353 3092271
0.089058429 0.074247837 0.21607201 3092271
0.089447558 0.074247323 0.2160705 3092271
0.089836679 0.074246801 0.21606898 3092271
0.090225786 0.074246272 0.21606746 3092271
0.090614893 0.074245751 0.21606594 3092271
0.091004007 0.074245237 0.21606444 3092271
0.091393098 0.074244715 0.21606292 3092271
0.09178219 0.074244194 0.2160614 3092271
0.092171274 0.074243672 0.21605988 3092271
0.092560358 0.074243151 0.21605837 3092271
0.092949435 0.074242629 0.21605685 3092271
0.093338504 0.074242108 0.21605533 3092271
0.093727566 0.074241586 0.21605381 3092271
0.094116628 0.074241072 0.21605231 3092271
0.094505683 0.074240543 0.21605079 3092271
0.09489473 0.074240021 0.21604927 3092271
0.095283777 0.074239507 0.21604776 3092271
0.095672809 0.074238986 0.21604624 3092271
0.096061841 0.074238464 0.21604472 3092271
0.096450865 0.074237943 0.2160432 3092271
0.09683989 0.074237421 0.2160417 3092271
0.097228907 0.0742369 0.21604018 3092271
0.097617917 0.074236378 0.21603866 3092271
0.098006919 0.074235857 0.21603714 3092271
0.098395921 0.074235335 0.21603563 3092271
0.098784916 0.074234813 0.21603411 3092271
0.099173896 0.074234292 0.21603259 3092271
0.099562883 0.074233778 0.21603109 3092271
0.099951863 0.074233256 0.21602957 3092271
0.10034084 0.074232735 0.21602805 3092271
0.10072979 0.074232213 0.21602653 3092271
0.10111877 0.074231692 0.21602502 3092271
0.10150772 0.07423117 0.2160235 3092271
0.10189667 0.074230649 0.21602198 3092271
0.10228562 0.074230134 0.21602048 3092271
0.10267455 0.074229605 0.21601896 3092271
0.10306348 0.074229084 0.21601744 3092271
0.10345241 0.07422857 0.21601593 3092271
0.10384133 0.074228048 0.21601442 3092271
0.10423025 0.074227527 0.2160129 3092271
0.10461916 0.074227005 0.21601138 3092271
0.10500807 0.074226484 0.21600987 3092271
0.10539697 0.074225962 0.21600835 3092271
0.10578586 0.074225441 0.21600683 3092271
0.10617476 0.074224927 0.21600533 3092271
0.10656364 0.074224398 0.21600381 3092271
0.10695252 0.074223876 0.21600229 3092271
0.10734139 0.074223362 0.21600078 3092271
0.10773026 0.07422284 0.21599926 3092271
0.10811912 0.074222319 0.21599774 3092271
0.10850798 0.074221797 0.21599624 3092271
0.10889684 0.074221276 0.21599472 3092271
0.10928568 0.074220754 0.2159932 3092271
0.10967453 0.07422024 0.21599169 3092271
0.11006336 0.074219719 0.21599017 3092271
0.11045218 0.074219197 0.21598865 3092271
0.11084101 0.074218668 0.21598713 3092271
0.11122983 0.074218154 0.21598563 3092271
0.11161865 0.074217632 0.21598411 3092271
0.11200745 0.074217111 0.21598259 3092271
0.11239626 0.074216589 0.21598108 3092271
0.11278505 0.074216068 0.21597956 3092271
0.11317384 0.074215546 0.21597804 3092271
0.11356264 0.074215032 0.21597654 3092271
0.11395141 0.074214511 0.21597502 3092271
0.11434019 0.074213989 0.2159735 3092271
0.11472896 0.074213468 0.21597199 3092271
0.11511772 0.074212946 0.21597047 3092271
0.11550649 0.074212432 0.21596897 3092271
0.11589523 0.07421191 0.21596745 3092271
0.11628398 0.074211389 0.21596593 3092271
0.11667273 0.074210867 0.21596442 3092271
0.11706147 0.074210346 0.2159629 3092271
0.11745019 0.074209824 0.21596138 3092271
0.11783893 0.074209303 0.21595988 3092271
0.11822765 0.074208781 0.21595836 3092271
0.11861636 0.07420826 0.21595684 3092271
0.11900507 0.074207745 0.21595533 3092271
0.11939377 0.074207224 0.21595381 3092271
0.11978247 0.074206702 0.21595229 3092271
0.12017117 0.074206181 0.21595079 3092271
0.12055986 0.074205659 0.21594927 3092271
0.12094853 0.074205138 0.21594775 3092271
0.12133721 0.074204624 0.21594624 3092271
0.12172589 0.074204102 0.21594472 3092271
0.12211455 0.074203581 0.21594322 3092271
0.12250321 0.074203059 0.2159417 3092271
0.12289187 0.074202538 0.21594018 3092271
0.12328052 0.074202023 0.21593867 3092271
0.12366916 0.074201494 0.21593715 3092271
0.1240578 0.074200973 0.21593563 3092271
0.12444644 0.074200459 0.21593413 3092271
0.071931705 0.074660823 0.21613926 3092271
0.072321072 0.074660294 0.21613774 3092271
0.072710425 0.074659772 0.21613622 3092271
0.073099785 0.074659243 0.2161347 3092271
0.07348913 0.074658722 0.21613318 3092271
0.073878482 0.0746582 0.21613167 3092271
0.07426782 0.074657671 0.21613015 3092271
0.07465715 0.07465715 0.21612863 3092271
0.07504648 0.074656628 0.21612711 3092271
0.075435795 0.074656099 0.21612559 3092271
0.075825118 0.074655578 0.21612409 3092271
0.076214433 0.074655056 0.21612257 3092271
0.076603733 0.074654527 0.21612105 3092271
0.076993033 0.074654005 0.21611953 3092271
0.077382326 0.074653476 0.21611801 3092271
0.077771619 0.074652962 0.2161165 3092271
0.078160904 0.074652433 0.21611498 3092271
0.078550182 0.074651912 0.21611346 3092271
0.078939453 0.074651383 0.21611194 3092271
0.079328723 0.074650861 0.21611042 3092271
0.079717986 0.07465034 0.21610892 3092271
0.080107242 0.074649818 0.2161074 3092271
0.08049649 0.074649289 0.21610588 3092271
0.080885738 0.074648768 0.21610436 3092271
0.081274979 0.074648246 0.21610285 3092271
0.081664212 0.074647717 0.21610133 3092271
0.082053445 0.074647196 0.21609981 3092271
0.082442664 0.074646667 0.21609829 3092271
0.082831882 0.074646145 0.21609677 3092271
0.0832211 0.074645624 0.21609527 3092271
0.083610311 0.074645102 0.21609375 3092271
0.083999507 0.074644573 0.21609223 3092271
0.084388703 0.074644051 0.21609071 3092271
0.084777899 0.07464353 0.2160892 3092271
0.08516708 0.074643008 0.21608768 3092271
0.085556261 0.074642479 0.21608616 3092271
0.085945435 0.074641958 0.21608464 3092271
0.086334608 0.074641436 0.21608314 3092271
0.086723775 0.074640907 0.21608162 3092271
0.087112926 0.074640386 0.2160801 3092271
0.087502085 0.074639857 0.21607858 3092271
0.087891228 0.074639335 0.21607706 3092271
0.088280372 0.074638814 0.21607555 3092271
0.088669509 0.074638292 0.21607403 3092271
0.089058638 0.074637763 0.21607251 3092271
0.089447759 0.074637242 0.21607099 3092271
0.089836888 0.07463672 0.21606949 3092271
0.090226002 0.074636199 0.21606797 3092271
0.090615109 0.07463567 0.21606645 3092271
0.091004208 0.074635148 0.21606493 3092271
0.091393314 0.074634627 0.21606342 3092271
0.091782406 0.074634098 0.21606191 3092271
0.09217149 0.074633576 0.21606039 3092271
0.092560574 0.074633047 0.21605887 3092271
0.092949651 0.074632533 0.21605736 3092271
0.093338721 0.074632004 0.21605584 3092271
0.093727782 0.074631482 0.21605432 3092271
0.094116852 0.074630961 0.21605282 3092271
0.094505906 0.074630432 0.2160513 3092271
0.094894953 0.07462991 0.21604978 3092271
0.095283993 0.074629389 0.21604826 3092271
0.09567304 0.074628867 0.21604675 3092271
0.096062064 0.074628338 0.21604523 3092271
0.096451096 0.074627817 0.21604371 3092271
0.096840113 0.074627288 0.21604219 3092271
0.097229131 0.074626774 0.21604069 3092271
0.09761814 0.074626245 0.21603917 3092271
0.09800715 0.074625723 0.21603765 3092271
0.098396152 0.074625202 0.21603614 3092271
0.098785147 0.074624673 0.21603462 3092271
0.099174134 0.074624151 0.2160331 3092271
0.099563114 0.074623622 0.21603158 3092271
0.099952094 0.074623108 0.21603008 3092271
0.10034107 0.074622579 0.21602856 3092271
0.10073003 0.074622057 0.21602704 3092271
0.101119 0.074621536 0.21602553 3092271
0.10150795 0.074621007 0.21602401 3092271
0.1018969 0.074620485 0.21602249 3092271
0.10228585 0.074619964 0.21602097 3092271
0.10267479 0.074619442 0.21601947 3092271
0.10306372 0.074618913 0.21601795 3092271
0.10345265 0.074618392 0.21601643 3092271
0.10384158 0.07461787 0.21601492 3092271
0.10423049 0.074617349 0.2160134 3092271
0.10461941 0.07461682 0.21601188 3092271
0.10500832 0.074616298 0.21601038 3092271
0.10539722 0.074615777 0.21600886 3092271
0.10578611 0.074615248 0.21600734 3092271
0.106175 0.074614726 0.21600582 3092271
0.10656389 0.074614204 0.21600431 3092271
0.10695277 0.074613683 0.21600279 3092271
0.10734164 0.074613154 0.21600127 3092271
0.10773052 0.074612632 0.21599977 3092271
0.10811938 0.074612111 0.21599825 3092271
0.10850824 0.074611589 0.21599673 3092271
0.10889709 0.074611068 0.21599522 3092271
0.10928594 0.074610539 0.2159937 3092271
0.10967477 0.074610017 0.21599218 3092271
0.11006362 0.074609496 0.21599068 3092271
0.11045244 0.074608974 0.21598916 3092271
0.11084127 0.074608445 0.21598764 3092271
0.11123009 0.074607924 0.21598613 3092271
0.11161891 0.074607402 0.21598461 3092271
0.11200771 0.074606873 0.21598309 3092271
0.11239652 0.074606359 0.21598159 3092271
0.11278532 0.07460583 0.21598007 3092271
0.1131741 0.074605308 0.21597855 3092271
0.1135629 0.074604787 0.21597704 3092271
0.11395168 0.074604258 0.21597552 3092271
0.11434045 0.074603736 0.215974 3092271
0.11472923 0.074603215 0.2159725 3092271
0.11511799 0.074602693 0.21597098 3092271
0.11550675 0.074602164 0.21596946 3092271
0.11589551 0.074601643 0.21596795 3092271
0.11628425 0.074601121 0.21596643 3092271
0.11667299 0.0746006 0.21596491 3092271
0.11706174 0.074600078 0.21596341 3092271
0.11745047 0.074599549 0.21596189 3092271
0.11783919 0.074599028 0.21596037 3092271
0.11822792 0.074598506 0.21595886 3092271
0.11861663 0.074597985 0.21595734 3092271
0.11900534 0.074597456 0.21595582 3092271
0.11939405 0.074596934 0.21595432 3092271
0.11978275 0.074596412 0.2159528 3092271
0.12017145 0.074595891 0.21595129 3092271
0.12056013 0.074595369 0.21594977 3092271
0.12094881 0.07459484 0.21594825 3092271
0.1213375 0.074594319 0.21594675 3092271
0.12172617 0.074593797 0.21594523 3092271
0.12211484 0.074593268 0.21594371 3092271
0.1225035 0.074592754 0.2159422 3092271
0.12289216 0.074592225 0.21594068 3092271
0.1232808 0.074591704 0.21593916 3092271
0.12366945 0.074591182 0.21593766 3092271
0.12405809 0.074590653 0.21593614 3092271
0.12444673 0.074590139 0.21593463 3092271
0.071153119 0.075051919 0.21614279 3092271
0.071542494 0.07505139 0.21614127 3092271
0.071931869 0.075050868 0.21613976 3092271
0.072321236 0.075050339 0.21613824 3092271
0.072710596 0.07504981 0.21613672 3092271
0.073099956 0.075049289 0.2161352 3092271
0.073489301 0.07504876 0.21613368 3092271
0.073878653 0.075048238 0.21613218 3092271
0.074267991 0.075047709 0.21613066 3092271
0.074657321 0.07504718 0.21612914 3092271
0.075046651 0.075046651 0.21612762 3092271
0.075435974 0.075046122 0.2161261 3092271
0.075825289 0.075045593 0.21612458 3092271
0.076214604 0.075045072 0.21612307 3092271
0.076603912 0.07504455 0.21612155 3092271
0.076993212 0.075044021 0.21612003 3092271
0.077382512 0.075043492 0.21611851 3092271
0.077771798 0.075042963 0.21611699 3092271
0.078161091 0.075042441 0.21611549 3092271
0.078550369 0.075041912 0.21611397 3092271
0.078939639 0.075041384 0.21611245 3092271
0.07932891 0.075040855 0.21611093 3092271
0.079718173 0.075040333 0.21610942 3092271
0.080107428 0.075039804 0.2161079 3092271
0.080496684 0.075039282 0.21610638 3092271
0.080885924 0.075038753 0.21610487 3092271
0.081275165 0.075038224 0.21610335 3092271
0.081664406 0.075037703 0.21610184 3092271
0.082053639 0.075037174 0.21610032 3092271
0.082442857 0.075036645 0.2160988 3092271
0.082832076 0.075036116 0.21609728 3092271
0.083221294 0.075035587 0.21609576 3092271
0.083610505 0.075035065 0.21609426 3092271
0.083999708 0.075034536 0.21609274 3092271
0.084388904 0.075034015 0.21609122 3092271
0.084778093 0.075033486 0.2160897 3092271
0.085167281 0.075032964 0.21608819 3092271
0.085556462 0.075032435 0.21608667 3092271
0.085945636 0.075031906 0.21608515 3092271
0.08633481 0.075031377 0.21608363 3092271
0.086723976 0.075030856 0.21608213 3092271
0.087113135 0.075030327 0.21608061 3092271
0.087502286 0.075029798 0.21607909 3092271
0.08789143 0.075029269 0.21607757 3092271
0.088280581 0.075028747 0.21607606 3092271
0.088669717 0.075028218 0.21607454 3092271
0.089058846 0.075027697 0.21607302 3092271
0.089447975 0.075027168 0.2160715 3092271
0.089837097 0.075026646 0.21607 3092271
0.090226211 0.075026117 0.21606848 3092271
0.090615317 0.075025588 0.21606696 3092271
0.091004424 0.075025059 0.21606544 3092271
0.09139353 0.075024538 0.21606393 3092271
0.091782622 0.075024009 0.21606241 3092271
0.092171706 0.07502348 0.21606089 3092271
0.09256079 0.075022958 0.21605937 3092271
0.092949867 0.075022429 0.21605787 3092271
0.093338944 0.075021908 0.21605635 3092271
0.093728006 0.075021379 0.21605483 3092271
0.094117068 0.07502085 0.21605331 3092271
0.094506122 0.075020328 0.2160518 3092271
0.094895177 0.075019799 0.21605028 3092271
0.095284216 0.07501927 0.21604876 3092271
0.095673256 0.075018741 0.21604724 3092271
0.096062295 0.07501822 0.21604574 3092271
0.09645132 0.075017691 0.21604422 3092271
0.096840337 0.075017162 0.2160427 3092271
0.097229362 0.07501664 0.21604119 3092271
0.097618371 0.075016111 0.21603967 3092271
0.098007374 0.07501559 0.21603815 3092271
0.098396376 0.075015061 0.21603663 3092271
0.098785378 0.075014539 0.21603513 3092271
0.099174365 0.07501401 0.21603361 3092271
0.099563345 0.075013481 0.21603209 3092271
0.099952325 0.075012952 0.21603057 3092271
0.10034131 0.075012431 0.21602906 3092271
0.10073027 0.075011902 0.21602754 3092271
0.10111923 0.075011373 0.21602602 3092271
0.10150819 0.075010851 0.21602452 3092271
0.10189714 0.075010322 0.216023 3092271
0.10228609 0.075009793 0.21602148 3092271
0.10267504 0.075009272 0.21601997 3092271
0.10306396 0.07500875 0.21601845 3092271
0.10345289 0.075008221 0.21601693 3092271
0.10384182 0.075007692 0.21601541 3092271
0.10423074 0.07500717 0.21601391 3092271
0.10461965 0.075006641 0.21601239 3092271
0.10500856 0.075006112 0.21601087 3092271
0.10539746 0.075005591 0.21600936 3092271
0.10578636 0.075005062 0.21600784 3092271
0.10617525 0.075004533 0.21600632 3092271
0.10656414 0.075004011 0.21600482 3092271
0.10695302 0.075003482 0.2160033 3092271
0.10734189 0.075002953 0.21600178 3092271
0.10773077 0.075002432 0.21600027 3092271
0.10811963 0.075001903 0.21599875 3092271
0.10850849 0.075001381 0.21599723 3092271
0.10889734 0.075000852 0.21599571 3092271
0.10928619 0.075000331 0.21599421 3092271
0.10967503 0.074999802 0.21599269 3092271
0.11006387 0.074999273 0.21599117 3092271
0.1104527 0.074998751 0.21598966 3092271
0.11084153 0.074998222 0.21598814 3092271
0.11123034 0.074997693 0.21598662 3092271
0.11161917 0.074997172 0.21598512 3092271
0.11200798 0.074996643 0.2159836 3092271
0.11239678 0.074996114 0.21598208 3092271
0.11278558 0.074995592 0.21598057 3092271
0.11317437 0.074995063 0.21597905 3092271
0.11356316 0.074994542 0.21597753 3092271
0.11395194 0.074994013 0.21597603 3092271
0.11434072 0.074993491 0.21597451 3092271
0.11472949 0.074992962 0.21597299 3092271
0.11511826 0.074992441 0.21597148 3092271
0.11550702 0.074991912 0.21596996 3092271
0.11589577 0.074991383 0.21596844 3092271
0.11628453 0.074990861 0.21596694 3092271
0.11667327 0.074990332 0.21596542 3092271
0.11706201 0.074989811 0.21596391 3092271
0.11745074 0.074989282 0.2159624 3092271
0.11783947 0.074988753 0.21596088 3092271
0.1182282 0.074988231 0.21595937 3092271
0.11861691 0.074987702 0.21595785 3092271
0.11900562 0.074987173 0.21595633 3092271
0.11939433 0.074986652 0.21595483 3092271
0.11978303 0.074986123 0.21595331 3092271
0.12017173 0.074985594 0.21595179 3092271
0.12056042 0.074985072 0.21595028 3092271
0.1209491 0.074984543 0.21594876 3092271
0.12133778 0.074984021 0.21594724 3092271
0.12172645 0.0749835 0.21594574 3092271
0.12211512 0.074982971 0.21594422 3092271
0.12250379 0.074982449 0.21594271 3092271
0.12289244 0.07498192 0.21594119 3092271
0.12328109 0.074981391 0.21593967 3092271
0.12366974 0.07498087 0.21593817 3092271
0.12405838 0.074980341 0.21593665 3092271
0.12444701 0.074979812 0.21593513 3092271
0.070763901 0.075442508 0.21614482 3092271
0.071153283 0.075441979 0.2161433 3092271
0.071542665 0.075441442 0.21614178 3092271
0.071932033 0.075440913 0.21614026 3092271
0.072321407 0.075440392 0.21613875 3092271
0.072710767 0.075439863 0.21613723 3092271
0.073100127 0.075439326 0.21613571 3092271
0.073489472 0.075438797 0.21613419 3092271
0.073878817 0.075438268 0.21613267 3092271
0.074268162 0.075437739 0.21613117 3092271
0.0746575 0.075437211 0.21612965 3092271
0.07504683 0.075436682 0.21612813 3092271
0.075436153 0.075436153 0.21612661 3092271
0.075825468 0.075435624 0.21612509 3092271
0.076214783 0.075435095 0.21612358 3092271
0.076604091 0.075434566 0.21612206 3092271
0.076993391 0.075434037 0.21612054 3092271
0.077382691 0.075433508 0.21611902 3092271
0.077771984 0.075432971 0.2161175 3092271
0.078161269 0.07543245 0.216116 3092271
0.078550547 0.075431921 0.21611448 3092271
0.078939825 0.075431384 0.21611296 3092271
0.079329096 0.075430855 0.21611144 3092271
0.079718351 0.075430326 0.21610992 3092271
0.080107614 0.075429797 0.21610841 3092271
0.08049687 0.075429268 0.21610689 3092271
0.080886118 0.075428739 0.21610537 3092271
0.081275359 0.07542821 0.21610385 3092271
0.081664592 0.075427681 0.21610233 3092271
0.082053825 0.075427152 0.21610083 3092271
0.082443051 0.075426623 0.21609931 3092271
0.082832269 0.075426094 0.21609779 3092271
0.083221488 0.075425565 0.21609627 3092271
0.083610699 0.075425036 0.21609476 3092271
0.083999902 0.075424507 0.21609324 3092271
0.084389098 0.075423978 0.21609172 3092271
0.084778294 0.075423442 0.2160902 3092271
0.085167475 0.075422913 0.21608868 3092271
0.085556664 0.075422391 0.21608718 3092271
0.085945837 0.075421862 0.21608566 3092271
0.086335011 0.075421326 0.21608414 3092271
0.08672417 0.075420797 0.21608262 3092271
0.087113336 0.075420275 0.21608111 3092271
0.087502494 0.075419739 0.21607959 3092271
0.087891638 0.07541921 0.21607807 3092271
0.088280782 0.075418681 0.21607655 3092271
0.088669926 0.075418159 0.21607505 3092271
0.089059055 0.075417623 0.21607353 3092271
0.089448184 0.075417094 0.21607201 3092271
0.089837305 0.075416565 0.21607049 3092271
0.090226427 0.075416036 0.21606898 3092271
0.090615533 0.075415507 0.21606746 3092271
0.09100464 0.075414978 0.21606594 3092271
0.091393739 0.075414449 0.21606442 3092271
0.091782838 0.07541392 0.21606292 3092271
0.092171922 0.075413391 0.2160614 3092271
0.092561007 0.075412862 0.21605988 3092271
0.092950083 0.075412333 0.21605836 3092271
0.09333916 0.075411804 0.21605685 3092271
0.093728222 0.075411275 0.21605533 3092271
0.094117284 0.075410746 0.21605381 3092271
0.094506338 0.075410217 0.21605229 3092271
0.094895393 0.075409688 0.21605079 3092271
0.09528444 0.075409159 0.21604927 3092271
0.095673479 0.07540863 0.21604775 3092271
0.096062519 0.075408101 0.21604624 3092271
0.096451543 0.075407572 0.21604472 3092271
0.096840568 0.075407043 0.2160432 3092271
0.097229585 0.075406514 0.21604168 3092271
0.097618602 0.075405985 0.21604018 3092271
0.098007604 0.075405456 0.21603866 3092271
0.098396607 0.075404927 0.21603714 3092271
0.098785602 0.075404391 0.21603562 3092271
0.099174596 0.075403869 0.21603411 3092271
0.099563584 0.07540334 0.21603259 3092271
0.099952556 0.075402804 0.21603107 3092271
0.10034154 0.075402282 0.21602957 3092271
0.10073051 0.075401753 0.21602805 3092271
0.10111947 0.075401224 0.21602653 3092271
0.10150842 0.075400688 0.21602501 3092271
0.10189738 0.075400166 0.2160235 3092271
0.10228632 0.075399637 0.21602198 3092271
0.10267527 0.075399101 0.21602046 3092271
0.10306421 0.075398579 0.21601896 3092271
0.10345314 0.07539805 0.21601744 3092271
0.10384206 0.075397521 0.21601592 3092271
0.10423099 0.075396992 0.21601442 3092271
0.1046199 0.075396463 0.2160129 3092271
0.1050088 0.075395934 0.21601138 3092271
0.10539771 0.075395398 0.21600986 3092271
0.10578661 0.075394876 0.21600835 3092271
0.1061755 0.075394347 0.21600683 3092271
0.10656439 0.075393818 0.21600531 3092271
0.10695327 0.075393289 0.21600381 3092271
0.10734215 0.07539276 0.21600229 3092271
0.10773101 0.075392231 0.21600077 3092271
0.10811988 0.075391702 0.21599926 3092271
0.10850874 0.075391173 0.21599774 3092271
0.1088976 0.075390644 0.21599622 3092271
0.10928645 0.075390115 0.21599472 3092271
0.10967529 0.075389586 0.2159932 3092271
0.11006413 0.075389057 0.21599168 3092271
0.11045296 0.075388528 0.21599017 3092271
0.11084179 0.075387999 0.21598865 3092271
0.1112306 0.07538747 0.21598713 3092271
0.11161943 0.075386941 0.21598563 3092271
0.11200824 0.075386412 0.21598411 3092271
0.11239704 0.075385883 0.21598259 3092271
0.11278585 0.075385354 0.21598108 3092271
0.11317464 0.075384825 0.21597956 3092271
0.11356343 0.075384296 0.21597804 3092271
0.11395221 0.075383775 0.21597654 3092271
0.11434099 0.075383238 0.21597502 3092271
0.11472976 0.07538271 0.2159735 3092271
0.11511853 0.075382188 0.21597199 3092271
0.11550729 0.075381652 0.21597047 3092271
0.11589605 0.075381123 0.21596895 3092271
0.1162848 0.075380601 0.21596745 3092271
0.11667354 0.075380072 0.21596593 3092271
0.11706228 0.075379536 0.21596441 3092271
0.11745102 0.075379014 0.2159629 3092271
0.11783975 0.075378485 0.21596138 3092271
0.11822847 0.075377949 0.21595986 3092271
0.11861719 0.075377427 0.21595836 3092271
0.1190059 0.075376898 0.21595684 3092271
0.11939461 0.075376362 0.21595532 3092271
0.11978331 0.07537584 0.21595381 3092271
0.120172 0.075375311 0.21595229 3092271
0.12056069 0.075374782 0.21595077 3092271
0.12094938 0.075374253 0.21594927 3092271
0.12133806 0.075373724 0.21594775 3092271
0.12172674 0.075373195 0.21594624 3092271
0.1221154 0.075372666 0.21594472 3092271
0.12250407 0.075372137 0.2159432 3092271
0.12289273 0.075371608 0.2159417 3092271
0.12328138 0.075371079 0.21594018 3092271
0.12367003 0.07537055 0.21593866 3092271
0.12405867 0.075370029 0.21593715 3092271
0.12444731 0.075369492 0.21593563 3092271
0.069985278 0.075833634 0.21614835 3092271
0.070374675 0.075833105 0.21614684 3092271
0.070764065 0.075832568 0.21614532 3092271
0.071153454 0.075832032 0.2161438 3092271
0.071542829 0.075831503 0.21614228 3092271
0.071932204 0.075830966 0.21614076 3092271
0.072321571 0.075830437 0.21613924 3092271
0.072710939 0.075829908 0.21613774 3092271
0.073100299 0.075829372 0.21613622 3092271
0.073489651 0.075828843 0.2161347 3092271
0.073878996 0.075828306 0.21613318 3092271
0.074268334 0.075827777 0.21613166 3092271
0.074657671 0.075827248 0.21613015 3092271
0.075047001 0.075826712 0.21612863 3092271
0.075436331 0.075826183 0.21612711 3092271
0.075825647 0.075825647 0.21612559 3092271
0.076214962 0.07582511 0.21612407 3092271
0.076604269 0.075824589 0.21612257 3092271
0.076993577 0.075824052 0.21612105 3092271
0.07738287 0.075823516 0.21611953 3092271
0.077772163 0.075822987 0.21611801 3092271
0.078161448 0.07582245 0.21611649 3092271
0.078550734 0.075821921 0.21611498 3092271
0.078940012 0.075821392 0.21611346 3092271
0.079329275 0.075820856 0.21611194 3092271
0.079718545 0.075820327 0.21611042 3092271
0.080107801 0.07581979 0.2161089 3092271
0.080497056 0.075819261 0.2161074 3092271
0.080886304 0.075818732 0.21610588 3092271
0.081275545 0.075818196 0.21610436 3092271
0.081664786 0.075817667 0.21610284 3092271
0.082054012 0.075817131 0.21610132 3092271
0.082443245 0.075816602 0.21609981 3092271
0.082832463 0.075816073 0.21609829 3092271
0.083221681 0.075815536 0.21609677 3092271
0.083610892 0.075815 0.21609525 3092271
0.084000096 0.075814478 0.21609375 3092271
0.084389299 0.075813942 0.21609223 3092271
0.084778488 0.075813405 0.21609071 3092271
0.085167676 0.075812876 0.21608919 3092271
0.085556865 0.075812347 0.21608768 3092271
0.085946038 0.075811811 0.21608616 3092271
0.086335212 0.075811282 0.21608464 3092271
0.086724378 0.075810745 0.21608312 3092271
0.087113537 0.075810216 0.2160816 3092271
0.087502696 0.075809687 0.2160801 3092271
0.087891847 0.075809151 0.21607858 3092271
0.088280991 0.075808622 0.21607706 3092271
0.088670127 0.075808086 0.21607554 3092271
0.089059263 0.075807557 0.21607403 3092271
0.089448392 0.075807028 0.21607251 3092271
0.089837514 0.075806491 0.21607099 3092271
0.090226628 0.075805962 0.21606947 3092271
0.090615749 0.075805433 0.21606797 3092271
0.091004848 0.075804897 0.21606645 3092271
0.091393948 0.07580436 0.21606493 3092271
0.091783047 0.075803831 0.21606341 3092271
0.092172138 0.075803302 0.21606191 3092271
0.092561223 0.075802766 0.21606039 3092271
0.092950299 0.075802237 0.21605887 3092271
0.093339369 0.0758017 0.21605735 3092271
0.093728445 0.075801171 0.21605584 3092271
0.094117507 0.075800642 0.21605432 3092271
0.094506562 0.075800106 0.2160528 3092271
0.094895616 0.075799577 0.2160513 3092271
0.095284663 0.075799048 0.21604978 3092271
0.095673703 0.075798512 0.21604826 3092271
0.096062735 0.075797983 0.21604674 3092271
0.096451774 0.075797454 0.21604523 3092271
0.096840791 0.075796917 0.21604371 3092271
0.097229809 0.075796388 0.21604219 3092271
0.097618826 0.075795852 0.21604067 3092271
0.098007835 0.075795323 0.21603917 3092271
0.098396838 0.075794794 0.21603765 3092271
0.098785833 0.075794257 0.21603613 3092271
0.099174827 0.075793728 0.21603462 3092271
0.099563815 0.075793199 0.2160331 3092271
0.099952795 0.075792663 0.21603158 3092271
0.10034177 0.075792134 0.21603006 3092271
0.10073074 0.075791605 0.21602856 3092271
0.1011197 0.075791068 0.21602704 3092271
0.10150866 0.075790539 0.21602552 3092271
0.10189762 0.07579001 0.21602401 3092271
0.10228657 0.075789474 0.21602249 3092271
0.1026755 0.075788945 0.21602097 3092271
0.10306444 0.075788409 0.21601945 3092271
0.10345338 0.07578788 0.21601795 3092271
0.1038423 0.075787351 0.21601643 3092271
0.10423122 0.075786814 0.21601491 3092271
0.10462014 0.075786285 0.2160134 3092271
0.10500905 0.075785756 0.21601188 3092271
0.10539795 0.07578522 0.21601036 3092271
0.10578686 0.075784691 0.21600886 3092271
0.10617575 0.075784154 0.21600734 3092271
0.10656463 0.075783625 0.21600582 3092271
0.10695352 0.075783089 0.2160043 3092271
0.1073424 0.07578256 0.21600279 3092271
0.10773127 0.075782031 0.21600127 3092271
0.10812013 0.075781494 0.21599975 3092271
0.108509 0.075780965 0.21599825 3092271
0.10889785 0.075780436 0.21599673 3092271
0.1092867 0.0757799 0.21599521 3092271
0.10967555 0.075779371 0.2159937 3092271
0.11006438 0.075778842 0.21599218 3092271
0.11045322 0.075778306 0.21599066 3092271
0.11084205 0.075777777 0.21598916 3092271
0.11123087 0.075777248 0.21598764 3092271
0.11161968 0.075776711 0.21598612 3092271
0.1120085 0.075776182 0.21598461 3092271
0.11239731 0.075775653 0.21598309 3092271
0.1127861 0.075775117 0.21598157 3092271
0.1131749 0.075774588 0.21598007 3092271
0.11356369 0.075774059 0.21597855 3092271
0.11395247 0.075773522 0.21597703 3092271
0.11434126 0.075772993 0.21597552 3092271
0.11473003 0.075772464 0.215974 3092271
0.11511879 0.075771928 0.21597248 3092271
0.11550756 0.075771399 0.21597098 3092271
0.11589631 0.07577087 0.21596946 3092271
0.11628506 0.075770333 0.21596794 3092271
0.11667382 0.075769804 0.21596643 3092271
0.11706255 0.075769275 0.21596491 3092271
0.11745129 0.075768739 0.21596339 3092271
0.11784002 0.07576821 0.21596189 3092271
0.11822874 0.075767681 0.21596037 3092271
0.11861746 0.075767145 0.21595885 3092271
0.11900618 0.075766616 0.21595734 3092271
0.11939488 0.075766087 0.21595582 3092271
0.1197836 0.075765558 0.21595432 3092271
0.12017228 0.075765021 0.2159528 3092271
0.12056097 0.075764492 0.21595128 3092271
0.12094967 0.075763963 0.21594977 3092271
0.12133835 0.075763427 0.21594825 3092271
0.12172702 0.075762898 0.21594673 3092271
0.12211569 0.075762369 0.21594523 3092271
0.12250435 0.075761832 0.21594371 3092271
0.12289301 0.075761303 0.21594219 3092271
0.12328167 0.075760774 0.21594068 3092271
0.12367032 0.075760238 0.21593916 3092271
0.12405896 0.075759709 0.21593766 3092271
0.1244476 0.07575918 0.21593614 3092271
0.069206633 0.076224774 0.21615189 3092271
0.069596037 0.076224238 0.21615037 3092271
0.069985442 0.076223701 0.21614885 3092271
0.070374839 0.076223165 0.21614733 3092271
0.070764236 0.076222628 0.21614583 3092271
0.071153618 0.076222099 0.21614431 3092271
0.071543001 0.076221563 0.21614279 3092271
0.071932375 0.076221026 0.21614127 3092271
0.072321743 0.07622049 0.21613975 3092271
0.072711103 0.076219954 0.21613823 3092271
0.07310047 0.076219425 0.21613672 3092271
0.073489822 0.076218888 0.2161352 3092271
0.073879167 0.076218352 0.21613368 3092271
0.074268505 0.076217815 0.21613216 3092271
0.074657843 0.076217279 0.21613064 3092271
0.07504718 0.07621675 0.21612914 3092271
0.075436503 0.076216213 0.21612762 3092271
0.075825825 0.076215677 0.2161261 3092271
0.076215141 0.076215141 0.21612458 3092271
0.076604448 0.076214604 0.21612306 3092271
0.076993756 0.076214075 0.21612155 3092271
0.077383056 0.076213539 0.21612003 3092271
0.077772342 0.076213002 0.21611851 3092271
0.078161635 0.076212466 0.21611699 3092271
0.078550912 0.076211929 0.21611547 3092271
0.07894019 0.0762114 0.21611397 3092271
0.079329461 0.076210864 0.21611245 3092271
0.079718731 0.076210327 0.21611093 3092271
0.080107987 0.076209791 0.21610941 3092271
0.080497243 0.076209255 0.21610789 3092271
0.080886498 0.076208726 0.21610638 3092271
0.081275739 0.076208189 0.21610487 3092271
0.081664979 0.076207653 0.21610335 3092271
0.082054205 0.076207116 0.21610183 3092271
0.082443438 0.076206587 0.21610032 3092271
0.082832664 0.076206051 0.2160988 3092271
0.083221875 0.076205514 0.21609728 3092271
0.083611086 0.076204978 0.21609576 3092271
0.084000289 0.076204441 0.21609424 3092271
0.084389493 0.076203912 0.21609274 3092271
0.084778689 0.076203376 0.21609122 3092271
0.085167877 0.07620284 0.2160897 3092271
0.085557058 0.076202303 0.21608818 3092271
0.08594624 0.076201767 0.21608667 3092271
0.086335413 0.076201238 0.21608515 3092271
0.086724579 0.076200701 0.21608363 3092271
0.087113738 0.076200165 0.21608211 3092271
0.087502904 0.076199628 0.21608061 3092271
0.087892048 0.076199092 0.21607909 3092271
0.088281199 0.076198563 0.21607757 3092271
0.088670336 0.076198027 0.21607605 3092271
0.089059465 0.07619749 0.21607453 3092271
0.089448601 0.076196954 0.21607302 3092271
0.089837722 0.076196417 0.2160715 3092271
0.090226844 0.076195888 0.21606998 3092271
0.090615951 0.076195352 0.21606846 3092271
0.091005065 0.076194815 0.21606696 3092271
0.091394164 0.076194279 0.21606544 3092271
0.091783263 0.07619375 0.21606392 3092271
0.092172354 0.076193213 0.21606241 3092271
0.092561439 0.076192677 0.21606089 3092271
0.092950515 0.076192141 0.21605937 3092271
0.093339592 0.076191604 0.21605785 3092271
0.093728662 0.076191075 0.21605635 3092271
0.094117723 0.076190539 0.21605483 3092271
0.094506785 0.076190002 0.21605331 3092271
0.094895832 0.076189466 0.21605179 3092271
0.095284887 0.076188937 0.21605028 3092271
0.095673926 0.0761884 0.21604876 3092271
0.096062958 0.076187864 0.21604724 3092271
0.09645199 0.076187328 0.21604572 3092271
0.096841022 0.076186799 0.21604422 3092271
0.09723004 0.076186262 0.2160427 3092271
0.097619049 0.076185726 0.21604118 3092271
0.098008066 0.076185197 0.21603967 3092271
0.098397069 0.07618466 0.21603815 3092271
0.098786063 0.076184124 0.21603663 3092271
0.099175058 0.076183587 0.21603511 3092271
0.099564046 0.076183058 0.21603361 3092271
0.099953026 0.076182522 0.21603209 3092271
0.10034201 0.076181985 0.21603057 3092271
0.10073097 0.076181449 0.21602905 3092271
0.10111994 0.07618092 0.21602754 3092271
0.1015089 0.076180384 0.21602602 3092271
0.10189785 0.076179847 0.2160245 3092271
0.10228681 0.076179318 0.216023 3092271
0.10267575 0.076178782 0.21602148 3092271
0.10306469 0.076178245 0.21601996 3092271
0.10345362 0.076177716 0.21601845 3092271
0.10384255 0.07617718 0.21601693 3092271
0.10423147 0.076176643 0.21601541 3092271
0.10462038 0.076176107 0.21601389 3092271
0.1050093 0.076175578 0.21601239 3092271
0.1053982 0.076175041 0.21601087 3092271
0.1057871 0.076174505 0.21600935 3092271
0.106176 0.076173969 0.21600784 3092271
0.10656489 0.07617344 0.21600632 3092271
0.10695376 0.076172903 0.2160048 3092271
0.10734265 0.076172367 0.2160033 3092271
0.10773152 0.07617183 0.21600178 3092271
0.10812038 0.076171301 0.21600026 3092271
0.10850925 0.076170765 0.21599875 3092271
0.1088981 0.076170228 0.21599723 3092271
0.10928696 0.076169692 0.21599571 3092271
0.10967579 0.076169156 0.21599419 3092271
0.11006464 0.076168627 0.21599269 3092271
0.11045347 0.07616809 0.21599117 3092271
0.1108423 0.076167554 0.21598965 3092271
0.11123113 0.076167025 0.21598814 3092271
0.11161994 0.076166488 0.21598662 3092271
0.11200876 0.076165952 0.2159851 3092271
0.11239757 0.076165423 0.2159836 3092271
0.11278637 0.076164886 0.21598208 3092271
0.11317516 0.07616435 0.21598056 3092271
0.11356395 0.076163821 0.21597905 3092271
0.11395274 0.076163284 0.21597753 3092271
0.11434152 0.076162748 0.21597601 3092271
0.1147303 0.076162219 0.21597451 3092271
0.11511906 0.076161683 0.21597299 3092271
0.11550783 0.076161146 0.21597147 3092271
0.11589659 0.076160617 0.21596996 3092271
0.11628534 0.076160081 0.21596844 3092271
0.11667409 0.076159544 0.21596694 3092271
0.11706283 0.076159015 0.21596542 3092271
0.11745156 0.076158479 0.2159639 3092271
0.1178403 0.076157942 0.2159624 3092271
0.11822902 0.076157406 0.21596088 3092271
0.11861774 0.07615687 0.21595936 3092271
0.11900645 0.076156341 0.21595785 3092271
0.11939517 0.076155804 0.21595633 3092271
0.11978386 0.076155268 0.21595481 3092271
0.12017257 0.076154739 0.21595331 3092271
0.12056126 0.076154202 0.21595179 3092271
0.12094995 0.076153666 0.21595027 3092271
0.12133863 0.076153137 0.21594876 3092271
0.1217273 0.0761526 0.21594724 3092271
0.12211598 0.076152071 0.21594574 3092271
0.12250464 0.076151535 0.21594422 3092271
0.1228933 0.076150998 0.2159427 3092271
0.12328196 0.076150469 0.21594119 3092271
0.12367061 0.076149933 0.21593967 3092271
0.12405924 0.076149397 0.21593815 3092271
0.12444789 0.076148868 0.21593665 3092271
0.068817385 0.076615386 0.21615392 3092271
0.069206797 0.076614849 0.2161524 3092271
0.069596201 0.076614305 0.21615088 3092271
0.069985606 0.076613769 0.21614936 3092271
0.070375003 0.076613232 0.21614784 3092271
0.070764393 0.076612689 0.21614632 3092271
0.071153782 0.07661216 0.21614482 3092271
0.071543165 0.076611623 0.2161433 3092271
0.071932539 0.076611079 0.21614178 3092271
0.072321914 0.076610543 0.21614026 3092271
0.072711274 0.076610006 0.21613874 3092271
0.073100634 0.076609462 0.21613722 3092271
0.073489994 0.076608934 0.21613571 3092271
0.073879339 0.07660839 0.21613419 3092271
0.074268684 0.076607853 0.21613267 3092271
0.074658021 0.076607317 0.21613115 3092271
0.075047351 0.076606773 0.21612963 3092271
0.075436682 0.076606244 0.21612813 3092271
0.075826004 0.076605707 0.21612661 3092271
0.076215319 0.076605164 0.21612509 3092271
0.076604627 0.076604627 0.21612357 3092271
0.076993927 0.076604091 0.21612205 3092271
0.077383235 0.076603554 0.21612054 3092271
0.077772528 0.076603018 0.21611902 3092271
0.078161813 0.076602474 0.2161175 3092271
0.078551099 0.076601937 0.21611598 3092271
0.078940377 0.076601401 0.21611446 3092271
0.079329647 0.076600865 0.21611296 3092271
0.079718918 0.076600328 0.21611144 3092271
0.080108173 0.076599792 0.21610992 3092271
0.080497429 0.076599248 0.2161084 3092271
0.080886684 0.076598719 0.21610689 3092271
0.081275932 0.076598175 0.21610537 3092271
0.081665166 0.076597638 0.21610385 3092271
0.082054399 0.076597102 0.21610233 3092271
0.082443625 0.076596558 0.21610081 3092271
0.082832858 0.076596029 0.21609931 3092271
0.083222069 0.076595493 0.21609779 3092271
0.08361128 0.076594949 0.21609627 3092271
0.084000491 0.076594412 0.21609475 3092271
0.084389687 0.076593876 0.21609323 3092271
0.08477889 0.076593339 0.21609172 3092271
0.085168079 0.076592803 0.2160902 3092271
0.08555726 0.076592259 0.21608868 3092271
0.085946441 0.076591723 0.21608716 3092271
0.086335614 0.076591194 0.21608566 3092271
0.08672478 0.07659065 0.21608414 3092271
0.087113947 0.076590113 0.21608262 3092271
0.087503098 0.076589577 0.2160811 3092271
0.087892257 0.07658904 0.21607959 3092271
0.088281401 0.076588504 0.21607807 3092271
0.088670544 0.07658796 0.21607655 3092271
0.089059673 0.076587424 0.21607503 3092271
0.08944881 0.076586887 0.21607353 3092271
0.089837931 0.076586351 0.21607201 3092271
0.090227053 0.076585814 0.21607049 3092271
0.090616167 0.076585278 0.21606897 3092271
0.091005281 0.076584741 0.21606746 3092271
0.09139438 0.076584205 0.21606594 3092271
0.091783471 0.076583661 0.21606442 3092271
0.092172563 0.076583125 0.2160629 3092271
0.092561655 0.076582588 0.2160614 3092271
0.092950739 0.076582052 0.21605988 3092271
0.093339808 0.076581515 0.21605836 3092271
0.093728878 0.076580979 0.21605684 3092271
0.094117947 0.076580442 0.21605533 3092271
0.094507001 0.076579906 0.21605381 3092271
0.094896056 0.076579362 0.21605229 3092271
0.095285103 0.076578826 0.21605077 3092271
0.09567415 0.076578289 0.21604927 3092271
0.096063189 0.076577753 0.21604775 3092271
0.096452214 0.076577216 0.21604623 3092271
0.096841246 0.07657668 0.21604472 3092271
0.097230271 0.076576144 0.2160432 3092271
0.09761928 0.076575607 0.21604168 3092271
0.09800829 0.076575063 0.21604016 3092271
0.0983973 0.076574534 0.21603866 3092271
0.098786294 0.07657399 0.21603714 3092271
0.099175289 0.076573454 0.21603562 3092271
0.099564277 0.076572917 0.2160341 3092271
0.099953264 0.076572381 0.21603259 3092271
0.10034224 0.076571845 0.21603107 3092271
0.10073121 0.076571308 0.21602955 3092271
0.10112018 0.076570772 0.21602805 3092271
0.10150914 0.076570235 0.21602653 3092271
0.10189809 0.076569691 0.21602501 3092271
0.10228704 0.076569155 0.21602349 3092271
0.10267599 0.076568618 0.21602198 3092271
0.10306492 0.076568082 0.21602046 3092271
0.10345386 0.076567546 0.21601894 3092271
0.10384279 0.076567009 0.21601744 3092271
0.10423171 0.076566473 0.21601592 3092271
0.10462063 0.076565936 0.2160144 3092271
0.10500954 0.0765654 0.2160129 3092271
0.10539845 0.076564863 0.21601138 3092271
0.10578734 0.076564319 0.21600986 3092271
0.10617624 0.076563783 0.21600834 3092271
0.10656513 0.076563247 0.21600683 3092271
0.10695402 0.07656271 0.21600531 3092271
0.10734289 0.076562174 0.21600379 3092271
0.10773177 0.076561637 0.21600229 3092271
0.10812064 0.076561101 0.21600077 3092271
0.1085095 0.076560564 0.21599925 3092271
0.10889836 0.076560028 0.21599774 3092271
0.10928721 0.076559491 0.21599622 3092271
0.10967606 0.076558948 0.2159947 3092271
0.1100649 0.076558419 0.2159932 3092271
0.11045373 0.076557875 0.21599168 3092271
0.11084256 0.076557338 0.21599016 3092271
0.11123139 0.076556809 0.21598865 3092271
0.11162021 0.076556265 0.21598713 3092271
0.11200902 0.076555729 0.21598561 3092271
0.11239783 0.076555192 0.21598411 3092271
0.11278663 0.076554656 0.21598259 3092271
0.11317543 0.07655412 0.21598107 3092271
0.11356422 0.076553583 0.21597956 3092271
0.11395301 0.076553047 0.21597804 3092271
0.11434179 0.07655251 0.21597652 3092271
0.11473057 0.076551974 0.21597502 3092271
0.11511933 0.076551437 0.2159735 3092271
0.11550809 0.076550893 0.21597198 3092271
0.11589686 0.076550364 0.21597047 3092271
0.11628561 0.076549821 0.21596895 3092271
0.11667436 0.076549284 0.21596743 3092271
0.11706311 0.076548755 0.21596593 3092271
0.11745184 0.076548211 0.21596441 3092271
0.11784057 0.076547675 0.21596289 3092271
0.1182293 0.076547138 0.21596138 3092271
0.11861802 0.076546602 0.21595986 3092271
0.11900673 0.076546066 0.21595834 3092271
0.11939544 0.076545529 0.21595684 3092271
0.11978415 0.076544993 0.21595532 3092271
0.12017284 0.076544449 0.2159538 3092271
0.12056154 0.07654392 0.21595229 3092271
0.12095023 0.076543383 0.21595077 3092271
0.12133891 0.076542847 0.21594927 3092271
0.12172759 0.07654231 0.21594775 3092271
0.12211626 0.076541767 0.21594623 3092271
0.12250493 0.076541238 0.21594472 3092271
0.12289359 0.076540694 0.2159432 3092271
0.12328224 0.076540157 0.21594168 3092271
0.1236709 0.076539628 0.21594018 3092271
0.12405954 0.076539084 0.21593866 3092271
0.12444817 0.076538548 0.21593714 3092271
0.068038695 0.077006541 0.21615745 3092271
0.068428122 0.077006005 0.21615593 3092271
0.068817541 0.077005461 0.21615441 3092271
0.06920696 0.077004924 0.21615291 3092271
0.069596365 0.077004381 0.21615139 3092271
0.06998577 0.077003844 0.21614987 3092271
0.070375167 0.0770033 0.21614835 3092271
0.070764564 0.077002756 0.21614683 3092271
0.071153946 0.07700222 0.21614531 3092271
0.071543336 0.077001683 0.2161438 3092271
0.071932711 0.07700114 0.21614228 3092271
0.072322078 0.077000596 0.21614076 3092271
0.072711445 0.077000059 0.21613924 3092271
0.073100805 0.076999515 0.21613772 3092271
0.073490165 0.076998979 0.21613622 3092271
0.07387951 0.076998435 0.2161347 3092271
0.074268855 0.076997899 0.21613318 3092271
0.074658193 0.076997355 0.21613166 3092271
0.07504753 0.076996811 0.21613014 3092271
0.075436853 0.076996274 0.21612862 3092271
0.075826183 0.076995738 0.21612711 3092271
0.076215498 0.076995194 0.21612559 3092271
0.076604806 0.07699465 0.21612407 3092271
0.076994114 0.076994114 0.21612255 3092271
0.077383414 0.07699357 0.21612103 3092271
0.077772707 0.076993033 0.21611953 3092271
0.078162 0.076992489 0.21611801 3092271
0.078551278 0.076991953 0.21611649 3092271
0.078940555 0.076991409 0.21611497 3092271
0.079329833 0.076990865 0.21611345 3092271
0.079719104 0.076990329 0.21611194 3092271
0.080108367 0.076989792 0.21611042 3092271
0.080497622 0.076989248 0.2161089 3092271
0.080886871 0.076988705 0.21610738 3092271
0.081276119 0.076988168 0.21610588 3092271
0.081665359 0.076987632 0.21610436 3092271
0.082054593 0.076987088 0.21610284 3092271
0.082443818 0.076986544 0.21610132 3092271
0.082833044 0.076986007 0.2160998 3092271
0.083222263 0.076985471 0.21609829 3092271
0.083611481 0.076984927 0.21609677 3092271
0.084000684 0.076984383 0.21609525 3092271
0.084389888 0.076983847 0.21609373 3092271
0.084779084 0.07698331 0.21609223 3092271
0.08516828 0.076982766 0.21609071 3092271
0.085557461 0.076982222 0.21608919 3092271
0.085946642 0.076981686 0.21608767 3092271
0.086335815 0.076981142 0.21608615 3092271
0.086724989 0.076980606 0.21608464 3092271
0.087114148 0.076980062 0.21608312 3092271
0.087503307 0.076979525 0.2160816 3092271
0.087892458 0.076978981 0.21608008 3092271
0.088281609 0.076978445 0.21607858 3092271
0.088670753 0.076977901 0.21607706 3092271
0.089059882 0.076977365 0.21607554 3092271
0.089449018 0.076976821 0.21607402 3092271
0.089838147 0.076976284 0.21607251 3092271
0.090227261 0.07697574 0.21607099 3092271
0.090616375 0.076975204 0.21606947 3092271
0.091005482 0.07697466 0.21606795 3092271
0.091394596 0.076974124 0.21606645 3092271
0.091783687 0.07697358 0.21606493 3092271
0.092172779 0.076973043 0.21606341 3092271
0.092561863 0.076972499 0.21606189 3092271
0.092950955 0.076971963 0.21606039 3092271
0.093340032 0.076971419 0.21605887 3092271
0.093729101 0.076970883 0.21605735 3092271
0.094118163 0.076970339 0.21605583 3092271
0.094507225 0.076969802 0.21605432 3092271
0.094896279 0.076969258 0.2160528 3092271
0.095285326 0.076968722 0.21605128 3092271
0.095674373 0.076968186 0.21604978 3092271
0.096063413 0.076967642 0.21604826 3092271
0.096452445 0.076967098 0.21604674 3092271
0.096841469 0.076966561 0.21604522 3092271
0.097230494 0.076966025 0.21604371 3092271
0.097619511 0.076965481 0.21604219 3092271
0.098008521 0.076964937 0.21604067 3092271
0.098397523 0.076964401 0.21603915 3092271
0.098786525 0.076963864 0.21603765 3092271
0.09917552 0.07696332 0.21603613 3092271
0.099564508 0.076962776 0.21603461 3092271
0.099953495 0.07696224 0.2160331 3092271
0.10034247 0.076961704 0.21603158 3092271
0.10073144 0.07696116 0.21603006 3092271
0.10112041 0.076960616 0.21602854 3092271
0.10150938 0.076960087 0.21602704 3092271
0.10189833 0.076959543 0.21602552 3092271
0.10228728 0.076958999 0.216024 3092271
0.10267623 0.076958463 0.21602249 3092271
0.10306517 0.076957926 0.21602097 3092271
0.1034541 0.076957382 0.21601945 3092271
0.10384303 0.076956838 0.21601793 3092271
0.10423195 0.076956302 0.21601643 3092271
0.10462087 0.076955765 0.21601491 3092271
0.10500978 0.076955222 0.21601339 3092271
0.10539869 0.076954685 0.21601188 3092271
0.10578759 0.076954141 0.21601036 3092271
0.10617649 0.076953605 0.21600884 3092271
0.10656539 0.076953068 0.21600734 3092271
0.10695427 0.076952524 0.21600582 3092271
0.10734314 0.076951981 0.2160043 3092271
0.10773203 0.076951444 0.21600279 3092271
0.10812089 0.076950908 0.21600127 3092271
0.10850975 0.076950364 0.21599975 3092271
0.10889861 0.07694982 0.21599823 3092271
0.10928746 0.076949283 0.21599673 3092271
