# .PCD v0.7 - Point Cloud Data file format
VERSION 0.7
FIELDS x y z rgb
SIZE 4 4 4 4
TYPE F F F U
COUNT 1 1 1 1
WIDTH 1117
HEIGHT 1
VIEWPOINT 0 0 0 1 0 0 0
POINTS 1117
DATA ascii
-0.015135927 0.098588064 0.45357278 6710886
-0.014365176 0.098914497 0.45507458 7171437
-0.013565421 0.099068679 0.45578393 7171437
-0.012763169 0.099223346 0.45649549 7105644
-0.011958407 0.099378489 0.45720926 6579556
-0.011151126 0.099534124 0.45792529 5658197
-0.010341312 0.099690244 0.45864356 5592403
-0.0095289536 0.099846862 0.45936409 6577235
-0.0087160757 0.10002735 0.46019447 7166282
-0.0079869498 0.10130814 0.46608701 7231818
-0.0071758805 0.10172866 0.46802166 7100232
-0.0063713156 0.1023658 0.47095296 7100747
-0.0055425083 0.10274957 0.47271857 6444105
-0.059475653 0.10866605 0.49582368 7102293
-0.05807225 0.10772181 0.49151528 6574146
-0.056994457 0.10736164 0.48987195 6574403
-0.055923842 0.10700389 0.48823956 5978927
-0.054768309 0.10646959 0.48580167 5316633
-0.053615976 0.10592425 0.48331335 5184022
-0.052499451 0.10543278 0.48107088 5118229
-0.051396981 0.1049535 0.47888398 4530726
-0.050315719 0.10450188 0.47682333 4334893
-0.049245518 0.10405792 0.47479764 4400428
-0.048167866 0.10358223 0.47262713 3878204
-0.047096945 0.10310412 0.47044563 4662311
-0.046035863 0.10263041 0.46828416 4600891
-0.044988431 0.10216999 0.46618333 6178620
-0.043920577 0.10164476 0.46378681 6508610
-0.042856552 0.10110818 0.46133849 6574403
-0.041803706 0.10057724 0.45891589 6574403
-0.040804569 0.10015666 0.45699692 6574403
-0.039879154 0.099903449 0.45584154 6574403
-0.038980443 0.099707864 0.45494911 6574403
-0.038085241 0.099513046 0.4540602 6574403
-0.037193529 0.099318989 0.45317474 6574403
-0.03630529 0.099125683 0.45229271 6574403
-0.035420503 0.098933131 0.45141414 6574403
-0.034531694 0.098720022 0.45044175 6574403
-0.033637874 0.098481968 0.44935557 6574660
-0.032748356 0.098245062 0.44827461 6049862
-0.031863105 0.098009296 0.44719884 5195845
-0.03102909 0.097922973 0.44680497 6640969
-0.03022239 0.097920544 0.44679388 6051149
-0.029415729 0.097918108 0.44678277 5723473
-0.028609106 0.097915672 0.44677165 5657682
-0.027802523 0.097913235 0.44676054 5592403
-0.026995981 0.097910799 0.44674942 5592403
-0.026189482 0.09790837 0.44673833 5592402
-0.025386233 0.097918332 0.44678378 5592146
-0.024602635 0.098007217 0.44718936 5592402
-0.023817612 0.098096266 0.44759569 5460817
-0.023031162 0.09818548 0.44800273 5000267
-0.022243749 0.098276928 0.44841999 5329231
-0.021457219 0.098379329 0.44888723 5460817
-0.020669052 0.098481953 0.44935548 5526353
-0.019879237 0.098584786 0.44982469 5263694
-0.019087771 0.098687835 0.45029488 4803144
-0.018294647 0.098791093 0.45076606 4408130
-0.017499864 0.098894574 0.45123821 5066060
-0.016712418 0.099051647 0.4519549 6250334
-0.015929814 0.099255003 0.45288277 6842472
-0.015156785 0.099543214 0.45419782 7171437
-0.014359805 0.099698074 0.45490444 7171437
-0.013560341 0.099853419 0.45561326 7105644
-0.012758382 0.10000925 0.45632428 7039851
-0.011956053 0.10018347 0.45711923 6382177
-0.011151704 0.10036534 0.45794904 5658453
-0.01034443 0.10054787 0.45878187 5592402
-0.0095342146 0.10073105 0.45961773 5854030
-0.0088030025 0.10186331 0.46478403 7034696
-0.0079893367 0.10217942 0.46622634 7100233
-0.0071872543 0.10273546 0.46876347 7034440
-0.0063744062 0.10326538 0.47118142 7231818
-0.0055415919 0.10358514 0.47264042 6443849
-0.059571058 0.10973616 0.49661902 7102550
-0.058181692 0.10881309 0.49244159 6640453
-0.057041109 0.10833389 0.49027294 6574403
-0.055969469 0.1079726 0.48863789 5978415
-0.054884035 0.10757271 0.48682818 5646361
-0.053728689 0.10702056 0.48432937 5184278
-0.052602455 0.1065091 0.48201475 5118229
-0.051501635 0.10603277 0.47985908 4857373
-0.050405283 0.10554952 0.4776721 4335150
-0.049329575 0.10509344 0.47560805 4530984
-0.048260577 0.10463576 0.47353679 4008760
-0.047187172 0.10415187 0.47134688 4662312
-0.04612365 0.10367243 0.46917716 4272701
-0.045069877 0.10319738 0.46702731 6113086
-0.044004556 0.1026773 0.46467364 6508612
-0.042937733 0.10213344 0.46221235 6574660
-0.041882146 0.1015953 0.459777 6574403
-0.04085974 0.10111754 0.45761481 6574403
-0.039958842 0.10092697 0.45675239 6574403
-0.039058179 0.10072899 0.45585641 6574403
-0.038161043 0.10053178 0.45496392 6574403
-0.037267413 0.10033534 0.45407495 6574403
-0.03637727 0.10013968 0.45318943 6574403
-0.035490591 0.09994477 0.45230737 6574403
-0.034607358 0.099750616 0.45142871 6574403
-0.033727549 0.099557221 0.45055348 6574403
-0.032840125 0.099331245 0.44953081 6574660
-0.03195218 0.0990922 0.44844902 6312520
-0.031068496 0.098854311 0.44737241 5919049
-0.030235492 0.09876927 0.44698757 6247756
-0.02942848 0.098766819 0.44697645 5789008
-0.028621508 0.09876436 0.44696534 5657938
-0.027814576 0.098761901 0.44695422 5592403
-0.027007686 0.09875945 0.4469431 5592403
-0.026200835 0.098756991 0.44693199 5592403
-0.025409088 0.098813117 0.44718599 5592403
-0.024624802 0.098902896 0.44759229 5263695
-0.023839094 0.098992847 0.44799936 4671559
-0.023053311 0.099088795 0.44843358 4539716
-0.022267602 0.099192053 0.44890088 5329232
-0.021480255 0.099295519 0.44936913 5592403
-0.020691263 0.099399202 0.44983837 5592403
-0.019900622 0.099503107 0.45030859 5460818
-0.019108325 0.099607229 0.4507798 4868937
-0.018314369 0.099711567 0.45125198 5000266
-0.017518749 0.099816129 0.45172518 5789783
-0.016727131 0.099954806 0.45235279 6710886
-0.015945351 0.10016952 0.45332447 7039851
-0.015153013 0.10033752 0.45408478 6974058
-0.014359779 0.10051845 0.4549036 6974058
-0.013563679 0.10070004 0.4557254 6908265
-0.012764697 0.10088228 0.45655015 6842472
-0.011962818 0.10106518 0.45737788 6579300
-0.011158026 0.10124876 0.45820865 5723989
-0.010350306 0.10143299 0.45904243 4803144
-0.0096145058 0.10241539 0.46348834 4735806
-0.008805627 0.10273232 0.46492261 6968904
-0.0079956418 0.10310169 0.46659425 7100233
-0.0071986639 0.10374545 0.46950763 7166025
-0.0063733561 0.10409815 0.47110379 7297610
-0.0055406759 0.10442043 0.47256231 6443848
-0.061308425 0.11385851 0.51110274 6772298
-0.058280777 0.10988818 0.49328023 6706761
-0.057087839 0.10930772 0.49067459 6574146
-0.056015167 0.10894288 0.48903686 5912622
-0.054949634 0.10858048 0.48741004 5910294
-0.053841874 0.10812148 0.48534966 5513747
-0.052705865 0.10758965 0.48296231 5118229
-0.05160363 0.10711005 0.48080942 5052951
-0.050507657 0.10662728 0.47864226 4530984
-0.049418595 0.10614255 0.47646636 4661283
-0.048348438 0.10568199 0.47439891 4204337
-0.047277745 0.10520364 0.47225162 4205366
-0.046211775 0.10471842 0.47007355 4206395
-0.045148343 0.10422094 0.4678404 5981759
-0.044099446 0.1037387 0.46567562 6574919
-0.04303791 0.10320742 0.46329075 6640454
-0.04197935 0.10266237 0.46084407 6574404
-0.040931907 0.10212304 0.45842308 6574403
-0.040015053 0.10189401 0.45739493 6574403
-0.039130896 0.10174033 0.45670509 6574403
-0.038234357 0.10154717 0.45583799 6574403
-0.037341215 0.10135473 0.45497414 6574403
-0.036449533 0.1011577 0.4540897 6574403
-0.035560958 0.10096042 0.45320413 6574403
-0.034675837 0.10076391 0.45232201 6574403
-0.033794157 0.10056816 0.45144331 6574403
-0.032915898 0.10037317 0.45056802 6574403
-0.032041036 0.10017893 0.44969609 6574403
-0.031155383 0.099939995 0.44862354 6509641
-0.030273272 0.099699974 0.44754609 6116172
-0.029441243 0.099616267 0.44717032 5854543
-0.028633922 0.099613786 0.4471592 5657938
-0.027826639 0.099611305 0.44714805 5592403
-0.027019398 0.099608824 0.44713694 5592660
-0.026215525 0.099619001 0.4471826 5592660
-0.025431981 0.099709518 0.44758892 5723990
-0.02464701 0.099800192 0.44799596 5526612
-0.023862924 0.099900715 0.4484472 5000268
-0.023078034 0.10000481 0.4489145 4671303
-0.022291509 0.10010914 0.44938281 5723990
-0.02150334 0.10021368 0.44985208 6118748
-0.020713523 0.10031844 0.45032233 6250335
-0.019922053 0.10042342 0.45079356 5921369
-0.019128926 0.10052861 0.45126578 5263695
-0.0183337 0.10063164 0.45172825 6052955
-0.017535729 0.10072849 0.45216301 6513763
-0.01674068 0.10085239 0.45271921 6710886
-0.015952343 0.1010315 0.45352325 6842472
-0.015161531 0.10121346 0.45434004 6908265
-0.014367865 0.10139608 0.45515978 6184542
-0.013571331 0.10157936 0.45598251 6447714
-0.012771911 0.10176329 0.45680818 6842472
-0.011969591 0.1019479 0.45763686 6776678
-0.011164355 0.10213318 0.45846856 5723990
-0.010421498 0.10296439 0.46219984 2763305
-0.009617365 0.10328213 0.46362615 4670270
-0.0088082524 0.10360183 0.46506125 6969160
-0.0080082752 0.10410758 0.46733153 7034439
-0.0071997298 0.10460784 0.46957713 7297610
-0.006372306 0.10493064 0.47102618 7297610
-0.0055397605 0.10525545 0.47248423 6443848
-0.061221521 0.11461774 0.51037824 6772298
-0.058373779 0.11095475 0.4940674 6970448
-0.057179563 0.11036985 0.49146298 6574146
-0.056077663 0.10994755 0.48958248 6110514
-0.054994389 0.10954882 0.48780701 5976086
-0.053934909 0.10918531 0.48618832 6304779
-0.052809678 0.10867446 0.4839136 5250068
-0.05170482 0.10818908 0.48175225 5118229
-0.050609786 0.10770801 0.47961009 4857116
-0.049518708 0.10721877 0.4774316 4792096
-0.048436876 0.10673258 0.47526667 4465706
-0.047368668 0.10625944 0.47315982 3943996
-0.046296272 0.10575937 0.47093308 4468022
-0.045226283 0.10524621 0.46864802 5850433
-0.044170428 0.10474702 0.46642518 6838351
-0.043138556 0.10428642 0.46437418 6772554
-0.042076997 0.10373438 0.46191606 6640454
-0.041026622 0.10318817 0.45948383 6574403
-0.040052101 0.10281416 0.45781842 6574403
-0.039171182 0.10266973 0.45717528 6574403
-0.038292732 0.1025257 0.45653394 6574403
-0.037407 0.10235542 0.45577571 6574403
-0.036515549 0.10216147 0.4549121 6574403
-0.035627466 0.10196827 0.45405176 6574403
-0.034742743 0.1017758 0.45319471 6574403
-0.03386103 0.10158309 0.45233664 6574403
-0.032980908 0.10138575 0.45145789 6574403
-0.032104194 0.10118917 0.45058253 6574403
-0.031230874 0.10099335 0.44971058 6574403
-0.030357968 0.10078845 0.44879821 6509382
-0.029477431 0.1005463 0.44771993 6313550
-0.028646346 0.10046395 0.44735321 5723473
-0.027838713 0.10046145 0.44734207 5592402
-0.027031122 0.10045895 0.44733095 5658196
-0.026239147 0.10051612 0.44758552 6118747
-0.025455024 0.10060795 0.44799444 6316127
-0.024672585 0.10071268 0.44846079 6184542
-0.023888515 0.10081764 0.44892815 5723991
-0.023102811 0.10092281 0.44939646 5263440
-0.022315465 0.1010282 0.44986576 6250335
-0.021526424 0.10113358 0.450335 6447713
-0.02073398 0.10123061 0.45076707 6579299
-0.019940015 0.10132783 0.45119998 6447714
-0.019144522 0.10142523 0.45163369 6447714
-0.018347943 0.10152528 0.45207921 6579300
-0.017554203 0.10165109 0.4526394 6645093
-0.016758494 0.1017772 0.45320097 6710886
-0.015961301 0.10190676 0.45377788 6710886
-0.015170059 0.1020904 0.4545956 6316128
-0.014375961 0.1022747 0.45541626 3026478
-0.013578991 0.10245966 0.45623988 5460819
-0.012779133 0.1026453 0.45706651 6710886
-0.011976372 0.10283162 0.45789614 6776679
-0.011224015 0.10351036 0.46091849 5987163
-0.010424587 0.10382888 0.46233687 3421235
-0.0096202241 0.10414939 0.46376401 5131078
-0.0088108806 0.10447187 0.46519998 6640711
-0.0080207642 0.10511422 0.46806031 7100489
-0.0071985475 0.10543755 0.46950004 7297610
-0.0063712564 0.10576286 0.47094861 7297610
-0.0055397227 0.106107 0.47248101 6378055
-0.061134867 0.11537483 0.50965583 6574403
-0.058467083 0.11202472 0.4948571 7168086
-0.057293545 0.11147813 0.49244264 6640453
-0.056164138 0.11100157 0.49033743 6309690
-0.055073116 0.11058681 0.48850533 5976605
-0.053990219 0.11017516 0.48668689 6370570
-0.05291716 0.10977031 0.48489848 5447698
-0.051806409 0.10927234 0.48269877 5250067
-0.050708782 0.1087855 0.48054823 5118229
-0.049619231 0.10829937 0.47840077 4922395
-0.048534755 0.10780729 0.47622705 4792096
-0.047460087 0.10731965 0.47407299 3943739
-0.04637672 0.1067941 0.47175142 4533041
-0.045304488 0.10627502 0.46945843 5718591
-0.044242632 0.10576095 0.46718761 7036503
-0.043208506 0.10529452 0.46512717 7234137
-0.042175107 0.10481141 0.46299309 6772554
-0.041121777 0.10425824 0.46054953 6640454
-0.04008922 0.10373602 0.45824268 6574403
-0.039207432 0.10359016 0.45759836 6574403
-0.038328119 0.1034447 0.45695582 6574403
-0.037451271 0.10329966 0.4563151 6574403
-0.036576878 0.10315502 0.45567617 6574403
-0.035690106 0.10296801 0.45485008 6574403
-0.034803707 0.1027733 0.45398998 6574403
-0.033920657 0.10257933 0.45313314 6574403
-0.03304093 0.10238609 0.45227951 6574403
-0.03216451 0.10219358 0.4514291 6574403
-0.031291384 0.10200179 0.45058188 6574403
-0.030420663 0.10180782 0.44972506 6574403
-0.029552255 0.10161117 0.44885641 6509382
-0.028680969 0.10139328 0.44789389 6247242
-0.027850797 0.10131232 0.44753626 5394765
-0.027046302 0.10132271 0.44758216 5263438
-0.026263915 0.10141911 0.448008 6250335
-0.025482295 0.1015247 0.44847441 6513507
-0.024699047 0.10163051 0.4489418 6513507
-0.023912545 0.10172964 0.44937971 6250335
-0.023124069 0.10182704 0.44980997 6118749
-0.02233408 0.10192462 0.45024103 6513506
-0.021542575 0.10202239 0.45067289 6645093
-0.020749552 0.10212035 0.45110562 6776679
-0.019955005 0.1022185 0.45153919 6710886
-0.019160034 0.10232273 0.45199963 6645093
-0.01836744 0.1024495 0.45255962 6645093
-0.01757288 0.10257658 0.45312098 6710886
-0.016776348 0.10270398 0.45368376 6710886
-0.015977833 0.1028317 0.45424792 6579300
-0.015178596 0.10296831 0.45485142 6184542
-0.014384067 0.1031543 0.45567301 2894892
-0.013586661 0.10334097 0.45649758 5329233
-0.012786365 0.10352831 0.45732513 5987163
-0.012022095 0.1040533 0.45964423 4868682
-0.011227333 0.10437261 0.46105477 5460819
-0.010427679 0.1046939 0.46247399 4539715
-0.0096230861 0.10501716 0.46390197 4933956
-0.0088242963 0.10547135 0.46590832 5983812
-0.008019452 0.10594118 0.46798372 7232074
-0.0071973656 0.10626698 0.46942294 7297610
-0.0063709118 0.1066066 0.47092313 7166024
-0.0055475086 0.10710958 0.47314504 6246470
-0.062252637 0.11666606 0.51128572 5195070
-0.061048456 0.11612976 0.50893545 6574403
-0.059855286 0.11559837 0.50660664 6838349
-0.057407975 0.11259083 0.49342617 7102293
-0.056261737 0.11208047 0.49118951 6508096
-0.055157855 0.1116395 0.48925698 6043688
-0.05407298 0.11122328 0.48743293 6305036
-0.052996166 0.11081016 0.48562244 5711376
-0.051907182 0.11035728 0.48363772 5777168
-0.050808161 0.10986722 0.48149002 5249812
-0.049717706 0.10937896 0.47935021 5118229
-0.048633028 0.10888634 0.47719133 4987930
-0.047555752 0.10839283 0.47502857 4530727
-0.046461154 0.10784103 0.47261029 4663598
-0.045382969 0.10730739 0.47027165 5651256
-0.044318896 0.10678744 0.46799296 7102298
-0.043277979 0.10630416 0.465875 7564133
-0.042251926 0.10583898 0.46383637 7365981
-0.041217372 0.10533328 0.46162015 6706248
-0.040172186 0.104779 0.45919102 6640196
-0.03924375 0.1045123 0.45802224 6574403
-0.038363572 0.10436542 0.45737851 6574403
-0.037485864 0.10421894 0.45673659 6574403
-0.036610618 0.10407288 0.45609647 6574403
-0.03573782 0.10392722 0.45545816 6574403
-0.034864891 0.10377432 0.45478806 6574403
-0.033980172 0.10357812 0.4539282 6574403
-0.033098795 0.10338265 0.45307159 6574403
-0.032220736 0.10318793 0.4522182 6574403
-0.031345978 0.10299394 0.45136803 6574403
-0.030474504 0.10280066 0.45052102 6574403
-0.029606296 0.10260812 0.44967723 6508868
-0.028741334 0.1024163 0.44883657 6443332
-0.027879598 0.10222519 0.44799903 6050634
-0.027071605 0.10222561 0.44800088 5789784
-0.026288565 0.10232318 0.44842848 6579300
-0.025504028 0.10242093 0.44885689 6710886
-0.024717992 0.10251888 0.44928613 6645093
-0.023930449 0.10261701 0.44971618 6447714
-0.023141399 0.10271533 0.45014706 6316127
-0.022350835 0.10281384 0.45057878 6513507
-0.021558754 0.10291254 0.45101133 6710886
-0.020765148 0.10301142 0.45144469 6776679
-0.019971838 0.10311989 0.45192006 6710886
-0.019180389 0.10324763 0.45247984 6710886
-0.018386979 0.10337568 0.45304102 6710886
-0.017591598 0.10350405 0.4536036 6710886
-0.016794238 0.10363274 0.45416757 6710886
-0.015994893 0.10376175 0.45473295 6316128
-0.015193556 0.10389107 0.45529974 6250335
-0.01439218 0.1040349 0.45593005 4671303
-0.013594339 0.10422327 0.45675555 5263440
-0.012815773 0.10459325 0.45837697 3487029
-0.012025638 0.10491333 0.45977974 3815994
-0.011230653 0.10523538 0.46119112 4671303
-0.010430772 0.10555941 0.46261117 4079165
-0.0096259499 0.10588545 0.46404001 4736320
-0.0088350698 0.10644156 0.46647716 5852742
-0.0080181388 0.10676786 0.46790713 7100746
-0.0071966378 0.10710291 0.46937549 7166024
-0.0063804467 0.10761687 0.47162792 7034439
-0.0055552986 0.10811466 0.47380948 7035211
-0.062164366 0.11742158 0.51056075 5851969
-0.060962278 0.11688256 0.50821704 6574403
-0.059771184 0.11634849 0.50589484 6838091
-0.057523031 0.11370832 0.4944151 7695977
-0.05637382 0.11319152 0.49216804 6970192
-0.055242848 0.11269541 0.49001089 6309432
-0.05415599 0.11227462 0.48818123 5975568
-0.053077221 0.11185696 0.4863652 6041102
-0.051980436 0.11138665 0.48432025 5777423
-0.050895922 0.11092701 0.48232168 5843470
-0.049814902 0.11045913 0.48028731 5184020
-0.048731562 0.10996945 0.47815815 5118229
-0.047651801 0.10947035 0.475988 4922395
-0.046557017 0.1089178 0.47358543 4793896
-0.045461722 0.10834335 0.47108769 5649197
-0.044395428 0.10781747 0.46880111 6903890
-0.043347668 0.10731705 0.46662521 7762027
-0.04231967 0.10684669 0.46458006 7630183
-0.04130064 0.10638043 0.46255273 7300188
-0.040265296 0.10585207 0.46025535 6706247
-0.039280135 0.10543615 0.45844689 6574403
-0.038399089 0.10528783 0.45780197 6574403
-0.03752052 0.10513992 0.45715886 6574403
-0.036644418 0.10499243 0.45651758 6574403
-0.03577077 0.10484536 0.45587808 6574403
-0.034899563 0.10469869 0.45524034 6574403
-0.034030791 0.10455243 0.45460442 6574403
-0.033156861 0.10438272 0.45386645 6574403
-0.032277156 0.10418575 0.45301005 6574403
-0.031400762 0.10398954 0.4521569 6574403
-0.030527668 0.10379407 0.45130697 6574403
-0.029657846 0.10359932 0.4504602 6508868
-0.028791282 0.10340531 0.44961661 6443332
-0.027927961 0.10321203 0.44877619 6246983
-0.027091812 0.10311063 0.44833529 6512991
-0.026308205 0.10320912 0.44876352 6776679
-0.025523102 0.10330779 0.44919258 6776679
-0.024736496 0.10340666 0.44962248 6710885
-0.023948383 0.10350572 0.45005319 6513507
-0.023158755 0.10360496 0.45048469 6316128
-0.022367615 0.1037044 0.45091707 6645093
-0.021574954 0.10380402 0.45135024 6776679
-0.020783355 0.10391678 0.45184052 6710886
-0.019993054 0.10404548 0.45240012 6710886
-0.019200789 0.10417449 0.45296109 6710886
-0.018406559 0.10430383 0.45352346 6710886
-0.017610352 0.10443349 0.45408723 6710886
-0.016812166 0.10456347 0.4546524 6513507
-0.016011991 0.10469378 0.455219 5592405
-0.015209817 0.10482442 0.455787 5395026
-0.014405639 0.10495537 0.45635641 4276545
-0.013602026 0.10510656 0.45701382 4013373
-0.012819542 0.10545107 0.45851177 2434341
-0.012029185 0.10577387 0.45991534 4276545
-0.011233976 0.10609866 0.46132755 4868682
-0.010433867 0.10642544 0.46274844 4605509
-0.0096353618 0.10682684 0.46449375 4539199
-0.0088336291 0.10726549 0.46640107 5853514
-0.0080169542 0.10759597 0.46783799 6838089
-0.0072076819 0.10811523 0.47009578 7034439
-0.0063893786 0.10861944 0.47228813 7034696
-0.0055631115 0.10912257 0.47447583 7035212
-0.062076338 0.11817496 0.50983775 6574403
-0.060876351 0.11763325 0.50750071 6574403
-0.05968732 0.1170965 0.50518501 6574403
-0.057642542 0.11483824 0.4954423 7432546
-0.056486353 0.11430702 0.4931505 7629927
-0.055344924 0.11378916 0.49091631 6838092
-0.054239262 0.11332919 0.48893186 6109735
-0.053158529 0.11290696 0.48711026 6370573
-0.052063022 0.11243863 0.48508975 5777425
-0.050958812 0.11193517 0.4829177 5975053
-0.049890142 0.11149362 0.48101273 5711631
-0.048826594 0.11104809 0.4790906 5118228
-0.047748238 0.11055222 0.4769513 5118486
-0.046653274 0.10999901 0.47456458 4989216
-0.045554262 0.10941537 0.47204664 5582117
-0.044472225 0.10885107 0.46961206 6507844
-0.043417584 0.1083332 0.46737784 7497826
-0.042387627 0.10785763 0.4653261 7762028
-0.04136667 0.10738621 0.46329227 7695977
-0.040354602 0.10691889 0.46127617 7168344
-0.039318837 0.1063678 0.4588986 6574660
-0.038434673 0.10621195 0.4582262 6574403
-0.03755524 0.10606261 0.45758191 6574403
-0.036678281 0.10591368 0.45693943 6574403
-0.035803776 0.10576518 0.45629874 6574403
-0.034931723 0.1056171 0.45565987 6574403
-0.03406211 0.10546942 0.45502275 6574403
-0.033194922 0.10532216 0.45438743 6574403
-0.032330155 0.10517531 0.45375389 6574403
-0.03145574 0.10498864 0.45294854 6574403
-0.030581014 0.10479095 0.45209563 6574403
-0.029709576 0.10459398 0.4512459 6574404
-0.028841408 0.10439777 0.45039937 6509125
-0.027976491 0.10420229 0.44955602 6378055
-0.027114805 0.10400753 0.44871581 6249044
-0.026327878 0.10409638 0.44909909 6710886
-0.025542205 0.10419597 0.44952878 6776679
-0.024755027 0.10429577 0.44995931 6710886
-0.02396634 0.10439575 0.45039067 6645093
-0.023176139 0.10449592 0.45082283 6645093
-0.022384422 0.10459629 0.45125586 6710886
-0.02159459 0.10471338 0.45176101 6710886
-0.02080543 0.10484304 0.4523204 6710886
-0.020014312 0.10497303 0.45288119 6710886
-0.019221231 0.10510333 0.45344335 6645093
-0.018426182 0.10523397 0.45400694 6710886
-0.01762915 0.10536492 0.4545719 6645093
-0.016830133 0.10549621 0.4551383 6447714
-0.016029123 0.10562781 0.45570609 6118749
-0.015224727 0.10575013 0.4562338 5987163
-0.014417228 0.10586365 0.45672354 4342338
-0.013618211 0.10605697 0.45755762 2236962
-0.012823312 0.10630939 0.4586466 3750201
-0.012032734 0.10663492 0.46005103 4342338
-0.0112373 0.10696244 0.46146405 5987163
-0.010436964 0.10729199 0.4628858 5131853
-0.0096438862 0.10775995 0.4649047 4605508
-0.0088321883 0.10808916 0.46632501 5656651
-0.0080292169 0.10860572 0.46855357 6575434
-0.0072181192 0.10912098 0.47077653 7034696
-0.0063983351 0.10962481 0.47295019 7034696
-0.0055709463 0.11013332 0.47514403 7035469
-0.061988559 0.1189262 0.50911683 6574403
-0.060790669 0.11838183 0.50678641 6574403
-0.059603691 0.11784241 0.5044772 6574403
-0.057762552 0.11597287 0.49647379 7036500
-0.056603212 0.1154349 0.49417076 7827820
-0.055455122 0.11490301 0.49189377 7629669
-0.054322787 0.11438701 0.48968479 6639171
-0.053240087 0.11396018 0.48785758 6306847
-0.052145842 0.1134939 0.48586142 6041105
-0.051042676 0.11299191 0.48371243 5711633
-0.049947109 0.11248958 0.48156199 6040845
-0.048889812 0.11205718 0.47971091 5645584
-0.047840606 0.11162809 0.47787398 5118228
-0.046749935 0.1110847 0.47554779 5185049
-0.045648143 0.1104941 0.47301945 5449762
-0.044558004 0.10990974 0.47051784 6243642
-0.043488912 0.10935561 0.46814564 7036243
-0.042455804 0.10887181 0.46607453 7299931
-0.041432917 0.1083952 0.4640342 7827821
-0.040418945 0.10792275 0.46201164 7695976
-0.039409913 0.10744387 0.45996156 6838605
-0.038470324 0.10713778 0.45865124 6574403
-0.037590027 0.10698701 0.45800576 6574403
-0.036712207 0.10683665 0.45736209 6574403
-0.035836849 0.1066867 0.4567202 6574403
-0.034963943 0.10653719 0.45608014 6574403
-0.034093484 0.1063881 0.45544186 6574403
-0.033225454 0.10623942 0.45480537 6574403
-0.03235985 0.10609115 0.45417064 6574403
-0.031496655 0.1059433 0.4535377 6574403
-0.03063455 0.10579131 0.45288706 6574403
-0.029761488 0.10559212 0.45203435 6574404
-0.028891707 0.10539369 0.45118487 6574661
-0.028025189 0.105196 0.45033857 6509383
-0.027161917 0.10499905 0.44949543 6380116
-0.026347579 0.10498497 0.44943514 6710886
-0.025561336 0.10508549 0.44986549 6776679
-0.024773587 0.10518622 0.45029667 6776679
-0.023984326 0.10528712 0.45072865 6842471
-0.023193548 0.10538822 0.45116147 6776679
-0.022405537 0.10550971 0.45168152 6710886
-0.021617521 0.10564034 0.45224074 6710886
-0.02082755 0.10577128 0.45280132 6513507
-0.020035619 0.10590256 0.4533633 6316128
-0.019241719 0.10603415 0.45392665 6447714
-0.018445844 0.10616608 0.45449144 6776679
-0.017646413 0.10628886 0.45501703 6776679
-0.016843213 0.1063998 0.45549199 6776679
-0.016038334 0.10651099 0.45596796 6447714
-0.015234141 0.10663898 0.45651591 5723991
-0.014436978 0.10683364 0.45734921 4737096
-0.013636901 0.10702901 0.45818558 4079166
-0.012833891 0.10722509 0.459025 3684408
-0.012036285 0.10749648 0.46018678 5000268
-0.011240627 0.10782675 0.46160066 6579300
-0.010441518 0.10817413 0.46308777 5263439
-0.0096423188 0.10858089 0.46482912 4868424
-0.0088453786 0.109093 0.46702144 5854288
-0.0080415169 0.10961857 0.46927136 6378570
-0.0072282054 0.11012384 0.47143435 7034696
-0.0064073168 0.11063301 0.4736141 7034696
-0.0055788029 0.11114692 0.47581413 7101262
-0.062049441 0.11996225 0.50961685 5851969
-0.060722403 0.11916201 0.5062173 6574403
-0.059520297 0.11858624 0.50377136 6574403
-0.0583461 0.11804909 0.50148946 6640196
-0.056720756 0.11656785 0.49519694 7365982
-0.055569205 0.1160285 0.49290571 7827821
-0.054429132 0.11549596 0.49064341 7431775
-0.053321894 0.11501665 0.4886072 6374967
-0.052228924 0.11455251 0.48663551 6174491
-0.051123641 0.11404505 0.48447973 5777682
-0.050025053 0.11353512 0.48231348 5909263
-0.048945487 0.11305108 0.48025718 6106892
-0.04789488 0.11261769 0.47841609 5711631
-0.046833962 0.11214371 0.47640255 5184534
-0.045734532 0.11155806 0.47391465 5383198
-0.044646669 0.11097886 0.47145414 6177591
-0.043568175 0.11040092 0.46899891 6574404
-0.042524204 0.10988928 0.4668254 6904142
-0.041499373 0.10940744 0.46477848 7300187
-0.040483493 0.10892981 0.46274945 7827820
-0.039476439 0.10845633 0.46073803 7498082
-0.038506042 0.10806534 0.45907706 6705990
-0.037624877 0.10791311 0.45843038 6574403
-0.036746196 0.10776132 0.45778552 6574403
-0.035869982 0.10760994 0.45714247 6574403
-0.034996223 0.10745899 0.45650122 6574403
-0.034124915 0.10730846 0.45586175 6574403
-0.033256043 0.10715836 0.4552241 6574403
-0.0323896 0.10700868 0.4545882 6574403
-0.031525575 0.10685941 0.4539541 6574403
-0.030663954 0.10671056 0.45332175 6574403
-0.029804731 0.10656212 0.45269117 6574403
-0.028942183 0.10639309 0.45197311 6574660
-0.02807406 0.10619318 0.45112386 6575176
-0.027209193 0.10599402 0.45027778 6576978
-0.026367309 0.10587489 0.4497717 6776164
-0.025580497 0.10597634 0.4502027 6776679
-0.024792174 0.10607799 0.45063451 6842472
-0.024002338 0.10617983 0.45106715 6776679
-0.023216199 0.10630575 0.45160207 6645093
-0.022429325 0.10643734 0.45216107 6447714
-0.0216405 0.10656925 0.45272148 6118749
-0.020849718 0.10670149 0.45328325 5263440
-0.020055218 0.10682473 0.45380676 5526612
-0.019256663 0.10693593 0.45427918 6447714
-0.018456444 0.10704738 0.45475262 6776679
-0.017654557 0.10715905 0.45522702 6842472
-0.016850993 0.10727096 0.45570242 6316128
-0.016050309 0.10741361 0.45630842 5723991
-0.015255 0.10760959 0.45714098 5066061
-0.014456783 0.1078063 0.45797661 4144959
-0.013655641 0.10800371 0.45881525 4934475
-0.012851561 0.10820185 0.45965698 4210752
-0.012044525 0.10840072 0.46050182 5395026
-0.011243954 0.10869156 0.46173733 6052956
-0.010447268 0.10906948 0.46334279 5131853
-0.0096562207 0.10957711 0.46549928 5329232
-0.0088588847 0.11010329 0.46773455 5591631
-0.0080527719 0.11061966 0.46992818 6640970
-0.0072383191 0.11112949 0.472094 7034696
-0.0064163241 0.11164404 0.47427988 7034696
-0.005582463 0.11207868 0.47612631 7232591
-0.060807843 0.12024408 0.50692958 6574403
-0.059485383 0.11942485 0.50347584 6574403
-0.058264945 0.11878822 0.50079191 6574403
-0.056838784 0.11770551 0.49622738 6772554
-0.055684302 0.11715977 0.49392661 7432032
-0.054540474 0.11661907 0.49164709 7761771
-0.053408347 0.11608591 0.4893994 6837835
-0.052312274 0.11561452 0.4874121 6242607
-0.051204864 0.11510153 0.48524943 5910555
-0.050107241 0.11459308 0.48310587 5777682
-0.049013291 0.11407518 0.48092249 5975310
-0.047949273 0.11360954 0.47895941 6436362
-0.046905302 0.11317518 0.47712824 5315860
-0.045807216 0.11259156 0.47466782 5316891
-0.044717256 0.11200608 0.4721995 6177334
-0.043638576 0.11142665 0.46975672 6508097
-0.042598192 0.110924 0.46763763 6574404
-0.041583255 0.11046865 0.46571794 6838348
-0.040565137 0.10998589 0.46368271 7365981
-0.039555881 0.10950733 0.46166518 7762027
-0.038555369 0.10903292 0.45966515 7102036
-0.037647825 0.10880635 0.45870996 6640196
-0.036771122 0.10866074 0.45809606 6640196
-0.035896767 0.10851551 0.45748383 6640196
-0.035024744 0.10837068 0.45687324 6640196
-0.034155045 0.10822622 0.45626426 6574403
-0.033286687 0.108079 0.45564356 6574403
-0.032419402 0.10792789 0.45500651 6574403
-0.031554539 0.10777719 0.45437121 6574403
-0.030692091 0.10762694 0.45373774 6574403
-0.029832043 0.10747708 0.45310599 6574403
-0.028974384 0.10732765 0.45247599 6574403
-0.02811911 0.10717863 0.45184776 6574661
-0.027256632 0.10699245 0.45106286 6708306
-0.026393415 0.10679182 0.45021701 6973026
-0.025599685 0.10686852 0.45054039 6776679
-0.024810787 0.1069711 0.45097286 6776679
-0.024026576 0.10710151 0.45152265 6316128
-0.023240842 0.10723406 0.45208144 5658198
-0.022451241 0.10735775 0.45260289 4802889
-0.021657294 0.10746922 0.45307282 4868682
-0.020861698 0.10758092 0.45354372 5197647
-0.020064449 0.10769285 0.45401564 5658198
-0.019265536 0.10780502 0.45448852 5658198
-0.018464958 0.10791742 0.45496237 6118749
-0.017662708 0.10803005 0.45543721 6579300
-0.01686574 0.10818755 0.45610118 6184542
-0.016072277 0.10838485 0.45693296 5131854
-0.015275917 0.10858287 0.45776781 3421236
-0.014476642 0.10878162 0.45860571 4013373
-0.013674434 0.1089811 0.45944667 5197647
-0.01286928 0.10918131 0.46029073 4671303
-0.012061162 0.10938226 0.46113789 4868682
-0.011249965 0.10958299 0.46198416 5395026
-0.010461794 0.11005808 0.46398702 5395026
-0.0096709169 0.11058483 0.46620774 5394769
-0.008872088 0.11111233 0.46843162 5460303
-0.0080640046 0.1116228 0.47058365 6837833
-0.0072484617 0.11213797 0.47275552 7034696
-0.0064205467 0.11257358 0.474592 7231818
-0.0055833822 0.11295611 0.47620469 7298383
-0.060877919 0.1212981 0.50751376 6574403
-0.059568621 0.12050141 0.50418037 6574403
-0.058261678 0.11968485 0.50076383 6574403
-0.056957304 0.11884791 0.49726212 6640197
-0.055799875 0.11829574 0.49495178 6838349
-0.054653153 0.11774866 0.49266282 7432289
-0.053516988 0.11720663 0.49039492 7234137
-0.052395888 0.11667991 0.48819116 6507324
-0.051286343 0.11616138 0.48602158 6110509
-0.050186619 0.11564743 0.48387119 5778200
-0.049093626 0.11513107 0.48171076 5843473
-0.04800735 0.11461214 0.47953954 5975309
-0.046958428 0.11416499 0.47766864 5447954
-0.04588807 0.11364802 0.47550565 5448472
-0.044788063 0.11303654 0.47294721 6176821
-0.043707315 0.11245086 0.47049671 6508096
-0.042647 0.1118956 0.46817347 6574403
-0.041651458 0.11149128 0.46648178 6574660
-0.040650073 0.11105432 0.46465355 6838091
-0.039638344 0.11057011 0.46262762 7498339
-0.038635395 0.1100901 0.46061924 7695720
-0.037665285 0.10968462 0.45892268 6838090
-0.036788151 0.10953776 0.45830822 6640196
-0.035913371 0.10939129 0.45769542 6640196
-0.035040922 0.10924523 0.45708427 6640196
-0.034170799 0.10909954 0.45647472 6640196
-0.033302996 0.10895425 0.45586681 6640196
-0.032437503 0.10880934 0.45526052 6640196
-0.031574305 0.10866482 0.45465583 6640196
-0.0307134 0.10852068 0.45405275 6640196
-0.029854774 0.10837692 0.45345125 6640196
-0.028998422 0.10823354 0.45285136 6574403
-0.02814433 0.10809054 0.45225304 6574918
-0.027291108 0.10794245 0.45163339 6708564
-0.026439426 0.10779151 0.45100188 6907488
-0.025619322 0.10776381 0.45088601 6776679
-0.024834586 0.10788795 0.45140541 6776679
-0.02404521 0.10799967 0.45187286 4802889
-0.023254199 0.10811163 0.45234126 3092271
-0.022461547 0.10822382 0.45281067 4079166
-0.021667246 0.10833623 0.45328102 5460819
-0.020871295 0.10844889 0.45375237 5658198
-0.020073688 0.10856178 0.45422471 5658198
-0.019274417 0.10867491 0.45469803 4737096
-0.01847348 0.10878827 0.45517233 5789784
-0.017680427 0.10896077 0.45589408 6579300
-0.01688881 0.10915939 0.45672512 5658198
-0.016094305 0.10935874 0.4575592 3487029
-0.015296892 0.10955882 0.45839635 4342338
-0.014496555 0.10975963 0.45923653 5000268
-0.013691508 0.10994696 0.46002033 3750201
-0.012883067 0.11012944 0.46078384 2697513
-0.012071937 0.11031253 0.46154988 4408131
-0.01126215 0.11053593 0.46248457 5066061
-0.010477665 0.11106325 0.46469089 5526612
-0.009685657 0.11159562 0.46691835 5000267
-0.0088844225 0.11211295 0.46908289 5986389
-0.0080752671 0.11262873 0.47124091 6903369
-0.0072532455 0.11306529 0.47306752 7231817
-0.0064198016 0.11341649 0.47453693 7297611
-0.0055855634 0.11385956 0.47639072 7298383
-0.060934607 0.12232737 0.50798637 6574403
-0.059652101 0.121581 0.50488693 6574403
-0.058342773 0.12075597 0.50146085 6574403
-0.057057895 0.11995637 0.49814034 6574660
-0.055910923 0.11942573 0.49593678 6640453
-0.054761037 0.11887152 0.49363533 6838091
-0.053621773 0.11832242 0.49135509 7168343
-0.052492984 0.11777838 0.48909584 6640196
-0.051368084 0.1172246 0.4867962 6375481
-0.050266255 0.11670513 0.48463899 5978155
-0.049174141 0.11619023 0.48250079 5646103
-0.048085809 0.11566586 0.48032326 5777425
-0.047011673 0.11515704 0.47821027 5843215
-0.045972914 0.11471745 0.47638482 5711892
-0.044862501 0.11407893 0.47373325 6110514
-0.043776274 0.1134783 0.47123903 6442304
-0.042704634 0.11289245 0.46880615 6574403
-0.041700061 0.1124638 0.46702611 6574403
-0.040709391 0.11205574 0.46533158 6640196
-0.039721146 0.11163733 0.46359405 6970192
-0.038715754 0.11115168 0.4615773 7695977
-0.037719071 0.11067024 0.45957804 7431774
-0.036805198 0.1104156 0.45852059 6772040
-0.035929985 0.11026789 0.4579072 6640196
-0.035057113 0.11012058 0.45729548 6640196
-0.034186568 0.10997366 0.45668536 6640196
-0.033318345 0.10982713 0.45607689 6640196
-0.032452431 0.109681 0.45547006 6640196
-0.031588819 0.10953525 0.4548648 6640196
-0.030727496 0.10938989 0.45426115 6640196
-0.029868459 0.10924491 0.45365912 6640196
-0.029011697 0.10910033 0.45305869 6640196
-0.028157199 0.10895612 0.45245984 6642513
-0.027306953 0.10882024 0.45189559 6710110
-0.026464755 0.10870907 0.45143393 7170919
-0.025642252 0.10867431 0.45128956 6908008
-0.024850767 0.10877303 0.45169953 6710886
-0.024057843 0.10887193 0.45211023 5723991
-0.023264868 0.10897754 0.4525488 4144959
-0.022471864 0.10909068 0.45301864 5066061
-0.021677209 0.10920405 0.45348942 5592405
-0.0208809 0.10931766 0.45396119 6052956
-0.020082936 0.10943151 0.45443398 6184542
-0.019283306 0.10954559 0.45490772 5921370
-0.018494375 0.10973329 0.4556872 6579300
-0.017704602 0.10993323 0.45651746 6184542
-0.016910756 0.11012615 0.45731857 3750201
-0.016112382 0.11030785 0.45807314 3092271
-0.015311369 0.11049015 0.45883018 5526612
-0.014507703 0.11067306 0.45958972 4605510
-0.013701374 0.11085657 0.46035179 2960685
-0.012892596 0.11104269 0.46112469 1776411
-0.012083445 0.11125103 0.46198985 3947580
-0.01127918 0.11153856 0.46318388 4868682
-0.010493583 0.11207147 0.46539688 5197647
-0.009699625 0.1126 0.4675917 5263439
-0.0088967923 0.11311636 0.46973598 6051667
-0.0080806119 0.11355387 0.47155282 7166282
-0.0072524068 0.11390544 0.4730128 7297610
-0.0064195795 0.11426851 0.4745205 7231818
-0.0055877459 0.1147637 0.47657686 6444106
-0.060991406 0.12335856 0.50845987 5851969
-0.059716016 0.12262297 0.5054279 6574403
-0.058424089 0.12183008 0.50215977 6574403
-0.057149857 0.1210497 0.49894321 6574403
-0.056014553 0.12054332 0.496856 6574660
-0.054867771 0.11999537 0.49459746 6640453
-0.053725801 0.11944 0.49230835 6706504
-0.052594356 0.11888976 0.49004036 6640453
-0.051463332 0.11832168 0.48769882 6574146
-0.05034614 0.11776619 0.4854092 6309176
-0.049251948 0.11724579 0.48326421 5911848
-0.048164524 0.11672303 0.48110953 5909522
-0.047083776 0.11619758 0.47894371 5975313
-0.046024904 0.11570746 0.47692356 5975313
-0.044945732 0.11514669 0.47461215 6110253
-0.043845452 0.11450899 0.4719837 6442046
-0.042771768 0.11391689 0.46954316 6574403
-0.041747559 0.11343529 0.46755809 6574403
-0.040757753 0.11302923 0.46588439 6574403
-0.039771955 0.11261743 0.46418706 6640454
-0.038793303 0.11220858 0.46250185 7300187
-0.037797347 0.11173062 0.46053177 7827821
-0.036822259 0.11129425 0.45873314 7168086
-0.035946619 0.1111453 0.45811918 6837834
-0.035073321 0.11099675 0.4575069 6705989
-0.034202356 0.1108486 0.45689625 6640196
-0.033333708 0.11070084 0.45628721 6640196
-0.032467373 0.11055347 0.45567977 6640196
-0.031603344 0.1104065 0.45507398 6640196
-0.030741611 0.11025991 0.4544698 6640196
-0.029882159 0.11011371 0.4538672 6640196
-0.029033555 0.11000036 0.45340002 6641225
-0.028186789 0.10988762 0.45293531 6643029
-0.027341755 0.1097751 0.45247152 6841697
-0.02649845 0.10966282 0.45200869 7236969
-0.02566872 0.10960136 0.45175537 6908264
-0.024876442 0.10970103 0.4521662 6645093
-0.02408272 0.10980088 0.45257777 6250335
-0.023287553 0.10990091 0.45299006 5263440
-0.022490937 0.11000112 0.45340315 5263440
-0.021692865 0.11010152 0.45381695 5197647
-0.020893335 0.1102021 0.45423153 4868682
-0.020092448 0.11030345 0.45464924 5263440
-0.019303925 0.11048417 0.45539415 6250335
-0.018512849 0.11066569 0.45614237 6776679
-0.017719168 0.11084782 0.45689303 5789784
-0.016922869 0.11103053 0.45764616 3947580
-0.016123943 0.11121386 0.4584018 3552822
-0.015322373 0.1113978 0.45915994 5395026
-0.014518148 0.11158234 0.45992059 4539717
-0.013711758 0.1117716 0.46070069 2763306
-0.012904886 0.11198111 0.46156424 2434341
-0.012094985 0.11219141 0.46243107 4079166
-0.01129626 0.11254422 0.46388528 4802889
-0.01050955 0.11308275 0.46610501 5328976
-0.0097130872 0.11360089 0.46824065 5395026
-0.0089026978 0.11403932 0.47004777 6446166
-0.0080796806 0.11439127 0.47149846 7232075
-0.0072515681 0.1147454 0.47295812 7297610
-0.0064220778 0.11516926 0.47470519 7166282
-0.0055899299 0.11566855 0.47676316 6444106
-0.06104831 0.12439167 0.50893426 5851969
-0.059771396 0.12364922 0.50589663 6574403
-0.058505628 0.12290718 0.50286061 6574403
-0.057242122 0.12214658 0.49974871 6574403
-0.056107055 0.12164009 0.49767649 6574403
-0.05497016 0.12111312 0.49552044 6574404
-0.053830236 0.12056194 0.49326533 6640196
-0.05269612 0.12000544 0.49098852 6640196
-0.051568605 0.11944523 0.48869646 6574403
-0.050438467 0.11885934 0.48629937 6508353
-0.04933 0.11830469 0.48403007 6243126
-0.048243381 0.11778339 0.48189723 5977380
-0.047160633 0.11725258 0.47972548 5580054
-0.046087489 0.11672626 0.47757208 6107665
-0.045029271 0.11621841 0.4754943 6175784
-0.043925591 0.11557122 0.47284639 6441789
-0.042839114 0.11494455 0.47028247 6574403
-0.041795164 0.11440898 0.46809125 6574403
-0.040804062 0.11399897 0.46641374 6574403
-0.03981911 0.11358925 0.46473739 6574403
-0.038839124 0.11317638 0.46304816 6772554
-0.037866239 0.1127665 0.46137118 7630184
-0.03688309 0.11230694 0.45949095 7761513
-0.035963271 0.11202352 0.45833138 7431774
-0.035089545 0.11187372 0.45771852 6837833
-0.034218151 0.11172432 0.45710728 6640196
-0.033349086 0.11157533 0.45649767 6640196
-0.032482333 0.11142673 0.4558897 6640196
-0.031624828 0.11130296 0.45538333 6574403
-0.030771691 0.11118838 0.45491451 6574403
-0.029920312 0.11107403 0.45444667 6574403
-0.029070683 0.11095992 0.45397982 6641227
-0.028222794 0.11084605 0.45351389 6643287
-0.027376644 0.1107324 0.45304891 6973283
-0.026532231 0.11061899 0.45258492 7368556
-0.025695242 0.11053033 0.45222217 6908264
-0.024902169 0.11063094 0.45263383 6645093
-0.02410765 0.11073175 0.45304626 6447714
-0.023311682 0.11083273 0.45345941 5197647
-0.022514261 0.1109339 0.45387334 4342338
-0.021715382 0.11103525 0.45428801 4079166
-0.020916104 0.11114243 0.45472652 4539717
-0.020117605 0.11126267 0.45521846 5197647
-0.019317696 0.11138501 0.45571899 5658198
-0.018526075 0.11156814 0.45646825 6118749
-0.017731847 0.11175188 0.45721999 5263440
-0.016935 0.11193623 0.45797423 5000268
-0.016135519 0.11212118 0.45873094 4276545
-0.015333394 0.11230674 0.45949018 5855577
-0.014529413 0.11249916 0.46027744 4934475
-0.013724816 0.11270985 0.46113944 4802889
-0.0129172 0.11292133 0.46200466 2697513
-0.012106547 0.11313359 0.46287313 3684408
-0.011313392 0.11355294 0.46458882 4868682
-0.0105242 0.11408234 0.46675479 5197390
-0.0097195525 0.11452168 0.46855232 5526612
-0.0089016743 0.11487399 0.46999377 6577754
-0.0080787502 0.11522848 0.47144413 7232075
-0.0072507299 0.11558517 0.47290346 7231817
-0.0064245784 0.11607072 0.47489002 7166281
-0.0055921157 0.1165741 0.47694957 5524292
-0.062008426 0.12728044 0.51693833 4932671
-0.059826884 0.1246774 0.50636625 6574403
-0.058563631 0.12393699 0.50335914 6574403
-0.057334684 0.123247 0.50055683 6574403
-0.056197401 0.12273512 0.49847788 6574403
-0.055067718 0.12222347 0.49639985 6574403
-0.05393137 0.12167987 0.49419206 6574403
-0.052798275 0.12112545 0.49194035 6574403
-0.051671941 0.12056786 0.48967573 6574403
-0.050541345 0.11998076 0.48729128 6574403
-0.049419466 0.11939393 0.48490793 6508096
-0.048319615 0.11884014 0.48265874 6177076
-0.047237739 0.11831103 0.48050982 5779491
-0.046162501 0.11777909 0.47834939 5910300
-0.045096885 0.1172519 0.47620827 6307624
-0.044006933 0.11663973 0.47372198 6441531
-0.042913012 0.1159926 0.47109371 6574403
-0.041842882 0.11538491 0.46862566 6574403
-0.040850479 0.11497093 0.46694431 6574403
-0.039865173 0.11455991 0.46527499 6574403
-0.038885057 0.11414646 0.46359578 6574403
-0.03791086 0.11373258 0.46191484 7102293
-0.0369437 0.11332168 0.46024603 7893871
-0.035979934 0.11290255 0.45854375 7827564
-0.035105783 0.11275151 0.45793033 7497825
-0.034238871 0.11261701 0.45738405 6838605
-0.033379287 0.11250056 0.45691112 6640196
-0.032521483 0.11238436 0.45643917 6574403
-0.031665444 0.1122684 0.4559682 6574403
-0.030811174 0.11215267 0.45549819 6574403
-0.02995866 0.11203718 0.45502913 6574404
-0.029107902 0.11192193 0.45456105 6641741
-0.028258894 0.11180692 0.45409396 6709337
-0.027411625 0.11169215 0.45362779 7104868
-0.026566098 0.11157761 0.45316261 7500141
-0.025722299 0.11146329 0.45269835 7171436
-0.02492795 0.11156279 0.45310244 6579300
-0.024132632 0.11166455 0.45351571 6513507
-0.023335859 0.11176649 0.45392972 4802889
-0.022537634 0.11186861 0.45434451 3487029
-0.021740036 0.1119817 0.45480379 2829099
-0.020942295 0.11210287 0.45529592 4276545
-0.020142825 0.11222431 0.45578915 4013373
-0.019341622 0.11234601 0.45628342 2960685
-0.018539321 0.11247188 0.45679462 5263440
-0.017744547 0.11265724 0.45754746 5329233
-0.01694715 0.11284322 0.45830277 5526612
-0.016147114 0.11302979 0.45906055 3750201
-0.015345568 0.1132254 0.45985499 5460819
-0.014543238 0.11343726 0.46071541 5000268
-0.013737899 0.1136499 0.46157902 4605510
-0.012929536 0.11386333 0.46244588 3684408
-0.012118131 0.11407758 0.46331602 4144959
-0.011330183 0.11456074 0.46527833 4934475
-0.010531225 0.11500099 0.46706635 5000267
-0.0097184395 0.11535365 0.46849868 5592404
-0.0089006517 0.11570848 0.46993977 6446425
-0.0080778189 0.1160655 0.4713898 7232075
-0.0072526946 0.11646974 0.47303158 7166025
-0.0064270808 0.11697287 0.47507501 7166025
-0.0055943034 0.11748037 0.47713616 5524292
-0.061630487 0.12743147 0.51378763 6114884
-0.059882466 0.12570746 0.50683671 6574403
-0.058642216 0.12501247 0.50403458 6574403
-0.057427999 0.12435197 0.5013715 6574403
-0.056288041 0.12383369 0.49928188 6574403
-0.055157982 0.12332069 0.49721351 6574403
-0.054026827 0.12278824 0.49506676 6574403
-0.052898139 0.1222436 0.49287081 6574403
-0.051771846 0.12168596 0.49062249 6574403
-0.050644647 0.12110677 0.48828724 6574403
-0.049519978 0.12051322 0.48589417 6574403
-0.048406281 0.11992547 0.48352441 6507839
-0.047314946 0.11937257 0.4812952 6176819
-0.046237756 0.11883535 0.4791292 5977898
-0.04516881 0.11829926 0.47696775 6307886
-0.044105198 0.11775661 0.47477981 6441788
-0.042998016 0.1170738 0.47202685 6574403
-0.04190791 0.11641087 0.46935397 6574403
-0.040897001 0.11594511 0.4674761 6574403
-0.03991041 0.11553013 0.46580297 6574403
-0.038930856 0.11511812 0.46414179 6574403
-0.037955586 0.11470094 0.46245977 6772040
-0.036987126 0.11428606 0.46078703 7431775
-0.036030773 0.11389037 0.45919165 7894128
-0.035140801 0.11369083 0.45838714 7761771
-0.034281392 0.11358292 0.45795205 7498339
-0.033422302 0.11347078 0.45749992 6970192
-0.032563347 0.11335342 0.45702675 6640454
-0.031706166 0.11323631 0.45655456 6574403
-0.030850757 0.11311944 0.45608336 6574403
-0.029997109 0.11300281 0.45561311 6574661
-0.029145218 0.11288641 0.45514381 6510413
-0.028295083 0.11277026 0.4546755 6709338
-0.027446695 0.11265435 0.45420817 7170662
-0.026600048 0.11253867 0.45374176 7631470
-0.025755141 0.11242323 0.45327634 7368557
-0.024953784 0.11249657 0.45357203 6513507
-0.024157664 0.11259928 0.45398614 6316128
-0.02336009 0.11270218 0.45440105 4079166
-0.022564251 0.11282125 0.4548811 2500134
-0.021767264 0.11294335 0.45537341 2105376
-0.020968553 0.11306573 0.45586678 4079166
-0.020168107 0.11318836 0.45636123 2960685
-0.019365925 0.11331126 0.45685676 2631720
-0.018561997 0.11343443 0.45735335 5395026
-0.017757265 0.1135639 0.45787537 5526612
-0.016959315 0.1137515 0.45863175 6184542
-0.016160225 0.11395031 0.45943332 3947580
-0.015360155 0.11416332 0.46029213 5789784
-0.014557089 0.11437713 0.46115419 4342338
-0.013751009 0.11459173 0.46201947 4605510
-0.012941897 0.11480715 0.462888 3947580
-0.01213036 0.11502928 0.46378359 4210752
-0.011337767 0.11547726 0.46558979 5131854
-0.010530023 0.11583026 0.46701303 4868682
-0.0097173257 0.11618542 0.468445 5592404
-0.00889963 0.11654277 0.4698858 6380889
-0.0080768876 0.11690232 0.47133547 7166283
-0.0072555081 0.11736852 0.4732151 7166025
-0.0064295856 0.11787573 0.47526014 7166025
-0.06142424 0.12792867 0.51206821 6508867
-0.060003776 0.12687822 0.50786346 6574403
-0.058767319 0.12619029 0.50510985 6574403
-0.057544198 0.12550978 0.50238597 6574403
-0.056379147 0.12493619 0.50009 6574403
-0.055246718 0.1244174 0.49801341 6574403
-0.054122619 0.12390054 0.49594453 6574403
-0.052991509 0.12334999 0.4937408 6574403
-0.051870413 0.12280431 0.49155658 6574403
-0.050748374 0.12223738 0.48928732 6574403
-0.0496209 0.12163708 0.48688442 6574403
-0.048504449 0.12104264 0.48450503 6574403
-0.047398861 0.12045399 0.4821488 6441790
-0.046311989 0.11989179 0.47989842 6375226
-0.045234002 0.11933161 0.47765616 6440761
-0.04416604 0.11877663 0.47543475 6573889
-0.04311686 0.11825119 0.47333151 6574146
-0.042018749 0.11756761 0.4705953 6574403
-0.040951334 0.1169435 0.46809715 6574403
-0.03995575 0.11650255 0.46633214 6574403
-0.038974926 0.1160866 0.4646672 6574403
-0.038000412 0.11567159 0.46300599 6574660
-0.037030652 0.11525271 0.46132931 6970192
-0.036103424 0.11494999 0.46011758 7695977
-0.035198964 0.11470721 0.45914581 7893871
-0.034311976 0.11451106 0.45836064 7893871
-0.033453405 0.11440238 0.45792565 7695976
-0.032596458 0.11429391 0.45749146 7168086
-0.031741135 0.11418564 0.45705807 6838091
-0.030887431 0.11407758 0.45662552 6705990
-0.030035341 0.11396972 0.4561938 6574918
-0.029182633 0.11385337 0.45572808 6444620
-0.028331367 0.11373606 0.45525855 6512215
-0.027481854 0.11361901 0.45479 7170661
-0.02663409 0.1135022 0.45432243 7697263
-0.025788067 0.11338563 0.45385581 7302763
-0.024979673 0.11343229 0.45404258 5789784
-0.024183253 0.11353832 0.45446703 4013373
-0.023388743 0.11366109 0.45495844 2105376
-0.022592517 0.11378413 0.45545092 2368548
-0.021794561 0.11390743 0.45594445 3026478
-0.020994876 0.11403099 0.45643908 4802889
-0.020193454 0.11415483 0.45693475 3355443
-0.019390289 0.11427893 0.45743152 3552822
-0.018585375 0.11440331 0.45792937 5131854
-0.017782807 0.11455437 0.458534 4539717
-0.016974797 0.1146834 0.45905048 4671303
-0.016177056 0.11489858 0.45991182 4539717
-0.015376315 0.11511458 0.46077639 5395026
-0.014572558 0.11533138 0.46164423 5000268
-0.013765767 0.11554901 0.46251535 4868682
-0.012955925 0.11576746 0.46338975 3881787
-0.012144191 0.11599797 0.4643124 4276545
-0.011336477 0.11630385 0.4655368 5066061
-0.010528821 0.11665934 0.46695971 5263440
-0.0097162127 0.117017 0.46839136 5526612
-0.0088986075 0.11737687 0.46983182 6446682
-0.0080774743 0.11776108 0.47136971 7166283
-0.0072583249 0.118268 0.4733988 7166025
-0.0064320918 0.11877929 0.47544539 7166025
-0.061666764 0.12936111 0.51409006 6245954
-0.06017229 0.1281532 0.50928974 6574403
-0.058892962 0.12737314 0.50618976 6574403
