# .PCD v0.7 - Point Cloud Data file format
VERSION 0.7
FIELDS x y z rgb
SIZE 4 4 4 4
TYPE F F F U
COUNT 1 1 1 1
WIDTH 1134
HEIGHT 1
VIEWPOINT 0 0 0 1 0 0 0
POINTS 1134
DATA ascii
0.095524311 0.019104863 0.57250839 3355205
0.096484162 0.019090449 0.5720765 4013380
0.097451828 0.019077871 0.57169956 4145215
0.098426312 0.019066878 0.57137012 4210751
0.099406794 0.019057261 0.57108194 4079425
0.10038752 0.019047888 0.57080108 3421248
0.10138091 0.019041084 0.57059717 2434109
0.10237873 0.019035242 0.57042211 2302782
0.10337923 0.019030007 0.57026523 3092543
0.10438698 0.019026197 0.57015109 4013632
0.10540914 0.019025065 0.57011712 4079424
0.10642814 0.019023387 0.57006687 3684416
0.10746805 0.019025443 0.5701285 2894910
0.10850602 0.019027121 0.57017875 2828863
0.10955583 0.019030824 0.57028973 3618628
0.11061163 0.01903549 0.57042956 3092287
0.11167531 0.019041412 0.57060701 2039354
0.11274524 0.019048283 0.57081288 2434364
0.11381833 0.019055558 0.57103091 3552835
0.11489726 0.019063672 0.57127404 4013377
0.11599173 0.019074196 0.57158941 4013888
0.1170995 0.019086702 0.5719642 3882304
0.1182244 0.019101759 0.57241541 2829115
0.11936898 0.019119706 0.57295322 2697533
0.12054172 0.019141817 0.57361585 4144965
0.12172766 0.019165631 0.57432944 4211013
0.12292679 0.019191103 0.57509273 3289923
0.12413996 0.01921832 0.57590836 2236743
0.12535217 0.019244939 0.57670605 3684426
0.12661645 0.019279048 0.57772815 3750217
0.12793012 0.01932006 0.57895714 4539724
0.12928945 0.019367246 0.58037114 4342350
0.13071142 0.019422982 0.58204138 3289678
0.13213153 0.019477557 0.58367682 3881806
0.13359052 0.019536953 0.58545673 3816013
0.13518131 0.019614542 0.58778179 4605517
0.13716365 0.019747296 0.59175998 4013135
0.074018948 0.021383252 0.60792333 2039352
0.074464552 0.021197937 0.60265487 1315636
0.075102001 0.021071784 0.59906834 1315634
0.075822838 0.020972272 0.59623927 2170679
0.076593027 0.020889007 0.59387201 3552572
0.077388771 0.020814911 0.59176546 2631995
0.07823015 0.020754939 0.59006047 1710399
0.079066887 0.020695359 0.58836663 1644354
0.079938486 0.020646365 0.58697373 1710148
0.080806106 0.020597635 0.58558834 2039110
0.081692964 0.020555003 0.58437634 2499400
0.082589529 0.020515872 0.58326381 2499658
0.083482549 0.020476852 0.58215451 2697035
0.084387384 0.020441664 0.58115411 2631242
0.085298173 0.020408764 0.58021879 2565449
0.086206019 0.020375969 0.5792864 2696777
0.087121725 0.020345792 0.57842851 3749962
0.088042326 0.020317459 0.57762301 4144966
0.08896625 0.020290548 0.57685792 4474181
0.089904398 0.020267466 0.57620168 4408390
0.090846188 0.020245723 0.57558352 4013639
0.091798246 0.020226732 0.57504362 3355206
0.092749976 0.020208096 0.57451379 2894662
0.09369947 0.020189388 0.57398194 3158086
0.094658367 0.020173093 0.57351869 3881542
0.095618226 0.020157356 0.57307124 4276291
0.096578941 0.020142132 0.57263845 4211008
0.097549111 0.020129181 0.57227027 4144958
0.098524511 0.020117572 0.57194018 4013375
0.099505007 0.020107228 0.57164615 3947587
0.10048879 0.020097759 0.57137692 2960447
0.10148314 0.020090573 0.5711726 2368572
0.1024816 0.020084333 0.57099521 3289919
0.10348305 0.020078802 0.57083797 3948097
0.10449477 0.020075349 0.57073981 4079423
0.10551828 0.020074211 0.57070744 3816255
0.10654002 0.020072756 0.57066613 3026491
0.10758158 0.020075032 0.57073081 3092031
0.10862129 0.020076921 0.57078451 3618628
0.10967305 0.020080982 0.57089996 3223616
0.11073068 0.020086031 0.57104349 2236729
0.11179557 0.02009229 0.57122147 2039353
0.1128667 0.020099549 0.57142782 3026494
0.11394256 0.02010751 0.57165414 3882049
0.11502272 0.02011608 0.5718978 4013375
0.11611885 0.020127267 0.57221586 3947840
0.11722913 0.020140687 0.57259738 3421246
0.1183592 0.020157244 0.57306808 2565949
0.11950521 0.020176206 0.57360715 3355713
0.12068427 0.020200372 0.57429421 4342598
0.1218706 0.020225333 0.57500386 3948100
0.12306982 0.020251995 0.57576185 2697538
0.12428224 0.020280367 0.57656842 2565702
0.12550122 0.020309325 0.57739174 3947593
0.12677331 0.020346334 0.57844388 4013386
0.12809172 0.020390112 0.57968849 4737099
0.12946326 0.020441568 0.58115137 4013390
0.13088794 0.02050052 0.58282739 3552845
0.13232262 0.020560089 0.58452094 3618638
0.13378218 0.02062255 0.58629668 3881804
0.13538632 0.020706143 0.58867323 4342349
0.13745034 0.020858223 0.59299684 3487056
0.074064411 0.022493636 0.60829675 2039352
0.074525826 0.022303348 0.60315078 1513013
0.075166442 0.022171397 0.59958237 1249843
0.075887591 0.022066604 0.59674847 1644598
0.076664463 0.02198072 0.59442592 2960186
0.077461228 0.021902831 0.59231955 3815998
0.078303196 0.021839667 0.5906114 2763071
0.079142399 0.02177744 0.58892858 1841473
0.080014706 0.021725846 0.58753335 1775939
0.080883086 0.021674551 0.58614618 1907525
0.081771925 0.021629995 0.58494121 2104648
0.082669511 0.021588853 0.58382863 2302282
0.083563238 0.021547753 0.58271718 2368075
0.084469646 0.021510905 0.58172065 2433867
0.08538118 0.021476246 0.58078343 2433866
0.086289778 0.021441704 0.57984924 2368073
0.087206654 0.021410018 0.57899237 3223371
0.088127956 0.021380154 0.57818478 3947336
0.089053363 0.021351976 0.57742274 4342341
0.089992329 0.021327663 0.57676524 4473925
0.090935998 0.021305004 0.5761525 4342342
0.091888666 0.021284945 0.57561004 4144966
0.092841528 0.021265378 0.57508087 3947589
0.093791872 0.021245673 0.57454801 4144966
0.094752088 0.02122861 0.57408655 4144709
0.095712312 0.021211918 0.57363516 4144706
0.096673906 0.021195883 0.57320154 4210753
0.097646587 0.021182593 0.57284212 4210751
0.098622911 0.021170363 0.57251137 4144959
0.099603415 0.021159275 0.5722115 3947586
0.10059027 0.021149749 0.57195389 3223614
0.1015856 0.021142179 0.57174921 3355457
0.10258465 0.02113553 0.57156938 4079682
0.10358885 0.021130065 0.57142156 4079934
0.10460277 0.021126667 0.57132971 4079424
0.10562766 0.021125533 0.57129902 3553084
0.10665219 0.021124346 0.57126695 3158331
0.1076949 0.021126751 0.57133198 3750211
0.10873681 0.021128953 0.57139152 3354946
0.10979119 0.021133516 0.5715149 2302270
0.11084998 0.021138834 0.57165873 2104893
0.11191608 0.021145435 0.57183725 2368571
0.11298842 0.021153083 0.57204407 3552833
0.11406704 0.021161757 0.57227868 3947840
0.11514843 0.021170788 0.57252288 4079423
0.11624746 0.02118287 0.57284963 3816000
0.11736152 0.021197455 0.57324404 2894652
0.11849431 0.021215139 0.57372224 2828606
0.11964218 0.021235194 0.57426459 3881796
0.12082717 0.021261433 0.57497418 4145222
0.12201507 0.021287736 0.5756855 3092547
0.12321361 0.021315435 0.57643455 2368837
0.12443026 0.021345777 0.57725513 3289673
0.1256562 0.021377197 0.57810479 3750217
0.12692885 0.021415979 0.5791536 4342346
0.12825374 0.021462871 0.58042169 4737100
0.12963755 0.021518784 0.58193374 3882062
0.13106385 0.021580795 0.58361071 4079181
0.13251428 0.02164576 0.58536756 3289422
0.13399328 0.021714326 0.5872218 3815756
0.13560933 0.021803852 0.58964288 3947341
0.13773824 0.021973806 0.59423894 3289162
0.074109934 0.023605386 0.60867059 1578551
0.074587211 0.023410585 0.60364759 1710389
0.075230993 0.023272898 0.6000973 1381427
0.075952448 0.023162805 0.59725851 1381430
0.07673604 0.023074474 0.5949809 2105145
0.077533826 0.02299279 0.59287465 3289149
0.07837636 0.02292642 0.59116328 3552574
0.079218052 0.022861587 0.58949155 3026497
0.080091178 0.022807421 0.58809489 2368067
0.080960207 0.022753522 0.58670509 2104645
0.081851043 0.022707064 0.58550715 2170696
0.082749367 0.022663839 0.58439261 2367818
0.083644085 0.022620726 0.58328092 2368076
0.084552057 0.022582227 0.58228821 2433867
0.085464336 0.022545805 0.58134907 2368330
0.086372882 0.022509297 0.58040768 2302282
0.087290898 0.022476099 0.5795517 2367819
0.088212937 0.022444712 0.57874233 3091787
0.089140646 0.022415483 0.57798868 3749960
0.09008044 0.022389935 0.57732993 4079174
0.091025978 0.022366384 0.57672262 4276551
0.091979258 0.022345245 0.57617754 4079174
0.09293326 0.02232475 0.57564908 3815750
0.093884461 0.022304043 0.57511514 3486534
0.09484601 0.02228622 0.57465559 3157572
0.095806703 0.022268586 0.57420087 3618371
0.096769065 0.02225171 0.57376575 4210498
0.097744256 0.022238111 0.5734151 4276544
0.098721512 0.022225261 0.57308376 4210752
0.099702016 0.022213403 0.57277799 4276546
0.10069196 0.022203868 0.57253212 4211011
0.10168824 0.022195911 0.57232696 4211266
0.10268791 0.022188844 0.57214475 4211008
0.10369518 0.022183547 0.57200813 4145216
0.104711 0.022180162 0.57192087 4210752
0.10573726 0.022179035 0.57189178 4079170
0.10676459 0.022178151 0.57186902 3881795
0.10780843 0.02218068 0.57193422 3092033
0.10885257 0.022183226 0.57199985 2367807
0.10990959 0.022188321 0.57213122 1973311
0.11096955 0.022193909 0.57227534 2105149
0.11203687 0.022200854 0.57245439 2894654
0.1131104 0.022208892 0.57266164 3750466
0.11419179 0.022218313 0.57290459 4013632
0.11527443 0.022227805 0.57314932 4079424
0.11637636 0.022240814 0.57348478 3421245
0.11749446 0.022256659 0.57389337 2565947
0.11862972 0.02227545 0.57437789 3355457
0.11978384 0.022297425 0.5749445 3947588
0.1209704 0.022325009 0.57565576 3092034
0.12215988 0.02235266 0.57636875 2302532
0.12336033 0.022381831 0.57712096 2763078
0.12457865 0.022413732 0.5779435 3947594
0.12581226 0.02244783 0.57882273 3552583
0.12708224 0.022487804 0.57985348 4539978
0.1284159 0.022538301 0.58115554 4605517
0.1298081 0.02259817 0.5826993 4079438
0.13124608 0.022664985 0.58442211 3816270
0.13270283 0.022733951 0.58620042 2894671
0.13420863 0.022810163 0.58816558 3552590
0.13587657 0.022912519 0.59080487 3421006
0.1381118 0.023108199 0.59585053 3420997
0.074137948 0.02471265 0.60890073 1578552
0.074646167 0.024518814 0.60412472 1841973
0.075295657 0.024376292 0.60061312 1644852
0.076017424 0.02426088 0.59776944 1249846
0.076804467 0.024169236 0.59551144 1446968
0.077606559 0.024084793 0.59343082 2367805
0.078449674 0.024015207 0.59171623 3091775
0.079293981 0.023947846 0.59005654 3486785
0.0801678 0.023891065 0.5886575 3815747
0.081037469 0.023834551 0.58726501 3223621
0.081930317 0.023786223 0.58607423 3025992
0.082829356 0.023740897 0.58495748 2696777
0.083724976 0.023695748 0.58384502 2828363
0.084634133 0.023655504 0.58285344 2828875
0.085546374 0.023617098 0.58190715 2631497
0.086455666 0.023578819 0.58096397 2302538
0.087375276 0.023544235 0.58011186 2236746
0.088298075 0.02351132 0.57930088 2302537
0.08922828 0.023481125 0.5785569 2565448
0.090168715 0.02345429 0.5778957 2828616
0.09111613 0.023429863 0.57729381 2960199
0.092070043 0.023407638 0.57674623 2828615
0.093025163 0.023386216 0.57621837 2696774
0.093977213 0.023364501 0.57568336 2433605
0.094940111 0.023345931 0.57522577 2368069
0.09590169 0.023327438 0.57477015 3025988
0.09686441 0.023309616 0.57433105 3947332
0.097842135 0.023295745 0.57398927 4210753
0.098820299 0.023282269 0.57365721 4013376
0.09980081 0.02326962 0.57334554 3947586
0.10079384 0.023260117 0.57311141 3355198
0.10179111 0.023251776 0.5729059 3552831
0.10279139 0.023244284 0.5727213 4079424
0.10380174 0.023239197 0.57259595 4079168
0.10481946 0.023235841 0.57251328 3947583
0.10584708 0.023234727 0.5724858 3355455
0.10687722 0.023234179 0.57247233 2631486
0.10792217 0.023236832 0.57253766 2105152
0.10896859 0.023239747 0.57260948 2039106
0.11002822 0.0232454 0.57274878 1973568
0.11108937 0.023251263 0.57289326 2302525
0.1121579 0.023258552 0.57307285 3355199
0.11323389 0.023267236 0.57328683 3882047
0.11431682 0.023277182 0.57353187 4013631
0.11540069 0.023287136 0.57377714 4079425
0.11650553 0.023301106 0.57412136 3026237
0.1176277 0.023318266 0.57454419 2434108
0.11876545 0.023338189 0.57503504 3421508
0.11992583 0.023362175 0.57562602 2828865
0.12111396 0.023391109 0.57633895 2104897
0.12230475 0.023420058 0.57705224 2302533
0.1235074 0.023450771 0.57780898 3552584
0.12472738 0.023484234 0.57863349 3224134
0.12596868 0.023521123 0.5795424 3816009
0.12723604 0.023562228 0.5805552 4671306
0.12857842 0.023616444 0.58189106 4671565
0.12997694 0.023680009 0.58345723 4408397
0.13142878 0.02375219 0.58523571 3289679
0.13289154 0.023825176 0.58703405 2697039
0.13442098 0.02390887 0.58909619 3157582
0.13614488 0.024025567 0.59197152 2960463
0.13896288 0.02433202 0.59952229 3552581
0.074158348 0.025818091 0.60906821 1578551
0.074702173 0.025627753 0.60457802 1776181
0.075361416 0.025481917 0.60113764 1973556
0.076086238 0.02536208 0.59831059 1315638
0.076872498 0.025265787 0.59603894 1249593
0.077679425 0.025178848 0.593988 1380924
0.07852307 0.025106017 0.59226984 2039103
0.07937029 0.025036266 0.59062439 2631232
0.080244564 0.024976784 0.58922118 3223364
0.081114896 0.024917647 0.58782607 3749701
0.082009748 0.024867471 0.58664238 4013128
0.082909502 0.024820041 0.58552349 3881546
0.083805837 0.024772793 0.58440888 3486539
0.08471559 0.024730638 0.58341438 3486795
0.085628577 0.024690449 0.5824663 3552585
0.086539462 0.024650635 0.58152705 3289417
0.087459795 0.024614433 0.58067304 2960457
0.088383369 0.024579991 0.57986051 2697544
0.089316174 0.02454889 0.57912683 2631751
0.09025716 0.024520732 0.57846254 2697287
0.091206476 0.024495453 0.5778662 2763079
0.092161 0.02447213 0.57731599 2565447
0.093117036 0.024449723 0.57678741 2302278
0.09407042 0.024427125 0.57625431 2104902
0.095034398 0.024407741 0.57579702 2038853
0.095996857 0.02438839 0.57534051 2038851
0.096959971 0.024369618 0.57489765 2302018
0.097940199 0.024355499 0.57456458 2631490
0.098919287 0.024341395 0.57423186 2631233
0.099899814 0.024327934 0.57391429 2499649
0.10089594 0.024318509 0.57369196 2170687
0.10189418 0.02430978 0.57348603 2500159
0.10289507 0.024301851 0.57329899 3289409
0.10390852 0.024297018 0.57318497 3354944
0.10492814 0.024293708 0.57310688 2828861
0.10595714 0.024292614 0.57308108 2105148
0.10699011 0.024292439 0.57307696 1841982
0.10803616 0.024295215 0.57314241 1841986
0.10908535 0.024298633 0.57322305 1907522
0.11014713 0.024304764 0.57336771 1973311
0.11120944 0.024310902 0.57351249 2631486
0.11227921 0.02431854 0.57369268 3618625
0.11335795 0.024327962 0.57391495 3816511
0.11444212 0.02433837 0.57416052 3882304
0.11552724 0.02434879 0.57440633 3750721
0.11663771 0.024364322 0.57477272 2631227
0.11776125 0.024382286 0.5751965 2368062
0.11890148 0.02440336 0.57569367 2697283
0.12006814 0.024429448 0.57630908 2105152
0.12125787 0.024459742 0.57702374 2170947
0.12244882 0.024489766 0.57773203 3355462
0.12365481 0.024522264 0.57849866 3552838
0.12487713 0.024557428 0.57932824 2697286
0.12612551 0.024597092 0.58026391 4408138
0.1273969 0.024640551 0.58128917 4671305
0.12873371 0.024695853 0.5825938 4671309
0.13014621 0.024764663 0.58421707 3749967
0.13161202 0.02484243 0.58605164 2828879
0.1330808 0.024919512 0.58787006 2499919
0.13463399 0.025011059 0.59002972 2762830
0.13639811 0.025140043 0.59307259 2762831
0.074182987 0.026925677 0.60927063 1513015
0.074758269 0.026738361 0.60503203 1644597
0.075428791 0.026590006 0.60167509 1973556
0.076155245 0.026465299 0.59885323 1381430
0.076940648 0.026364278 0.59656733 1315385
0.077752389 0.026274946 0.59454596 1446463
0.078596555 0.026198851 0.5928241 1512510
0.079447083 0.026126893 0.59119582 1841218
0.080321476 0.026064586 0.58978593 2170692
0.081192456 0.026002811 0.58838814 2762310
0.082089327 0.025950819 0.58721167 3025736
0.082989804 0.025901277 0.58609062 3486539
0.083887599 0.025852153 0.58497906 3947083
0.084797204 0.025807844 0.58397645 3881290
0.085710935 0.025765864 0.58302653 3684169
0.086623929 0.025724683 0.58209467 3684169
0.087544486 0.025686707 0.58123535 4144968
0.088469207 0.025650835 0.58042365 4145225
0.08940424 0.02561876 0.57969785 3947591
0.090346187 0.025589384 0.57903314 3881800
0.091296993 0.025563158 0.57843971 3881800
0.092252135 0.025538726 0.57788688 3750214
0.093209036 0.025515322 0.57735729 3684421
0.094164014 0.025491916 0.57682765 3618630
0.095128879 0.025471667 0.57636946 3420997
0.096092209 0.02545145 0.575912 3026499
0.097057305 0.025432128 0.5754748 2631490
0.098038457 0.025417378 0.57514101 2302273
0.099018477 0.025402645 0.57480764 1907266
0.099999003 0.025388347 0.57448411 1775938
0.10099825 0.025379047 0.57427365 1710401
0.10199746 0.025369927 0.57406729 1579070
0.10299915 0.025361599 0.57387888 1644862
0.10401551 0.025357017 0.57377517 1644606
0.10503704 0.025353769 0.57370168 1644349
0.10606743 0.025352702 0.57367754 1644350
0.10710322 0.025352936 0.57368284 1709888
0.10815041 0.025355836 0.57374847 1776194
0.10920332 0.025360014 0.573843 1907264
0.11026629 0.025366424 0.57398802 1973052
0.11132979 0.025372835 0.5741331 2828861
0.11240078 0.025380822 0.57431382 3815744
0.11348228 0.025391012 0.57454443 3947582
0.11456771 0.025401892 0.5747906 4013375
0.11565406 0.025412776 0.57503688 3684415
0.11677019 0.025429953 0.57542557 2434362
0.11789511 0.025448725 0.57585031 2039356
0.11903783 0.025470978 0.57635385 1907775
0.1202108 0.02549926 0.57699382 2105409
0.12140211 0.025530916 0.57771015 2960708
0.12259325 0.025561996 0.57841343 3881800
0.12380259 0.025596317 0.57919002 2697029
0.12502758 0.02563327 0.58002621 2697031
0.12627971 0.025675129 0.58097339 4342346
0.12755817 0.025721606 0.58202505 4474187
0.12888873 0.025777744 0.58329535 4276302
0.13031591 0.025852146 0.58497888 3092047
0.13179575 0.025935711 0.58686978 2631503
0.13329424 0.026021585 0.58881295 2434127
0.13484816 0.026116839 0.59096831 2368078
0.13667034 0.026262142 0.59425622 2894415
0.07420963 0.02803475 0.60948944 1512759
0.074814454 0.027850635 0.60548669 1447476
0.075496301 0.027700081 0.60221356 1710644
0.076224387 0.027570521 0.59939688 1446967
0.077008918 0.027464719 0.59709668 1315386
0.077825435 0.027373085 0.59510452 1512254
0.078670174 0.027293734 0.59337938 1578558
0.079524033 0.027219635 0.59176844 1709890
0.080398545 0.027154475 0.59035182 1841477
0.081270173 0.027090058 0.58895135 2236231
0.082169063 0.027036272 0.58778203 2499400
0.083070256 0.026984606 0.58665878 2499403
0.083969869 0.026933732 0.58555275 2762571
0.084878966 0.026887126 0.58453953 3091786
0.08579345 0.02684335 0.58358783 3157834
0.086708561 0.026800828 0.58266336 3223369
0.087629355 0.026761061 0.58179879 3223370
0.08855629 0.026724087 0.58099496 3552584
0.089492477 0.02669074 0.58026999 4013127
0.090436041 0.026660334 0.57960898 4276550
0.091387689 0.026632985 0.57901436 4342341
0.09234345 0.026607435 0.57845891 4342341
0.093301207 0.026583027 0.57792825 4276803
0.094257794 0.026558826 0.57740211 4276546
0.095223546 0.026537709 0.57694304 4276545
0.096187763 0.026516626 0.57648468 4210752
0.097154841 0.026496774 0.57605308 4079168
0.098136917 0.026481392 0.57571864 3881792
0.099117853 0.026466023 0.57538456 3487040
0.10009987 0.02645126 0.57506359 2960705
0.10110076 0.026441736 0.57485652 2368319
0.10210095 0.026432225 0.57464975 1907775
0.10310534 0.026423981 0.57447052 1644607
0.10412274 0.026419202 0.57436663 1578813
0.10514618 0.026416035 0.57429779 1644605
0.10617795 0.026415002 0.57427531 1709885
0.10721657 0.026415676 0.57428998 1709632
0.10826487 0.026418701 0.57435572 1775684
0.10932156 0.026423696 0.57446432 1907010
0.1103857 0.02643038 0.57460964 1907517
0.11145038 0.026437066 0.57475501 2894398
0.11252262 0.026445407 0.57493633 3749953
0.1136069 0.026456401 0.57517534 4013375
0.11469357 0.026467746 0.57542199 4013376
0.11578099 0.02647906 0.57566798 3750208
0.11690296 0.026498005 0.57607985 2631739
0.11802927 0.026517589 0.5765056 2236988
0.11917449 0.026541043 0.57701552 2236991
0.1203538 0.026571618 0.57768023 3158339
0.12154671 0.026604645 0.57839823 3750725
0.122738 0.026636757 0.57909638 2894405
0.12395071 0.026672939 0.57988298 2302279
0.1251784 0.026711708 0.58072585 2565448
0.12643281 0.026755489 0.58167768 4210763
0.12771986 0.026805403 0.58276284 4013133
0.12905352 0.026864201 0.58404112 3289167
0.13048814 0.026942898 0.58575201 2763087
0.13198055 0.027032161 0.58769268 2499919
0.13350128 0.027125755 0.58972746 2368079
0.13507544 0.027228644 0.5919643 2828878
0.13696985 0.027393971 0.59555858 3026255
0.074236304 0.029144622 0.60970849 1446967
0.074870713 0.028964581 0.60594201 1381428
0.075563915 0.02881214 0.60275292 1513012
0.07629364 0.02867775 0.59994149 1446712
0.077077307 0.028567113 0.59762692 1315386
0.077898599 0.028473282 0.59566396 1578301
0.078743935 0.02839067 0.59393573 2039104
0.079601116 0.028314492 0.59234208 2039106
0.080475748 0.028246455 0.59091872 1841733
0.081348032 0.028179383 0.58951557 2170438
0.082248956 0.028123835 0.58835351 2302025
0.083150871 0.02807004 0.58722812 2433355
0.084052302 0.028017433 0.58612758 2499148
0.084960893 0.027968494 0.58510375 2499402
0.08587613 0.027922913 0.5841502 2368074
0.086793348 0.027879076 0.58323312 2499658
0.087714374 0.027837494 0.58236325 2434121
0.088643529 0.02779945 0.58156735 2367817
0.089580901 0.027764842 0.58084333 2499143
0.090526052 0.027733415 0.58018589 2828359
0.091478571 0.027704937 0.57959014 3223366
0.09243495 0.027678261 0.57903206 3815495
0.093393579 0.027652847 0.57850039 4210502
0.094351761 0.027627863 0.57797772 4342339
0.095318399 0.027605876 0.57751775 4408385
0.096283972 0.027584057 0.5770613 4408129
0.097253405 0.027563799 0.57663751 4211264
0.098236762 0.027547875 0.57630438 4145215
0.099218994 0.027531972 0.57597166 4079167
0.10020269 0.027516803 0.57565433 4013377
0.10120446 0.027506853 0.57544619 3684672
0.10220551 0.027496913 0.57523823 3224128
0.10321175 0.027488556 0.57506341 2631743
0.10423017 0.027483579 0.57495928 2170941
0.10525554 0.027480511 0.57489508 1907772
0.10628869 0.027479516 0.57487428 1775933
0.10733017 0.027480669 0.57489842 1775937
0.10837991 0.027483901 0.57496601 1775939
0.10943988 0.027489638 0.57508606 1841730
0.11050539 0.027496645 0.57523263 1841982
0.11157124 0.027503608 0.5753783 2631483
0.1126448 0.027512323 0.57556063 3618624
0.11373179 0.02752413 0.57580763 3947583
0.11481958 0.027535917 0.57605422 4013631
0.11591179 0.027548542 0.57631832 3947840
0.11703605 0.027568491 0.57673568 3553088
0.11816373 0.027588889 0.57716238 3289918
0.11931147 0.027613571 0.57767874 3684418
0.12049714 0.02764653 0.57836825 4013636
0.12169046 0.027680663 0.57908231 2960195
0.1228831 0.027714061 0.579781 2170439
0.1240992 0.027752142 0.58057767 2039112
0.12532958 0.027792752 0.58142722 2367818
0.12658624 0.02783847 0.58238363 2894411
0.127876 0.027890649 0.58347523 2696783
0.1292205 0.027953824 0.58479685 2763087
0.13067795 0.02804021 0.58660406 2631502
0.13217716 0.028134095 0.58856815 2499919
0.13369827 0.028231109 0.59059769 2960463
0.13530518 0.028344562 0.59297115 3355471
0.13724844 0.028526148 0.59676993 3223376
0.074263699 0.03025558 0.6099335 1446967
0.074926257 0.030079884 0.60639155 1315636
0.075631656 0.029926196 0.6032933 1446964
0.076363027 0.029786997 0.60048711 1380920
0.077145822 0.02967147 0.59815818 1380922
0.077971891 0.029575543 0.59622437 1644605
0.078817837 0.029489666 0.59449315 2499392
0.079678364 0.029411478 0.59291691 2960451
0.080553107 0.029340535 0.59148675 2565445
0.081426039 0.0292708 0.59008092 2236486
0.082328998 0.029213514 0.58892608 2302025
0.083231635 0.029157579 0.58779848 2367819
0.084134892 0.029103266 0.58670354 2499148
0.085042991 0.029051952 0.5856691 2499402
0.085958958 0.029004557 0.58471364 2433610
0.086878307 0.028959434 0.58380401 2302027
0.087799557 0.028916022 0.58292884 2302026
0.088730946 0.028876936 0.58214086 2170441
0.089669496 0.028841065 0.58141774 2170440
0.090616271 0.028808642 0.58076411 2236232
0.091569625 0.028779024 0.58016706 2302279
0.09252663 0.028751211 0.57960635 2499655
0.093486115 0.028724786 0.57907361 2959943
0.094447277 0.028699448 0.57856286 3749448
0.095415525 0.028676799 0.57810622 4276549
0.096382238 0.02865418 0.57765025 4408129
0.097353101 0.028633265 0.57722861 4276800
0.098337412 0.028616706 0.57689482 4145215
0.099320583 0.028600167 0.57656139 4079423
0.10030623 0.028584678 0.57624912 4144959
0.1013085 0.028574193 0.57603776 4144704
0.10231053 0.028563853 0.57582933 4013375
0.10331852 0.028555371 0.57565832 3816256
0.10433784 0.028550155 0.57555318 3289919
0.10536513 0.028547201 0.57549363 2565949
0.10639967 0.028546251 0.5754745 2039613
0.107444 0.028547922 0.57550818 1842239
0.10849614 0.028551616 0.57558262 1841986
0.10955834 0.028557863 0.57570857 1907521
0.11062524 0.028565204 0.57585657 1907517
0.11169237 0.028572466 0.57600296 2236730
0.11276871 0.02858193 0.57619375 3223871
0.11385688 0.028594194 0.57644099 3881792
0.11494549 0.028606344 0.57668591 4079168
0.11604451 0.028620843 0.57697821 4211008
0.11716944 0.028641419 0.577393 4276801
0.1182985 0.028662633 0.57782066 4342340
0.11944876 0.028688565 0.57834345 4013125
0.12064082 0.028724004 0.57905787 2697281
0.12183432 0.028759174 0.57976687 2105156
0.12302855 0.028793914 0.58046722 1973575
0.12424884 0.028834119 0.58127773 1907529
0.12548114 0.028876415 0.58213037 1973323
0.12674154 0.028924419 0.58309811 2170955
0.12803699 0.028979568 0.58420986 2697037
0.12941146 0.029051553 0.58566105 2631502
0.13087226 0.029141599 0.58747631 2697293
0.1323733 0.029239083 0.58944154 2894670
0.13390572 0.029341893 0.59151411 3881551
0.13550992 0.029458677 0.59386843 3421007
0.1375282 0.029662943 0.59798628 3289169
0.074301794 0.031371869 0.61024636 1446711
0.074975446 0.031194163 0.60678965 1315380
0.075696737 0.031041108 0.6038124 1446965
0.076432541 0.030898262 0.60103375 1446712
0.077214457 0.03077779 0.59869033 1380922
0.078045316 0.030679883 0.59678584 1709886
0.078891873 0.030590728 0.59505159 2828351
0.079755761 0.030510593 0.59349281 3947333
0.080630623 0.030436724 0.59205592 3486533
0.081504203 0.03036431 0.59064734 2696774
0.082409196 0.030305317 0.58949977 2433353
0.083312564 0.030247238 0.58837003 2433612
0.084217653 0.030191233 0.58728063 2433612
0.08512523 0.030137504 0.58623546 2499402
0.086041957 0.030088292 0.58527821 2433866
0.08696343 0.030041913 0.58437604 2302027
0.08788491 0.029996645 0.5834955 2302026
0.088818543 0.029956551 0.58271557 2170441
0.089758255 0.029919419 0.58199328 2104904
0.090706684 0.029886017 0.58134353 2105159
0.091660872 0.029855255 0.58074516 2105159
0.092618495 0.029826295 0.58018184 2170695
0.093579009 0.029798901 0.57964897 2368071
0.094543248 0.029773287 0.57915074 2630983
0.09551309 0.029749978 0.57869732 3289157
0.09648072 0.029726492 0.57824045 4013123
0.097453199 0.029704986 0.57782215 4013120
0.09843827 0.029687732 0.57748652 4012864
0.099422388 0.029670555 0.57715237 3683903
0.10041016 0.029654814 0.57684618 3552321
0.10141274 0.029643724 0.57663047 3420992
0.10241578 0.029632991 0.57642168 3421247
0.10342573 0.029624455 0.57625562 3552575
0.10444572 0.029618936 0.57614827 3750208
0.10547494 0.029616116 0.57609344 3684673
0.10651089 0.029615222 0.57607603 3158079
0.10755837 0.029617522 0.57612079 2499902
0.10861262 0.029621623 0.57620054 2104640
0.10967708 0.029628403 0.57633245 1907265
0.11074515 0.029636027 0.57648075 1775934
0.11181376 0.029643647 0.57662898 1907258
0.11289289 0.029653892 0.57682824 2499900
0.11398182 0.0296665 0.57707351 3289409
0.11507166 0.029679116 0.57731891 3618368
0.11617754 0.029695604 0.57763964 3618624
0.11730313 0.029716793 0.57805181 3421248
0.11843358 0.029738829 0.57848042 2829118
0.1195901 0.029766966 0.57902777 2104894
0.12078484 0.029804053 0.57974917 1841985
0.12197851 0.029840237 0.58045304 1841989
0.12317433 0.029876327 0.58115506 1907528
0.12439904 0.029918756 0.58198041 1907786
0.12563314 0.029962713 0.58283544 2368329
0.12689818 0.030013263 0.58381873 3684175
0.12820435 0.030072626 0.58497345 4078672
0.12960331 0.030152606 0.58652925 2828876
0.13106717 0.030246269 0.58835119 3026506
0.13257001 0.030347351 0.59031743 3355469
0.13410258 0.030453574 0.59238368 4013135
0.13571817 0.03057682 0.59478104 2960463
0.13783923 0.030811122 0.59933871 3157585
0.074340053 0.032489356 0.6105606 1446711
0.075028747 0.032311648 0.60722101 1381172
0.07575684 0.032155782 0.60429186 1512757
0.076502174 0.03201155 0.60158134 1446968
0.077284694 0.031886693 0.59923494 1380922
0.078118883 0.031786304 0.59734839 1644350
0.078966044 0.031693857 0.59561104 2630975
0.079833306 0.031611845 0.59406984 4276038
0.080708273 0.031535018 0.59262609 4342087
0.081582516 0.031459924 0.59121484 3091781
0.08248955 0.03139925 0.5900746 2564937
0.083394669 0.0313394 0.58894986 2434124
0.08430057 0.031281345 0.58785886 2433868
0.085207634 0.031225158 0.58680296 2499402
0.086126283 0.031174542 0.58585179 2433866
0.087048724 0.031126514 0.5849492 2302283
0.087970428 0.031079372 0.58406329 2236234
0.088906303 0.031038295 0.58329135 2104904
0.089848243 0.031000271 0.58257675 2105159
0.090797253 0.030965537 0.58192402 2170695
0.091752291 0.03093363 0.5813244 2170696
0.092710532 0.030903511 0.58075839 2104903
0.093673721 0.030875696 0.58023566 2104903
0.094639041 0.03084919 0.57973754 2170695
0.095610857 0.030825358 0.57928967 2367813
0.096579395 0.030800996 0.57883185 2894149
0.097553626 0.030778952 0.5784176 3025987
0.098539323 0.030760953 0.57807934 2433856
0.099524409 0.030743141 0.5777446 1907519
0.10051431 0.03072717 0.57744449 2039105
0.10151722 0.030715464 0.57722449 2039104
0.10252123 0.030704329 0.57701522 2104638
0.10353314 0.030695755 0.57685411 2236221
0.10455383 0.030689929 0.57674462 2433853
0.10558499 0.030687261 0.57669449 2631485
0.10662214 0.030686371 0.57667774 2828607
0.10767396 0.030689679 0.57673991 2894402
0.10872934 0.030693928 0.57681978 2565443
0.10979605 0.030701265 0.57695764 2039105
0.11086532 0.030709172 0.57710624 1841471
0.11193514 0.030717086 0.57725495 1709883
0.11301685 0.030728085 0.57746166 1841467
0.11410702 0.030741161 0.57770741 1973051
0.11519811 0.030754248 0.57795334 2236476
0.11631087 0.030772831 0.57830256 2105147
0.11743712 0.030794624 0.57871211 1973564
0.11856897 0.030817486 0.57914174 1841982
0.11973286 0.030848203 0.57971901 1775937
0.12092853 0.030886509 0.58043885 1776196
0.12212306 0.030923864 0.58114088 1841990
0.12332047 0.030961309 0.58184457 1842247
0.12454966 0.031006034 0.58268505 2170441
0.12578627 0.031051842 0.58354592 3947342
0.12706327 0.031106776 0.58457828 4670800
0.12837213 0.031168543 0.58573902 3749708
0.12979345 0.031256381 0.58738977 3290185
0.13126211 0.031354107 0.58922625 3355719
0.13275528 0.031456068 0.59114242 3487053
0.13429134 0.031566489 0.59321749 3355214
0.13593167 0.031699482 0.59571677 2631247
0.13816185 0.031966861 0.60074151 3157835
0.074386336 0.033611603 0.61094069 1446711
0.075082108 0.033430722 0.6076529 1512756
0.075811431 0.033269763 0.60472727 1841718
0.076571941 0.033126868 0.60212994 1644344
0.077357069 0.032998469 0.59979612 1446714
0.078192592 0.032894813 0.59791201 1513021
0.079040371 0.032799065 0.59617162 2236480
0.079911001 0.032715242 0.594648 3880772
0.080786087 0.032635439 0.59319746 4144198
0.081661761 0.032557957 0.59178913 3289157
0.082570069 0.032495316 0.59065056 2630984
0.08347702 0.032433748 0.58953142 2565452
0.084383652 0.032373603 0.58843821 2499404
0.085290201 0.032314919 0.58737159 2433866
0.086210959 0.032262996 0.58642781 2368330
0.08713419 0.032213245 0.58552349 2302283
0.088057108 0.032164574 0.58463877 2302281
0.088993631 0.03212196 0.58386427 2368071
0.089938484 0.032083318 0.58316189 2368070
0.090888023 0.032047223 0.58250576 2433607
0.091843911 0.032014165 0.58190489 2302279
0.092803419 0.0319831 0.58134025 2104903
0.093768626 0.031954672 0.58082354 2039111
0.094735026 0.031927276 0.58032554 2104646
0.095708817 0.031902939 0.57988322 2104390
0.096678272 0.0318777 0.57942444 2038598
0.097654268 0.031855136 0.5790143 1907267
0.098640598 0.031836383 0.57867348 1775682
0.099626623 0.031817924 0.57833797 1644353
0.10061867 0.031801756 0.57804406 1710145
0.1016219 0.031789415 0.57781971 1710145
0.10262714 0.031777948 0.57761133 1578559
0.10364079 0.031769287 0.57745391 1578557
0.10466216 0.031763144 0.57734221 1644605
0.10569526 0.031760644 0.57729679 1775934
0.10673391 0.031759847 0.57728231 1907261
0.10778978 0.031764138 0.57736033 2170432
0.10884632 0.031768546 0.57744038 2368069
0.10991529 0.031776458 0.57758421 1973057
0.11098575 0.03178465 0.57773316 1709885
0.11205676 0.031792849 0.57788217 1578811
0.11314108 0.031804636 0.57809639 1644348
0.1142325 0.031818185 0.57834268 1644094
0.11532485 0.031831749 0.5785892 1644348
0.11644451 0.031852536 0.57896703 1644604
0.11757142 0.031874917 0.5793739 1578813
0.11870467 0.03189861 0.57980454 1710399
0.11987595 0.031932022 0.58041185 1775937
0.12107182 0.031971347 0.58112663 1710659
0.12226794 0.032010064 0.58183032 1776709
0.12346695 0.032048866 0.58253568 1973832
0.12470065 0.032095946 0.58339143 2433865
0.12594186 0.032144155 0.58426768 4012878
0.1272324 0.032204054 0.58535641 4210254
0.12854151 0.032267626 0.58651191 3289417
0.12998551 0.032363739 0.58825892 3487810
0.13144369 0.032461803 0.5900414 3355974
0.13293844 0.032567251 0.59195805 3092044
0.13448063 0.032682545 0.59405369 2697037
0.13615 0.032826681 0.59667361 2631247
0.13846686 0.033123445 0.60206771 2960459
0.074453972 0.034745187 0.61149621 1446967
0.075135559 0.034551386 0.60808545 1578548
0.07587266 0.034388326 0.60521567 2236470
0.076635838 0.034241546 0.6026324 2105144
0.077429593 0.034112338 0.60035843 1644090
0.078266434 0.034005415 0.59847665 1512509
0.079114825 0.033906352 0.59673321 1775937
0.079988837 0.033820786 0.59522724 2828356
0.080864035 0.033737976 0.59376985 3354692
0.081741698 0.033658348 0.59236842 3091525
0.082650743 0.033593528 0.59122765 2565192
0.083559521 0.033530254 0.59011406 2630988
0.084466897 0.033468015 0.5890187 2565196
0.085372917 0.033406794 0.58794123 2433867
0.086295813 0.033353597 0.58700502 2368331
0.087219819 0.033302113 0.58609891 2499403
0.088141084 0.033250827 0.58519632 2630984
0.089078292 0.033206701 0.58441973 3552591
0.090028912 0.033168547 0.58374822 3158087
0.090978965 0.03313107 0.58308864 3157832
0.091935724 0.033096861 0.58248657 3026503
0.092897631 0.033065259 0.5819304 2499910
0.093863726 0.033035837 0.58141261 2301766
0.094831213 0.033007547 0.58091474 2104390
0.095806979 0.032982729 0.58047795 1973061
0.09677735 0.032956611 0.58001828 1907269
0.097755104 0.032933537 0.5796122 1775684
0.098742083 0.032914028 0.57926881 1644098
0.099729061 0.032894924 0.57893264 1644096
0.10072325 0.032878574 0.57864487 1775682
0.10172679 0.032865576 0.57841611 1709888
0.10273365 0.032853909 0.57821077 1578814
0.10374866 0.032845054 0.5780549 1513278
0.10477077 0.032838602 0.57794136 1644606
0.10580593 0.032836325 0.5779013 1644606
0.10684868 0.032836422 0.57790303 1775168
0.10790586 0.032840915 0.57798207 1841218
0.10896368 0.032845508 0.57806295 1841474
0.11003478 0.032853987 0.57821214 1841473
0.11110644 0.032862466 0.57836139 1710141
0.1121797 0.032871261 0.57851619 1644602
0.11326558 0.032883558 0.57873255 1775933
0.11435826 0.03289758 0.57897937 1841470
0.11545195 0.032911643 0.57922685 1841980
0.11657845 0.032934722 0.579633 1907517
0.11770654 0.03295783 0.58003974 1907518
0.11884067 0.032982212 0.58046883 2039103
0.1200194 0.033018436 0.58110636 2039361
0.12121546 0.033058763 0.58181608 2170947
0.12241316 0.033098839 0.58252138 2105157
0.12361587 0.033139572 0.5832383 2171207
0.12485202 0.033188511 0.58409959 2433865
0.12609783 0.033239178 0.58499128 3157579
0.12740107 0.033304013 0.58613235 2697034
0.12872708 0.033373687 0.58735859 3158341
0.13017985 0.033474818 0.58913845 3487806
0.13162506 0.033572383 0.59085554 3092806
0.13312073 0.033681151 0.59276974 2894922
0.13467045 0.033801746 0.5948922 2565453
0.13636905 0.033957511 0.59763354 2565456
0.13890384 0.034317419 0.60396773 3223621
0.074521743 0.035880841 0.61205286 1446967
0.07519076 0.035674449 0.60853225 1513012
0.07593482 0.035509087 0.60571152 2565686
0.07669729 0.035356905 0.60311562 2631481
0.077500686 0.035227586 0.60090965 1973561
0.078340419 0.035118118 0.59904242 1643837
0.079189412 0.035015728 0.59729582 1644097
0.080066837 0.034928486 0.59580767 1973571
0.080942146 0.034842648 0.59434342 2236227
0.081821792 0.034760892 0.59294885 2630981
0.082731575 0.034693886 0.59180588 2499145
0.083642192 0.034628931 0.59069788 2565452
0.084550314 0.034564592 0.58960038 2565195
0.085455805 0.034500793 0.58851206 2434122
0.086380832 0.034446344 0.5875833 2433866
0.087303013 0.034392096 0.58665794 2697036
0.088226721 0.034339741 0.58576488 3683916
0.08916311 0.034293506 0.5849762 3684169
0.090117954 0.034255363 0.58432555 3947593
0.091070093 0.034217086 0.58367264 3947336
0.092027768 0.03418174 0.58306974 3684422
0.09299203 0.034149617 0.58252174 3355461
0.093959019 0.034119196 0.58200288 3026246
0.094927587 0.034090016 0.58150512 2367812
0.095905349 0.03406474 0.58107394 1973317
0.096876636 0.034037735 0.58061332 1841989
0.097856164 0.034014177 0.5802114 1841477
0.098843761 0.033993889 0.57986534 1709891
0.0998317 0.033974137 0.57952845 1644609
0.10082805 0.033957634 0.57924694 1907778
0.1018319 0.033943966 0.57901376 2039103
0.10284037 0.033932101 0.57881141 2171200
0.10385676 0.033923063 0.57865721 1908284
0.10487992 0.033916391 0.57854342 1710907
0.10591818 0.033914689 0.5785144 1644861
0.10696391 0.033915386 0.57852626 1710143
0.10802219 0.033920012 0.57860518 1841473
0.10908224 0.033925101 0.57869196 1973060
0.11015454 0.033933863 0.57884145 2170179
0.1112274 0.033942632 0.57899106 2170687
0.11230354 0.033952232 0.57915479 2170684
0.11339036 0.033964854 0.57937008 2170685
0.11448429 0.033979356 0.57961744 2170685
0.11558481 0.033995531 0.57989341 2105148
0.1167127 0.034019399 0.58030051 2170684
0.11784218 0.034043297 0.58070815 2236476
0.11897723 0.034068372 0.58113587 2368316
0.12016304 0.034107413 0.58180183 2565695
0.12135944 0.03414876 0.58250713 2763074
0.12255763 0.034189899 0.58320886 2631745
0.12376534 0.034232967 0.58394355 2697283
0.1250034 0.034283634 0.58480781 2697031
0.12626207 0.034339055 0.5857532 2565191
0.12756096 0.034404408 0.58686799 3223623
0.12891926 0.034484573 0.58823544 3422523
0.13035648 0.03458437 0.58993775 3488064
0.13180692 0.034686033 0.59167188 3421764
0.13330352 0.034798108 0.5935837 2829129
0.13486603 0.034925465 0.59575611 2433869
0.13661766 0.035099398 0.59872305 2565456
0.13947897 0.035553463 0.60646844 3157829
0.074582465 0.037015002 0.61255157 1446967
0.075254656 0.036803372 0.60904938 1381684
0.075997077 0.036631685 0.60620815 2499894
0.076758832 0.036474053 0.60359955 3157561
0.077568986 0.036343511 0.60143924 2565690
0.078414544 0.036232926 0.5996092 1841468
0.079265051 0.036127608 0.5978663 1644096
0.080144994 0.03603835 0.59638923 1644611
0.081020586 0.035949532 0.59491938 1907525
0.081902049 0.035865605 0.59353048 2236230
0.082812764 0.035796486 0.59238666 2367818
0.08372502 0.035729785 0.59128284 2565196
0.084633887 0.035663337 0.5901832 2565195
0.085539371 0.035597127 0.58908755 2499658
0.086464204 0.035540503 0.58815044 2565449
0.087386124 0.035484061 0.58721644 3157325
0.088312529 0.035430774 0.58633459 3618121
0.089250676 0.035383403 0.58555067 4078922
0.090206236 0.035343964 0.58489799 4276297
0.0911614 0.03530528 0.58425784 4342088
0.092120528 0.035269 0.58365744 4210503
0.093086608 0.035236176 0.58311421 3947591
0.094054505 0.035204761 0.58259434 3223876
0.095024168 0.035174694 0.58209676 2763077
0.096003912 0.035148971 0.58167112 2302276
0.096976116 0.03512108 0.58120954 1907524
0.097957425 0.035097044 0.5808118 1907268
0.098945662 0.035075974 0.58046311 1841474
0.099934556 0.035055578 0.58012557 1841729
0.10093307 0.035038941 0.57985026 2499650
0.10193723 0.035024583 0.57961267 3157314
0.10294732 0.035012539 0.57941335 3355201
0.10396507 0.035003316 0.57926071 3026239
0.10498936 0.03499645 0.5791471 2368317
0.10603067 0.034995344 0.57912874 1907773
0.10707939 0.034996677 0.57915086 1841982
0.10813877 0.035001438 0.57922959 2170690
0.10920106 0.035007037 0.57932228 2499652
0.11027456 0.035016093 0.57947212 2630979
0.11134861 0.03502515 0.57962203 2499390
0.11242764 0.035035588 0.57979476 2368060
0.11351541 0.035048537 0.58000904 2367805
0.1146106 0.035063516 0.58025694 2301757
0.11571798 0.035081923 0.58056152 2236220
0.11684727 0.035106581 0.58096957 2236474
0.11797814 0.035131268 0.58137816 2368313
0.11911496 0.035157278 0.58180857 2434361
0.12030575 0.035198625 0.58249283 2500155
0.12150341 0.03524125 0.58319819 2434361
0.12270162 0.035283297 0.58389401 2631477
0.12391518 0.03532901 0.58465052 2960443
0.12515497 0.035381362 0.58551687 3026238
0.12642044 0.035440039 0.58648789 3289155
0.12772126 0.035507571 0.58760548 3223613
0.12911202 0.035598785 0.58911496 3356727
0.13052899 0.035695679 0.59071845 3751484
0.13198927 0.035802756 0.59249043 3355971
0.13348681 0.035918135 0.59439981 2697545
0.13507394 0.036055595 0.59667456 2368078
0.13685612 0.036242533 0.59976816 2499920
0.074628599 0.038143504 0.61293042 1446967
0.075318672 0.037934221 0.60956746 1381428
0.076059438 0.037756126 0.60670561 2368311
0.076820478 0.037593 0.60408431 3157817
0.077637412 0.037461407 0.60196978 2960442
0.078485854 0.037348442 0.60015452 2105147
0.079342693 0.037242487 0.59845191 1709888
0.080223292 0.037150383 0.59697187 1775684
0.081099555 0.037058737 0.59549922 1907526
0.081982456 0.036972482 0.59411317 2170439
0.082895018 0.036901653 0.59297502 2302282
0.08380802 0.036832824 0.591869 2499660
0.084717624 0.036764253 0.59076715 2565195
0.085622363 0.036695298 0.58965909 2499658
0.086546719 0.036636341 0.58871174 2499658
0.087469392 0.036578111 0.58777601 3157579
0.088398501 0.036523934 0.58690542 3749449
0.089338765 0.036475591 0.58612859 4210250
0.090294726 0.036434714 0.58547175 4473674
0.091252893 0.036395662 0.58484423 4605257
0.092213482 0.036358457 0.5842464 4473928
0.093181044 0.036324814 0.58370578 4276552
0.094150193 0.036292534 0.58318704 3881543
0.095120937 0.036261573 0.58268952 3355206
0.096102215 0.036235262 0.58226675 2433602
0.09707582 0.036206655 0.58180708 1907011
0.098058887 0.036182158 0.58141339 1907267
0.099047773 0.036160298 0.58106214 1841986
0.10003763 0.036139246 0.58072388 1973569
0.10103831 0.036122505 0.58045483 2762818
0.10204278 0.036107443 0.58021283 3552321
0.10305449 0.036095228 0.58001655 3947329
0.10407363 0.036085829 0.57986552 3552575
0.10509917 0.036078818 0.57975286 2631229
0.10614339 0.036078293 0.5797444 2170685
0.10719512 0.036080312 0.57977682 2105150
0.10825561 0.036085203 0.57985544 2565699
0.10932014 0.036091339 0.57995403 2828357
0.11039484 0.036100682 0.58010417 2630720
0.1114701 0.036110032 0.58025444 2367547
0.11255201 0.036121342 0.58043617 2236471
0.11364073 0.036134612 0.58064938 2302263
0.11473719 0.036150075 0.58089787 2434103
0.11585145 0.036170818 0.58123118 2631735
0.11698215 0.036196269 0.58164018 2829110
0.11811443 0.036221758 0.58204973 2960695
0.11925299 0.036248706 0.58248281 2960953
0.12044881 0.036292437 0.58318549 3224124
0.12164614 0.036335859 0.58388329 3816256
0.12284592 0.036379263 0.58458072 3815741
0.12406539 0.03642771 0.58535922 3815743
0.12530689 0.036481753 0.58622766 3487035
0.1265792 0.036543787 0.58722442 2959927
0.12788196 0.036613509 0.58834481 3026234
0.12930533 0.036716331 0.58999705 3488054
0.13070194 0.036809936 0.59150124 3619644
0.13217093 0.036922242 0.59330589 3158596
0.1336706 0.037041251 0.59521824 2565963
0.1352825 0.037189215 0.59759587 2368078
0.13709542 0.037389658 0.60081685 2697296
0.074673206 0.039272577 0.61329681 1512758
0.075386383 0.039068855 0.61011541 1315635
0.076121904 0.038882412 0.60720384 2105143
0.076882221 0.038713742 0.60456985 2894393
0.07770595 0.038581278 0.60250121 2960443
0.078556344 0.038465522 0.60069352 2236732
0.079418957 0.038358815 0.59902716 1775679
0.080301747 0.038264591 0.5975557 1841475
0.081178665 0.038170103 0.59608012 1973062
0.082063027 0.038081538 0.59469706 2170439
0.082977422 0.038009014 0.59356451 2302282
0.083891183 0.037938051 0.59245634 2433867
0.084801182 0.037867192 0.59134978 2499659
0.085704893 0.037795328 0.59022748 2499658
0.086629406 0.037734281 0.58927417 2433866
0.087552823 0.037674248 0.58833665 2959946
0.088484645 0.037619218 0.58747733 3683659
0.089426264 0.037569612 0.58670264 4078665
0.090383396 0.03752761 0.5860467 4407881
0.091344729 0.0374883 0.58543283 4671049
0.092306629 0.037450116 0.58483654 4605256
0.093275674 0.037415665 0.58429855 4408136
0.094246075 0.037382521 0.58378094 4078664
0.095217906 0.03735067 0.58328354 3486533
0.096200123 0.037323546 0.58285993 2696772
0.097175702 0.037294459 0.58240575 1907266
0.098160572 0.037269522 0.58201629 1841476
0.099150129 0.037246872 0.5816626 1776195
0.1001413 0.037225299 0.58132571 1776450
0.10114376 0.037208326 0.58106065 2170944
0.10214853 0.037192546 0.58081418 2697022
0.10316189 0.037180174 0.580621 3026238
0.1041824 0.037170604 0.58047158 2697533
0.10521077 0.037164003 0.58036846 2105658
0.10625634 0.037163548 0.58036137 2105149
0.10731111 0.03716629 0.58040416 2368062
0.10837269 0.037171308 0.58048254 2433855
0.10943947 0.037178002 0.58058709 2302267
0.11051538 0.03718764 0.58073759 2105142
0.11159288 0.037197627 0.58089358 2170930
0.11267667 0.037209507 0.58107907 2499891
0.11376634 0.037223089 0.5812912 3092282
0.11486407 0.037239037 0.58154023 3618623
0.11598524 0.037262227 0.58190238 3882048
0.11711734 0.03728848 0.58231235 4013375
0.118251 0.037314761 0.58272278 4210753
0.11939357 0.037343364 0.58316946 4342594
0.12059072 0.037388388 0.58387256 4408386
0.12178921 0.037433047 0.58456999 4211007
0.12299058 0.037477814 0.58526909 3947322
0.12421595 0.037529074 0.58606958 3881784
0.12546466 0.037586462 0.58696574 3289651
0.12673835 0.037650306 0.58796281 3092018
0.12804425 0.03772258 0.58909142 3355702
0.12947682 0.037830673 0.59077948 3553845
0.13087536 0.037927147 0.59228605 3553342
0.13235258 0.038044665 0.59412128 2960712
0.13385491 0.038167465 0.59603894 2499917
0.13548082 0.038323261 0.59847194 2433870
0.13733557 0.03854081 0.60186929 2894672
0.074731231 0.040410221 0.61377335 1710390
0.0754425 0.040199287 0.6105696 1315379
0.076185375 0.040011022 0.60771012 1776183
0.076944061 0.039836284 0.60505611 2433849
0.077774473 0.039703052 0.60303247 2697019
0.078626961 0.039584607 0.60123348 2170941
0.079493038 0.039476134 0.59958595 1710399
0.080380358 0.039380979 0.59814066 1841474
0.081257939 0.039283641 0.59666222 1973061
0.082143754 0.039192773 0.59528208 2170439
0.083059996 0.039118581 0.59415519 2367818
0.083974503 0.039045472 0.59304476 2433867
0.084881254 0.038970638 0.59190816 2499659
0.085788116 0.038897716 0.59080058 2499658
0.086712249 0.038834319 0.58983767 2368330
0.087638281 0.038773298 0.58891088 2433608
0.088571742 0.038716991 0.58805561 3157321
0.089510798 0.038664427 0.58725727 3683911
0.090473302 0.038623106 0.58662963 4144712
0.091437183 0.03858332 0.58602536 4407880
0.092399955 0.038543984 0.58542788 4407880
0.09337049 0.038508736 0.58489251 4210503
0.09434215 0.038474731 0.58437604 3815750
0.095315069 0.03844199 0.58387876 3025985
0.09629821 0.038414042 0.58345425 2565187
0.097275816 0.038384512 0.58300573 2170434
0.098262466 0.038359143 0.58262044 1907267
0.099252984 0.038335811 0.58226603 1841475
0.10024598 0.038313907 0.58193338 1775938
0.10124944 0.03829642 0.58166778 1775935
0.1022547 0.038279966 0.58141786 1841725
0.10326951 0.038267381 0.58122671 1973564
0.1042914 0.038257651 0.58107889 1973564
0.10532286 0.038251586 0.5809868 1973308
0.10636954 0.038251117 0.58097965 2170685
0.10742734 0.038254615 0.58103281 2368063
0.10849003 0.038259767 0.58111107 2499647
0.10955907 0.038267042 0.58122158 2565688
0.11063618 0.038276974 0.58137238 2960696
0.11171657 0.038287841 0.58153743 3421500
0.1128016 0.038300078 0.58172333 3882048
0.11389223 0.038313974 0.58193439 4145216
0.11499122 0.038330406 0.58218396 4211008
0.11611934 0.038356163 0.58257514 4342336
0.11725283 0.038383212 0.582986 4342335
0.11838792 0.038410302 0.58339745 4342337
0.11953533 0.038440879 0.58386189 4408387
0.12073255 0.038486794 0.58455926 4408386
0.12193262 0.03853282 0.58525831 4342079
0.12313557 0.038578957 0.58595908 3881784
0.12436688 0.038633116 0.58678168 3487028
0.12562406 0.03869433 0.58771145 3158063
0.12689793 0.038759619 0.5887031 3552563
0.12823597 0.038843259 0.58997345 3750457
0.1296484 0.038947873 0.59156239 3750458
0.13104926 0.039047331 0.59307301 3684420
0.13253473 0.03917018 0.59493893 2894923
0.13403894 0.039296556 0.59685838 2434125
0.13567871 0.039460339 0.59934604 3026254
