# .PCD v0.7 - Point Cloud Data file format
VERSION 0.7
FIELDS x y z rgb
SIZE 4 4 4 4
TYPE F F F U
COUNT 1 1 1 1
WIDTH 1200
HEIGHT 1
VIEWPOINT 0 0 0 1 0 0 0
POINTS 1200
DATA ascii
-0.27037096 0.26255393 1.7327818 3815994
-0.32788852 0.2951045 1.7313073 3815994
-0.31342542 0.28691432 1.7288985 3815994
-0.3600871 0.31332251 1.7283641 3815994
-0.34935713 0.30725157 1.7293667 3815994
-0.33864295 0.30118936 1.7303023 3815994
-0.57608467 0.4355762 1.7310102 4934475
-0.61136246 0.45553645 1.7278023 3815994
-0.59020704 0.44356668 1.7297393 3815994
-0.64823091 0.47641066 1.731894 3815994
-0.63328481 0.46794719 1.729522 3815994
-0.68154591 0.49524632 1.7213542 3815994
-0.66937041 0.48837146 1.7299695 3815994
-0.65702689 0.48140156 1.7386365 3815994
-0.72045088 0.51728684 1.7327788 3815994
-0.71143931 0.51217401 1.7260816 3815994
-0.69488704 0.50281584 1.7313709 3815994
-0.74849707 0.53315544 1.7302109 3815994
-0.7309736 0.52324069 1.7318405 3815994
-0.78809679 0.55556798 1.7303123 3815994
-0.76948094 0.54502815 1.7282728 3815994
-0.82418656 0.57599467 1.7307814 3815994
-0.80903757 0.56741631 1.7283742 3815994
-0.86511236 0.59916461 1.734551 3815994
-0.84857243 0.58979207 1.7285081 3815994
-0.8346498 0.58191472 1.7297772 3815994
-0.89297265 0.61492795 1.7319778 3815994
-0.87636739 0.60551852 1.7259074 3815994
-0.92768842 0.63457006 1.7287208 3815994
-0.91381598 0.62672108 1.7300358 3815994
-0.9691726 0.65804178 1.7248557 3815994
-0.95342135 0.64913684 1.7301373 3815994
-0.93807459 0.64044654 1.7277868 3815994
-0.98955226 0.66958684 1.7306063 3815994
-0.97917706 0.6637165 1.7315433 3815994
0.23276746 -0.022165809 1.755724 4473924
0.24937427 -0.031575799 1.7498448 4473924
0.26319 -0.039399702 1.7474011 4473924
0.19633146 -0.0015706517 1.7414843 3815994
0.21309523 -0.011041988 1.7503029 4014915
0.16569507 0.015784163 1.7497507 2965572
0.18800178 0.0031628963 1.7517374 2965572
0.12946153 0.036292259 1.7502307 2965572
0.14343891 0.028376836 1.7477686 2965572
0.093150191 0.056844279 1.7506537 2965572
0.11093386 0.046775296 1.7485662 3227200
0.070964776 0.069396906 1.7486696 2965572
-0.1469067 0.19271129 1.7513785 2965572
-0.13248065 0.18454203 1.7489702 3358015
-0.19070184 0.21749073 1.7474115 3358015
-0.17233364 0.20710497 1.7528371 2965572
-0.22327232 0.23594026 1.7557209 2965572
-0.20879428 0.22773449 1.7495302 3227200
-0.2524133 0.25242126 1.7493076 3358015
-0.23429906 0.24215817 1.7434623 3358015
-0.28881255 0.27302313 1.7497655 3227200
-0.2707004 0.26278228 1.7551832 2965572
-0.33222651 0.2975868 1.7457881 3815994
-0.31055406 0.28532448 1.7477835 3227200
-0.3654542 0.31640828 1.7540956 2965572
-0.35070476 0.308056 1.7516798 3358015
-0.33985317 0.30191606 1.7526393 2965572
-0.60895079 0.45421442 1.7507366 3227458
-0.59317261 0.4452728 1.7445339 3815994
-0.64901221 0.4768883 1.7508404 3358272
-0.63034147 0.46631727 1.7487522 3227458
-0.68549192 0.49753571 1.751321 3358272
-0.67035878 0.48896614 1.7488558 3358272
-0.71035099 0.51160097 1.7489933 3488830
-0.69616067 0.50357205 1.7502923 2966086
-0.7538929 0.53624403 1.7487708 3358272
-0.73264217 0.52422041 1.7507552 3358272
-0.78570288 0.55424207 1.7457983 3815994
-0.77385819 0.54755485 1.7546428 2966086
-0.82106996 0.57427436 1.7540925 2966086
-0.80683357 0.56619775 1.7438252 3815994
-0.79983091 0.56225741 1.7560889 2966086
-0.86340344 0.59822649 1.7501131 3815994
-0.84930962 0.59025234 1.7514614 3227458
-0.83267301 0.58082485 1.7452534 3815994
-0.88940191 0.61294365 1.7515652 3358272
-0.87395322 0.60419559 1.7491564 3358272
-0.92947334 0.63562322 1.7517029 3488830
-0.91048467 0.62487221 1.749579 3358272
-0.96800923 0.65742671 1.748076 3358272
-0.95051241 0.64752704 1.7497164 3488830
-0.99404168 0.67216301 1.7494938 3358272
-0.97849268 0.66335815 1.7470512 3815994
-1.0096613 0.68100786 1.7519211 3815994
0.2525585 -0.033356782 1.7611831 5131854
0.20206468 -0.0047731814 1.7641128 2705485
0.1795845 0.0079462165 1.7620981 2115405
0.12894295 0.036613431 1.7650307 2115405
0.15715562 0.020636596 1.760088 2965572
0.10653465 0.049292151 1.763014 2115405
0.084177494 0.061941929 1.7610018 2965572
-0.15730266 0.19861448 1.761735 2965572
-0.13521224 0.18611567 1.7637489 2115405
-0.18642572 0.21510659 1.766687 2115405
-0.20849434 0.22759305 1.7646664 2115405
-0.25616854 0.25457436 1.7641234 2507592
-0.23051253 0.24005097 1.7626505 2965572
-0.28185269 0.2691136 1.7655849 2115405
-0.32952917 0.29609615 1.7650414 2507592
-0.30379853 0.28153056 1.763567 2965572
-0.35528752 0.31067741 1.7665045 2115405
-0.59335291 0.44541082 1.7637594 2966086
-0.64532995 0.47483388 1.7666976 2508363
-0.61931109 0.46010515 1.7652204 2966086
-0.66687381 0.48702335 1.764677 2508363
-0.72361177 0.51914752 1.7711164 2116177
-0.71438915 0.5139147 1.7641202 2966086
-0.69290644 0.50175983 1.7661395 2966086
-0.7511636 0.53472888 1.7645905 2508363
-0.73582274 0.52604175 1.7621055 2966086
-0.78798801 0.55557138 1.7650381 2966086
-0.76657844 0.54345787 1.7670596 2966086
-0.83066064 0.57971537 1.7610092 2966086
-0.81414533 0.57037842 1.766515 2508363
-0.79750752 0.56097227 1.7720417 2116177
-0.86166358 0.59727144 1.7659571 2966086
-0.84032726 0.58519948 1.7679807 2966086
-0.88789618 0.61212111 1.7674356 2508363
-0.87148058 0.60284066 1.7729679 2116177
-0.93541592 0.63901496 1.7668771 2966086
-0.90917152 0.62415862 1.7654133 2966086
-0.9668178 0.65679687 1.7718581 2116177
-0.95108056 0.64788538 1.7693756 2508363
-0.99348456 0.67187732 1.7653267 2966343
-0.97779596 0.66299337 1.7628396 2966086
-1.014452 0.68375546 1.7713106 2508621
0.97069722 -1.1039497 2.5599487 6513507
0.99043447 -1.1035612 2.5598128 6513507
1.0111563 -1.1034993 2.5596693 6513507
1.0295734 -1.1034443 2.5595419 6513507
1.0502908 -1.1033826 2.5593984 6513507
1.0710058 -1.1033207 2.5592551 6513507
1.0894172 -1.1032659 2.5591278 6513507
1.1101278 -1.103204 2.5589843 6513507
1.130836 -1.1031423 2.5588408 6513507
1.1492416 -1.1030873 2.5587134 6513507
1.1699455 -1.1030254 2.5585704 6513507
1.190647 -1.1029637 2.5584269 6513507
1.2090464 -1.1029087 2.5582995 6513507
1.2297436 -1.1028469 2.558156 6513507
1.2504385 -1.1027852 2.558013 6513507
1.268832 -1.1027304 2.5578856 6513507
1.2895224 -1.1026686 2.5577424 6513507
1.3102106 -1.1026069 2.5575991 6513507
1.3285981 -1.1025521 2.557472 6513507
1.349282 -1.1024903 2.5573287 6513507
1.3699635 -1.1024284 2.5571856 6513507
1.3906426 -1.1023669 2.5570426 6513507
1.4097872 -1.1030778 2.5569084 6513507
1.4296944 -1.1045542 2.5567675 6513507
1.4503667 -1.1044924 2.5566242 6513507
1.4687403 -1.1044375 2.5564969 6513507
0.97294444 -1.0906953 2.5599604 6513507
0.99044544 -1.089721 2.5598412 6513507
1.0111674 -1.0896599 2.5596976 6513507
1.0295849 -1.0896056 2.5595703 6513507
1.0503024 -1.0895447 2.5594268 6513507
1.0710176 -1.0894836 2.5592835 6513507
1.0894293 -1.0894294 2.5591559 6513507
1.1101401 -1.0893685 2.5590127 6513507
1.1308486 -1.0893072 2.5588691 6513507
1.1492543 -1.0892532 2.558742 6513507
1.1699584 -1.0891922 2.5585985 6513507
1.1906601 -1.0891311 2.5584552 6513507
1.20906 -1.0890768 2.5583279 6513507
1.2297572 -1.0890158 2.5581844 6513507
1.2504522 -1.0889549 2.5580413 6513507
1.268846 -1.0889006 2.557914 6513507
1.2895367 -1.0888395 2.5577707 6513507
1.310225 -1.0887787 2.5576274 6513507
1.3286129 -1.0887245 2.5575004 6513507
1.3492969 -1.0886637 2.5573571 6513507
1.3699788 -1.0886025 2.5572138 6513507
1.3906581 -1.0885416 2.5570707 6513507
1.4118444 -1.0897593 2.5569212 6513507
1.4297103 -1.0907305 2.5567956 6513507
1.4503828 -1.0906694 2.5566523 6513507
1.4687568 -1.0906152 2.5565252 6513507
0.97572196 -1.0726938 2.5599782 6513507
0.9904601 -1.0712671 2.5598791 6513507
1.0111823 -1.071207 2.5597358 6513507
1.0296001 -1.0711536 2.559608 6513507
1.0503181 -1.0710937 2.5594649 6513507
1.0710337 -1.0710336 2.5593214 6513507
1.0894455 -1.0709804 2.5591938 6513507
1.1101567 -1.0709203 2.5590503 6513507
1.1308653 -1.0708604 2.558907 6513507
1.1492712 -1.070807 2.5587797 6513507
1.1699756 -1.0707469 2.5586364 6513507
1.1906779 -1.0706869 2.5584929 6513507
1.2090776 -1.0706336 2.5583656 6513507
1.2297753 -1.0705736 2.5582223 6513507
1.2504709 -1.0705137 2.5580792 6513507
1.2688649 -1.0704604 2.5579519 6513507
1.2895558 -1.0704007 2.5578086 6513507
1.3102446 -1.0703408 2.5576656 6513507
1.3286325 -1.0702873 2.557538 6513507
1.3493167 -1.0702274 2.557395 6513507
1.3699989 -1.0701674 2.5572515 6513507
1.3906785 -1.0701077 2.5571084 6513507
1.411356 -1.0700477 2.5569654 6513507
1.429734 -1.0699947 2.5568383 6513507
1.450407 -1.0699346 2.5566952 6513507
1.4687811 -1.0698813 2.5565679 6513507
0.97665316 -1.0597726 2.5599983 6513507
0.99086004 -1.0508891 2.5599182 6513507
1.0111994 -1.0504467 2.559778 6513507
1.0296173 -1.0503944 2.5596509 6513507
1.0503355 -1.0503356 2.5595074 6513507
1.0710514 -1.0502768 2.5593638 6513507
1.0894635 -1.0502244 2.559236 6513507
1.110175 -1.0501655 2.5590932 6513507
1.1308842 -1.0501068 2.5589495 6513507
1.1492903 -1.0500544 2.5588222 6513507
1.1699951 -1.0499958 2.5586789 6513507
1.1906977 -1.0499369 2.5585358 6513507
1.209098 -1.0498846 2.5584083 6513507
1.2297958 -1.0498259 2.5582647 6513507
1.2504916 -1.0497669 2.5581217 6513507
1.2688859 -1.0497148 2.5579944 6513507
1.2895771 -1.0496559 2.5578511 6513507
1.3102663 -1.0495973 2.5577078 6513507
1.3286545 -1.049545 2.5575805 6513507
1.3493395 -1.0494863 2.5574372 6513507
1.3700218 -1.0494274 2.5572941 6513507
1.3907017 -1.0493686 2.5571511 6513507
1.4113796 -1.04931 2.5570078 6513507
1.4297578 -1.0492578 2.5568805 6513507
1.4499913 -1.0509555 2.5567372 6513507
1.4688028 -1.0514506 2.5566058 6513507
0.99378222 -1.0303935 2.5599401 6513507
1.011216 -1.0296859 2.5598209 6513507
1.0296345 -1.0296346 2.5596936 6513507
1.0503531 -1.0295768 2.5595498 6513507
1.0710692 -1.0295192 2.5594065 6513507
1.0894816 -1.0294678 2.559279 6513507
1.1101935 -1.0294102 2.5591354 6513507
1.130903 -1.0293525 2.5589921 6513507
1.1493095 -1.0293013 2.5588651 6513507
1.1700146 -1.0292437 2.5587215 6513507
1.1907173 -1.0291859 2.5585783 6513507
1.209118 -1.0291349 2.5584509 6513507
1.2298163 -1.0290769 2.5583074 6513507
1.2505125 -1.0290196 2.5581644 6513507
1.268907 -1.0289682 2.558037 6513507
1.2895987 -1.0289106 2.5578935 6513507
1.3102881 -1.0288531 2.5577502 6513507
1.3286767 -1.0288018 2.5576229 6513507
1.3493617 -1.0287443 2.5574799 6513507
1.3700444 -1.0286865 2.5573366 6513507
1.3907249 -1.0286291 2.5571935 6513507
1.4114029 -1.0285715 2.5570505 6513507
1.4297816 -1.0285203 2.5569232 6513507
1.4508357 -1.0303817 2.5567734 6513507
1.4688271 -1.0307155 2.5566483 6513507
0.99603355 -1.0121955 2.559962 6513507
1.0112311 -1.0112311 2.5598586 6513507
1.0296497 -1.0111808 2.5597312 6513507
1.0503685 -1.011124 2.559588 6513507
1.071085 -1.0110674 2.5594442 6513507
1.0894978 -1.0110171 2.5593169 6513507
1.1102101 -1.0109605 2.5591733 6513507
1.1309198 -1.0109038 2.5590301 6513507
1.1493266 -1.0108535 2.5589025 6513507
1.1700318 -1.0107968 2.5587592 6513507
1.1907349 -1.0107402 2.5586162 6513507
1.2091358 -1.0106899 2.5584884 6513507
1.2298344 -1.0106333 2.5583453 6513507
1.250531 -1.0105767 2.5582018 6513507
1.2689258 -1.0105264 2.5580745 6513507
1.2896178 -1.0104698 2.5579314 6513507
1.3103075 -1.0104133 2.5577881 6513507
1.3286965 -1.0103629 2.5576608 6513507
1.3493817 -1.0103064 2.5575175 6513507
1.3700647 -1.0102497 2.5573745 6513507
1.3907452 -1.0101932 2.5572314 6513507
1.4114237 -1.0101366 2.5570881 6513507
1.4298025 -1.0100863 2.5569608 6513507
1.4504765 -1.0100298 2.556818 6513507
1.4688514 -1.0099796 2.5566905 6513507
0.99881113 -0.99419343 2.5599799 6513507
1.0112479 -0.99046868 2.5599012 6513507
1.0296669 -0.99041951 2.5597737 6513507
1.0503861 -0.99036407 2.5596304 6513507
1.0711029 -0.99030846 2.5594871 6513507
1.0895159 -0.99025929 2.5593596 6513507
1.1102281 -0.99020356 2.5592163 6513507
1.1309384 -0.99014837 2.559073 6513507
1.1493454 -0.99009895 2.5589452 6513507
1.1700512 -0.99004358 2.5588019 6513507
1.1907548 -0.98998803 2.5586588 6513507
1.2091558 -0.98993874 2.5585313 6513507
1.2298549 -0.98988324 2.558388 6513507
1.2505518 -0.98982781 2.5582445 6513507
1.2689469 -0.98977852 2.5581174 6513507
1.2896391 -0.98972303 2.5579739 6513507
1.3103293 -0.98966771 2.5578308 6513507
1.3287184 -0.98961848 2.5577035 6513507
1.3494041 -0.98956305 2.5575602 6513507
1.3700875 -0.98950768 2.5574172 6513507
1.3907685 -0.98945212 2.5572736 6513507
1.4114473 -0.98939687 2.5571311 6513507
1.4298264 -0.98934758 2.5570035 6513507
1.4505008 -0.98929232 2.5568602 6513507
1.468876 -0.98924309 2.5567329 6513507
1.0117248 -0.97016615 2.5599396 6513507
1.0296841 -0.9696576 2.5598166 6513507
1.0504035 -0.96960336 2.5596728 6513507
1.0711206 -0.96954894 2.5595295 6513507
1.089534 -0.96950072 2.5594022 6513507
1.1102467 -0.9694463 2.5592589 6513507
1.1309572 -0.96939206 2.5591154 6513507
1.1493647 -0.96934378 2.5589879 6513507
1.1700709 -0.96928942 2.5588443 6513507
1.1907744 -0.96923518 2.5587013 6513507
1.2091759 -0.96918696 2.5585737 6513507
1.2298753 -0.96913272 2.5584304 6513507
1.2505726 -0.96907842 2.5582871 6513507
1.2689679 -0.96903014 2.5581598 6513507
1.2896607 -0.96897584 2.5580165 6513507
1.310351 -0.9689216 2.5578732 6513507
1.3287406 -0.96887332 2.5577459 6513507
1.3494265 -0.96881914 2.5576026 6513507
1.3701104 -0.96876484 2.5574594 6513507
1.3907915 -0.9687106 2.5573163 6513507
1.4114707 -0.96865642 2.5571733 6513507
1.4298502 -0.96860826 2.5570459 6513507
1.4505249 -0.96855414 2.5569026 6513507
1.4689003 -0.9685058 2.5567756 6513507
1.0145026 -0.95216399 2.5599575 6513507
1.0296992 -0.95120203 2.5598543 6513507
1.0504191 -0.95114869 2.559711 6513507
1.0711367 -0.9510954 2.5595675 6513507
1.0895503 -0.95104808 2.5594397 6513507
1.1102632 -0.95099479 2.5592964 6513507
1.1309741 -0.9509415 2.5591531 6513507
1.1493818 -0.95089418 2.5590258 6513507
1.1700881 -0.95084083 2.5588822 6513507
1.1907922 -0.95078766 2.5587392 6513507
1.2091938 -0.95074028 2.5586114 6513507
1.2298934 -0.95068693 2.5584681 6513507
1.250591 -0.95063388 2.5583251 6513507
1.2689866 -0.95058644 2.5581977 6513507
1.2896798 -0.95053321 2.5580544 6513507
1.3103704 -0.95047998 2.5579109 6513507
1.3287601 -0.95043266 2.5577838 6513507
1.3494465 -0.95037955 2.5576406 6513507
1.3701305 -0.95032626 2.5574973 6513507
1.3891897 -0.95068395 2.5573645 6513507
1.409678 -0.94986063 2.5572243 6513507
1.4298714 -0.95017254 2.5570838 6513507
1.4505463 -0.95011938 2.5569406 6513507
1.4689223 -0.95007205 2.5568135 6513507
1.0168869 -0.93244869 2.5599818 6513507
1.0297164 -0.93043888 2.5598969 6513507
1.0504364 -0.93038672 2.5597534 6513507
1.0711545 -0.93033457 2.5596099 6513507
1.0895683 -0.93028814 2.5594826 6513507
1.1102817 -0.93023598 2.559339 6513507
1.1309929 -0.93018407 2.5591958 6513507
1.1494009 -0.93013763 2.5590682 6513507
1.1701074 -0.9300856 2.5589249 6513507
1.1908121 -0.93003333 2.5587819 6513507
1.2092141 -0.92998707 2.5586543 6513507
1.2299141 -0.9299351 2.5585108 6513507
1.2506118 -0.92988288 2.5583673 6513507
1.2690077 -0.92983657 2.5582402 6513507
1.2897012 -0.9297846 2.5580969 6513507
1.3103923 -0.9297325 2.5579536 6513507
1.3287823 -0.92968625 2.5578263 6513507
1.3494689 -0.92963415 2.557683 6513507
1.3701534 -0.92958224 2.5575399 6513507
1.3885373 -0.92953598 2.5574126 6513507
1.4092174 -0.92948377 2.5572691 6513507
1.4298952 -0.9294318 2.5571263 6513507
1.4505703 -0.9293797 2.5569832 6513507
1.4689465 -0.92933357 2.5568557 6513507
1.0301936 -0.91013521 2.5599356 6513507
1.0504539 -0.90962392 2.5597961 6513507
1.0711721 -0.90957296 2.5596526 6513507
1.0895865 -0.90952772 2.5595253 6513507
1.1103001 -0.90947664 2.5593817 6513507
1.1310116 -0.9094258 2.5592384 6513507
1.1494199 -0.9093805 2.5591106 6513507
1.170127 -0.90932959 2.5589676 6513507
1.1908318 -0.90927863 2.5588238 6513507
1.2092341 -0.90923321 2.5586967 6513507
1.2299345 -0.90918237 2.5585532 6513507
1.2506326 -0.90913153 2.5584102 6513507
1.2690289 -0.90908623 2.5582829 6513507
1.2897227 -0.90903533 2.5581393 6513507
1.310414 -0.90898424 2.5579963 6513507
1.3288045 -0.90893912 2.5578687 6513507
1.3494914 -0.90888834 2.5577257 6513507
1.3701761 -0.90883732 2.5575826 6513507
1.3885605 -0.90879208 2.5574553 6513507
1.4092408 -0.9087413 2.557312 6513507
1.4299189 -0.90869045 2.557169 6513507
1.4505944 -0.90863955 2.5570257 6513507
1.4689709 -0.90859431 2.5568984 6513507
1.0324693 -0.89184022 2.5599573 6513507
1.0504696 -0.89116764 2.5598338 6513507
1.071188 -0.89111763 2.5596905 6513507
1.0896026 -0.89107335 2.5595629 6513507
1.1103166 -0.89102334 2.5594196 6513507
1.1310285 -0.89097345 2.5592759 6513507
1.149437 -0.89092916 2.5591488 6513507
1.1701443 -0.89087903 2.559005 6513507
1.1908495 -0.89082921 2.558862 6513507
1.209252 -0.89078498 2.5587344 6513507
1.2299528 -0.89073497 2.5585914 6513507
1.2506511 -0.89068508 2.5584478 6513507
1.2690477 -0.8906408 2.5583205 6513507
1.2897418 -0.89059085 2.5581775 6513507
1.3104334 -0.89054102 2.5580342 6513507
1.328824 -0.89049673 2.5579066 6513507
1.3495113 -0.89044696 2.5577633 6513507
1.3701963 -0.89039695 2.5576203 6513507
1.3885812 -0.89035267 2.557493 6513507
1.4092616 -0.89030284 2.5573497 6513507
1.4299399 -0.89025307 2.5572066 6513507
1.4506159 -0.89020312 2.5570636 6513507
1.4689927 -0.89015889 2.556936 6513507
1.0353559 -0.87241685 2.5599768 6513507
1.0504872 -0.87040359 2.5598764 6513507
1.0712059 -0.87035477 2.5597332 6513507
1.0896208 -0.87031144 2.5596054 6513507
1.1103352 -0.87026274 2.5594621 6513507
1.1310474 -0.87021387 2.5593188 6513507
1.1494561 -0.87017059 2.5591915 6513507
1.1701638 -0.87012184 2.5590477 6513507
1.1908692 -0.87007302 2.5589046 6513507
1.2092721 -0.87002975 2.5587773 6513507
1.2299731 -0.86998105 2.5586338 6513507
1.2506719 -0.86993235 2.5584903 6513507
1.2690688 -0.86988896 2.5583632 6513507
1.289763 -0.86984032 2.5582199 6513507
1.3104551 -0.86979151 2.5580764 6513507
1.3288462 -0.86974823 2.5579495 6513507
1.349534 -0.86969966 2.557806 6513507
1.370219 -0.86965084 2.557663 6513507
1.3886042 -0.86960757 2.5575356 6513507
1.4092851 -0.86955905 2.5573924 6513507
1.4299638 -0.86951017 2.5572491 6513507
1.4506401 -0.86946154 2.5571058 6513507
1.469017 -0.86941826 2.5569789 6513507
1.0505046 -0.84963882 2.5599189 6513507
1.0712237 -0.84959131 2.5597761 6513507
1.0896388 -0.84954888 2.559648 6513507
1.1103536 -0.84950143 2.559505 6513507
1.131066 -0.84945375 2.5593615 6513507
1.1494752 -0.84941143 2.5592337 6513507
1.1701833 -0.8493638 2.5590906 6513507
1.190889 -0.84931636 2.5589471 6513507
1.2092922 -0.84927404 2.5588195 6513507
1.2299937 -0.84922636 2.5586765 6513507
1.2506927 -0.84917879 2.558533 6513507
1.2690899 -0.84913659 2.5584056 6513507
1.2897847 -0.84908903 2.5582623 6513507
1.3104769 -0.8490414 2.5581193 6513507
1.3288684 -0.84899914 2.5579917 6513507
1.3495562 -0.84895164 2.5578485 6513507
1.370242 -0.84890407 2.5577052 6513507
1.3886273 -0.84886193 2.5575781 6513507
1.4093084 -0.84881431 2.5574346 6513507
1.4299877 -0.84876686 2.5572915 6513507
1.4506642 -0.84871924 2.5571485 6513507
1.4690417 -0.8486771 2.5570214 6513507
1.0532824 -0.83163601 2.559937 6513507
1.0712395 -0.8311342 2.5598137 6513507
1.0896549 -0.83109283 2.5596859 6513507
1.1103699 -0.8310461 2.5595424 6513507
1.1310828 -0.83099961 2.5593991 6513507
1.149492 -0.83095831 2.5592718 6513507
1.1702007 -0.83091182 2.5591283 6513507
1.1909066 -0.83086503 2.5589852 6513507
1.2093101 -0.83082378 2.5588577 6513507
1.2300117 -0.83077729 2.5587144 6513507
1.2507112 -0.83073068 2.5585709 6513507
1.2691088 -0.83068931 2.5584435 6513507
1.2898034 -0.83064288 2.5583 6513507
1.3104963 -0.83059633 2.5581572 6513507
1.3288878 -0.83055496 2.5580294 6513507
1.3495762 -0.83050841 2.5578864 6513507
1.3702621 -0.83046198 2.5577433 6513507
1.3886478 -0.83042061 2.5576158 6513507
1.4093294 -0.83037406 2.5574727 6513507
1.4300086 -0.83032769 2.5573294 6513507
1.4506856 -0.83028108 2.5571861 6513507
1.4690633 -0.83023977 2.557059 6513507
1.0558497 -0.81146806 2.5599606 6513507
1.0712574 -0.81036919 2.5598559 6513507
1.089673 -0.81032896 2.5597289 6513507
1.1103884 -0.81028366 2.5595853 6513507
1.1311017 -0.81023806 2.5594418 6513507
1.1495113 -0.81019783 2.5593143 6513507
1.1702201 -0.81015235 2.5591707 6513507
1.1909264 -0.81010705 2.5590274 6513507
1.2093303 -0.81006658 2.5589001 6513507
1.2300323 -0.81002122 2.5587568 6513507
1.2507322 -0.80997598 2.5586133 6513507
1.2691298 -0.80993557 2.5584862 6513507
1.2898251 -0.80989021 2.5583429 6513507
1.310518 -0.80984479 2.5581994 6513507
1.3289101 -0.80980456 2.5580723 6513507
1.3495985 -0.80975914 2.5579288 6513507
1.3702853 -0.80971384 2.5577857 6513507
1.3886709 -0.80967361 2.5576582 6513507
1.4093529 -0.80962825 2.5575151 6513507
1.4300325 -0.80958283 2.5573723 6513507
1.4507097 -0.80953759 2.5572288 6513507
1.4690877 -0.8094973 2.5571017 6513507
1.0588423 -0.79101479 2.5599818 6513507
1.0712752 -0.78960371 2.5598989 6513507
1.0896912 -0.78956443 2.5597711 6513507
1.1104069 -0.78952014 2.5596275 6513507
1.1311204 -0.78947592 2.5594845 6513507
1.1495304 -0.78943664 2.5593567 6513507
1.1702397 -0.78939241 2.5592134 6513507
1.1909463 -0.78934813 2.5590701 6513507
1.2093503 -0.78930891 2.5589426 6513507
1.2300527 -0.78926462 2.5587993 6513507
1.2507528 -0.78922039 2.5586562 6513507
1.2691509 -0.78918111 2.5585287 6513507
1.2898467 -0.78913701 2.5583854 6513507
1.31054 -0.78909272 2.5582421 6513507
1.3289322 -0.78905338 2.5581148 6513507
1.3496211 -0.78900927 2.5579715 6513507
1.3703077 -0.78896511 2.5578282 6513507
1.3886939 -0.78892583 2.5577009 6513507
1.4093761 -0.78888166 2.5575576 6513507
1.4300563 -0.78883755 2.5574143 6513507
1.4507339 -0.78879333 2.5572712 6513507
1.469112 -0.78875399 2.5571444 6513507
1.071291 -0.77114493 2.5599365 6513507
1.0897073 -0.77110648 2.5598092 6513507
1.1104233 -0.77106339 2.5596654 6513507
1.1311371 -0.77102005 2.5595224 6513507
1.1495475 -0.77098179 2.5593946 6513507
1.1702569 -0.77093852 2.5592513 6513507
1.190964 -0.77089536 2.559108 6513507
1.2093683 -0.77085686 2.5589805 6513507
1.2300708 -0.77081358 2.5588374 6513507
1.2507713 -0.77077055 2.5586939 6513507
1.2691697 -0.77073222 2.5585663 6513507
1.2898656 -0.77068901 2.558423 6513507
1.3105594 -0.77064598 2.5582798 6513507
1.3289518 -0.77060741 2.5581527 6513507
1.3496411 -0.77056438 2.5580094 6513507
1.3703281 -0.77052104 2.5578659 6513507
1.3887146 -0.77048272 2.5577385 6513507
1.409397 -0.77043968 2.5575955 6513507
1.4300773 -0.77039653 2.5574522 6513507
1.4507552 -0.77035338 2.5573092 6513507
1.469134 -0.77031499 2.5571818 6513507
1.0743186 -0.75143695 2.5599558 6513507
1.0897255 -0.75034064 2.5598519 6513507
1.1104418 -0.75029856 2.5597084 6513507
1.1311561 -0.7502566 2.5595646 6513507
1.1495665 -0.75021923 2.5594373 6513507
1.1702763 -0.75017715 2.5592942 6513507
1.1909838 -0.75013518 2.5591502 6513507
1.2093884 -0.75009775 2.5590234 6513507
1.2300912 -0.75005567 2.5588799 6513507
1.2507923 -0.75001371 2.5587363 6513507
1.2691909 -0.7499764 2.5586088 6513507
1.289887 -0.74993443 2.5584657 6513507
1.310581 -0.74989235 2.5583224 6513507
1.328974 -0.74985504 2.5581951 6513507
1.3496634 -0.74981308 2.5580518 6513507
1.3703508 -0.749771 2.5579088 6513507
1.3887377 -0.74973369 2.5577815 6513507
1.4094205 -0.74969184 2.5576379 6513507
1.4301012 -0.74964976 2.5574946 6513507
1.4507793 -0.7496078 2.5573516 6513507
1.4691582 -0.74957049 2.5572245 6513507
1.0773113 -0.73098314 2.5599775 6513507
1.0897436 -0.72957414 2.5598941 6513507
1.1104604 -0.7295332 2.5597508 6513507
1.1311748 -0.72949237 2.5596075 6513507
1.1495857 -0.72945601 2.55948 6513507
1.1702958 -0.72941524 2.5593364 6513507
1.1910037 -0.72937429 2.5591931 6513507
1.2094084 -0.72933799 2.5590656 6513507
1.2301118 -0.7292971 2.5589223 6513507
1.2508129 -0.72925621 2.5587792 6513507
1.2692119 -0.72921997 2.5586517 6513507
1.2899086 -0.72917908 2.5585084 6513507
1.3106029 -0.72913831 2.5583649 6513507
1.3289959 -0.72910202 2.5582376 6513507
1.3496859 -0.72906119 2.5580943 6513507
1.3703736 -0.72902024 2.5579512 6513507
1.3887606 -0.728984 2.5578237 6513507
1.409444 -0.72894317 2.5576806 6513507
1.4301249 -0.7289024 2.5575376 6513507
1.4503196 -0.72922647 2.5573969 6513507
1.4684765 -0.72829473 2.5572729 6513507
1.0782433 -0.71805924 2.5599976 6513507
1.0897596 -0.71111447 2.5599322 6513507
1.1104767 -0.71107459 2.5597889 6513507
1.1311916 -0.71103472 2.5596452 6513507
1.1496027 -0.71099925 2.5595176 6513507
1.1703131 -0.71095955 2.5593743 6513507
1.1910212 -0.71091962 2.559231 6513507
1.2094263 -0.71088427 2.5591035 6513507
1.23013 -0.7108444 2.5589602 6513507
1.2508314 -0.71080452 2.5588167 6513507
1.2692307 -0.71076924 2.5586894 6513507
1.2899276 -0.71072942 2.5585458 6513507
1.3106225 -0.71068954 2.5584028 6513507
1.3290156 -0.71065414 2.5582755 6513507
1.3497057 -0.71061438 2.5581319 6513507
1.3703939 -0.71057457 2.5579891 6513507
1.3887811 -0.71053922 2.5578616 6513507
1.4094648 -0.71049941 2.5577178 6513507
1.430146 -0.71045965 2.5575752 6513507
1.4485275 -0.7104243 2.5574479 6513507
1.4669069 -0.71038896 2.5573206 6513507
1.0927874 -0.69140601 2.5599518 6513507
1.1104953 -0.6903078 2.5598314 6513507
1.1312103 -0.69026917 2.5596879 6513507
1.149622 -0.6902349 2.5595603 6513507
1.1703326 -0.69019622 2.559417 6513507
1.1910411 -0.69015747 2.5592735 6513507
1.2094465 -0.69012314 2.5591462 6513507
1.2301506 -0.6900844 2.5590029 6513507
1.2508523 -0.69004577 2.5588593 6513507
1.2692518 -0.6900115 2.558732 6513507
1.2899491 -0.68997276 2.5585887 6513507
1.3106439 -0.68993419 2.5584455 6513507
1.3290378 -0.6898998 2.5583179 6513507
1.3497282 -0.68986124 2.5581746 6513507
1.3704166 -0.68982255 2.5580318 6513507
1.3888043 -0.68978816 2.5579042 6513507
1.4094883 -0.6897496 2.5577607 6513507
1.4301698 -0.68971097 2.5576179 6513507
1.4485515 -0.68967664 2.5574903 6513507
1.4669313 -0.68964237 2.557363 6513507
1.0951662 -0.67110682 2.5599771 6513507
1.1105138 -0.66954058 2.5598738 6513507
1.1312293 -0.66950297 2.5597308 6513507
1.1496409 -0.66946977 2.559603 6513507
1.1703521 -0.66943216 2.5594597 6513507
1.1910608 -0.66939461 2.5593162 6513507
1.2094667 -0.66936135 2.5591886 6513507
1.230171 -0.66932386 2.5590453 6513507
1.250873 -0.66928637 2.5589023 6513507
1.2692729 -0.66925299 2.5587745 6513507
1.2899704 -0.66921556 2.5586312 6513507
1.310666 -0.66917801 2.5584879 6513507
1.3290598 -0.66914469 2.5583606 6513507
1.3497508 -0.66910726 2.5582173 6513507
1.3704395 -0.66906983 2.558074 6513507
1.3888274 -0.66903651 2.5579467 6513507
1.4095116 -0.66899908 2.5578034 6513507
1.4301935 -0.66896152 2.5576599 6513507
1.4485755 -0.66892827 2.5575328 6513507
1.4669557 -0.66889489 2.5574055 6513507
1.0967124 -0.65802747 2.5599933 6513507
1.1105301 -0.65108007 2.5599122 6513507
1.131246 -0.65104365 2.5597687 6513507
1.1496581 -0.65101117 2.5596409 6513507
1.1703694 -0.65097469 2.5594974 6513507
1.1910784 -0.65093827 2.5593538 6513507
1.2094846 -0.65090579 2.5592265 6513507
1.2301892 -0.65086937 2.5590835 6513507
1.2508916 -0.65083295 2.5589397 6513507
1.2692916 -0.65080041 2.5588121 6513507
1.2899895 -0.65076405 2.5586689 6513507
1.3106854 -0.65072751 2.5585256 6513507
1.3290795 -0.6506952 2.5583982 6513507
1.3497707 -0.65065873 2.5582552 6513507
1.3704598 -0.65062231 2.5581117 6513507
1.3888478 -0.65058988 2.5579844 6513507
1.4095325 -0.65055341 2.5578411 6513507
1.4302148 -0.65051699 2.557698 6513507
1.4485971 -0.65048468 2.5575709 6513507
1.4669776 -0.65045232 2.5574434 6513507
1.1126196 -0.63123095 2.559938 6513507
1.1312649 -0.63027608 2.5598109 6513507
1.149677 -0.63024473 2.5596831 6513507
1.1703889 -0.63020945 2.55954 6513507
1.1910983 -0.6301741 2.5593965 6513507
1.2095046 -0.63014269 2.5592694 6513507
1.2302095 -0.6301074 2.5591259 6513507
1.2509124 -0.63007218 2.5589826 6513507
1.2693129 -0.63004076 2.5588548 6513507
1.2900112 -0.63000536 2.5587118 6513507
1.3107072 -0.62997013 2.5585682 6513507
1.3291017 -0.62993872 2.5584409 6513507
1.3497932 -0.62990355 2.5582979 6513507
1.3704824 -0.62986815 2.5581543 6513507
1.388871 -0.62983692 2.558027 6513507
1.4095558 -0.62980163 2.557884 6513507
1.4302385 -0.62976635 2.5577407 6513507
1.4486212 -0.62973505 2.5576134 6513507
1.4670019 -0.62970358 2.5574861 6513507
1.116091 -0.61045611 2.5599568 6513507
1.1312836 -0.60950798 2.5598536 6513507
1.1496962 -0.60947758 2.5597262 6513507
1.1704081 -0.60944337 2.5595822 6513507
1.191118 -0.60940927 2.5594392 6513507
1.2095246 -0.60937887 2.5593119 6513507
1.2302301 -0.60934466 2.5591683 6513507
1.2509332 -0.60931069 2.559025 6513507
1.2693338 -0.60928029 2.5588975 6513507
1.2900325 -0.60924613 2.5587544 6513507
1.3107289 -0.60921204 2.5586109 6513507
1.3291237 -0.6091817 2.5584836 6513507
1.3498156 -0.60914761 2.5583401 6513507
1.3705053 -0.6091134 2.558197 6513507
1.3888941 -0.60908318 2.5580695 6513507
1.4095795 -0.60904902 2.5579267 6513507
1.4302624 -0.60901493 2.5577829 6513507
1.4486452 -0.60898465 2.5576558 6513507
1.4670264 -0.60895425 2.5575285 6513507
1.1182554 -0.59260607 2.5599785 6513507
1.1313003 -0.59104675 2.5598915 6513507
1.1497133 -0.59101731 2.5597639 6513507
1.1704258 -0.59098423 2.5596204 6513507
1.1911358 -0.59095103 2.5594773 6513507
1.2095429 -0.59092164 2.5593495 6513507
1.2302482 -0.5908885 2.559206 6513507
1.2509516 -0.59085542 2.5590625 6513507
1.2693528 -0.59082597 2.5589354 6513507
1.2900516 -0.59079283 2.5587921 6513507
1.3107483 -0.59075981 2.5586486 6513507
1.3291433 -0.59073043 2.5585213 6513507
1.3498356 -0.59069729 2.5583782 6513507
1.3705257 -0.59066415 2.5582349 6513507
1.3889147 -0.59063482 2.5581076 6513507
1.4096003 -0.5906018 2.5579641 6513507
1.4302834 -0.5905686 2.5578208 6513507
1.4486667 -0.59053928 2.5576935 6513507
1.467048 -0.59050983 2.5575662 6513507
1.1198018 -0.57952625 2.5599947 6513507
1.131682 -0.57076246 2.5599306 6513507
1.1497324 -0.5702489 2.5598061 6513507
1.170445 -0.57021689 2.5596628 6513507
1.1911557 -0.57018489 2.5595195 6513507
1.2095628 -0.57015651 2.5593917 6513507
1.2302687 -0.57012469 2.5592484 6513507
1.2509725 -0.57009268 2.5591054 6513507
1.2693739 -0.57006419 2.5589781 6513507
1.290073 -0.5700323 2.5588346 6513507
1.31077 -0.57000035 2.5586915 6513507
1.3291655 -0.56997198 2.5585639 6513507
1.3498579 -0.56994003 2.5584202 6513507
1.3705485 -0.56990814 2.5582771 6513507
1.3889377 -0.56987983 2.5581498 6513507
1.4096236 -0.56984782 2.5580065 6513507
1.4299439 -0.57030189 2.5578649 6447714
1.4475369 -0.57401663 2.5577357 6381921
1.4655317 -0.57744718 2.5576036 6118749
1.1340578 -0.55013245 2.5599566 6513507
1.1497515 -0.54947966 2.5598493 6513507
1.1704645 -0.54944891 2.5597057 6513507
1.1911752 -0.54941809 2.5595622 6513507
1.2095829 -0.54939073 2.5594347 6513507
1.2302892 -0.54935992 2.5592911 6513507
1.2509933 -0.54932916 2.5591478 6513507
1.2693949 -0.5493018 2.5590205 6513507
1.2900946 -0.54927105 2.5588772 6513507
1.310792 -0.54924029 2.5587339 6513507
1.3291875 -0.54921293 2.5586066 6513507
1.3498805 -0.54918224 2.5584631 6513507
1.3705711 -0.54915142 2.5583198 6513507
1.3885006 -0.549586 2.5581946 6513507
1.4075537 -0.55266041 2.5580564 6316128
1.4234289 -0.55599087 2.5579395 5855577
1.1367244 -0.53257495 2.5599742 6513507
1.1497686 -0.53101766 2.5598869 6513507
1.1704819 -0.53098786 2.5597434 6513507
1.191193 -0.53095812 2.5596004 6513507
1.2096008 -0.53093159 2.5594728 6513507
1.2303075 -0.53090191 2.5593293 6513507
1.2510118 -0.53087211 2.5591857 6513507
1.2694136 -0.53084576 2.5590584 6513507
1.2901137 -0.53081602 2.5589149 6513507
1.3108114 -0.53078628 2.5587714 6513507
1.3292072 -0.53075975 2.5586441 6513507
1.349416 -0.53109503 2.5585034 6447714
1.3688629 -0.53473908 2.5583613 6316128
1.3820777 -0.53760284 2.5582638 5789784
1.1382707 -0.51949477 2.5599904 6513507
1.1497877 -0.51024711 2.5599294 6513507
1.1705014 -0.5102185 2.5597863 6513507
1.1912129 -0.51019001 2.5596428 6513507
1.2096208 -0.51016462 2.5595152 6513507
1.2303278 -0.51013595 2.5593719 6513507
1.2510326 -0.5101074 2.5592284 6513507
1.2694347 -0.51008201 2.5591009 6513507
1.2901351 -0.51005346 2.5589576 6513507
1.3099686 -0.51204449 2.5588162 6381921
1.327498 -0.51634544 2.5586858 6381921
1.3430154 -0.519207 2.5585723 6184542
1.1525265 -0.49010184 2.559952 6513507
1.170521 -0.48944861 2.5598285 6513507
1.1912324 -0.48942119 2.5596852 6513507
1.2096411 -0.48939678 2.5595579 6513507
1.2303483 -0.48936939 2.5594144 6513507
1.2510536 -0.48934188 2.5592709 6513507
1.2683039 -0.49124181 2.5591476 6447714
1.2863177 -0.49467841 2.5590158 6250335
1.1547552 -0.47199503 2.559974 6513507
1.1705382 -0.47098574 2.5598667 6513507
1.1912502 -0.47095937 2.5597231 6513507
1.2096589 -0.47093594 2.5595956 6513507
1.2289271 -0.47235358 2.5594594 6381921
1.2476155 -0.47665602 2.5593209 6118749
1.1567419 -0.45715544 2.5599906 6513507
1.1701738 -0.45059955 2.559911 6447714
1.1901153 -0.45442167 2.5597651 6381921
1.2082905 -0.45847625 2.5596309 6052956
1.1659676 -0.43637204 2.5599694 5855577
-0.32323986 -1.1115723 2.5783973 2250593
-0.31142789 -1.1059434 2.5723841 3431009
-0.2895878 -1.1050665 2.5686786 5988707
-0.26872233 -1.1050044 2.5685339 6513507
-0.25017726 -1.1049491 2.5684056 6513507
-0.22931629 -1.104887 2.5682611 6513507
-0.20845763 -1.104825 2.5681167 6513507
-0.18991856 -1.1047697 2.5679884 6513507
-0.17138135 -1.1047145 2.5678601 6513507
-0.15119116 -1.1049849 2.5677199 6513507
-0.1296792 -1.1069039 2.5675666 6513507
-0.11114806 -1.1068486 2.5674384 6513507
-0.09030278 -1.1067865 2.5672939 6513507
-0.069459759 -1.1067243 2.5671499 6513507
-0.050934628 -1.1066689 2.5670216 6513507
-0.030096114 -1.1066068 2.5668774 6513507
-0.00925986 -1.1065445 2.5667331 6513507
0.0092592528 -1.1064893 2.5666051 6513507
0.030090999 -1.1064271 2.5664606 6513507
0.05092049 -1.1063651 2.5663166 6513507
0.0694336 -1.1063098 2.5661883 6513507
0.090258583 -1.1062477 2.5660443 6513507
0.11108132 -1.1061856 2.5659001 6513507
0.1295884 -1.1061302 2.5657721 6513507
0.15040664 -1.1060681 2.5656278 6513507
0.17122263 -1.106006 2.5654836 6513507
0.1897237 -1.1059508 2.5653558 6513507
0.21053517 -1.1058886 2.5652115 6513507
0.2313444 -1.1058266 2.5650678 6513507
0.2498395 -1.1057713 2.5649395 6513507
0.27064422 -1.1057093 2.5647955 6513507
0.29144666 -1.1056472 2.5646515 6513507
0.30993578 -1.105592 2.5645237 6513507
0.33073378 -1.10553 2.5643799 6513507
0.35152945 -1.1054679 2.5642357 6513507
0.37001255 -1.1054127 2.5641074 6513507
0.38849378 -1.1053575 2.5639796 6513507
0.40928298 -1.1052954 2.5638356 6513507
0.43006986 -1.1052334 2.5636919 6513507
0.44854516 -1.1051784 2.5635638 6513507
0.46932754 -1.1051165 2.5634201 6513507
0.49010772 -1.1050544 2.5632763 6513507
0.50857699 -1.1049993 2.5631485 6513507
0.52935266 -1.1049372 2.5630045 6513507
0.55012608 -1.1048752 2.5628607 6513507
0.56858939 -1.10482 2.5627329 6513507
0.58935833 -1.104758 2.5625892 6513507
0.61012495 -1.1046963 2.5624454 6513507
0.6285823 -1.1046411 2.5623176 6513507
0.64934456 -1.1045791 2.5621743 6513507
0.6701045 -1.1045172 2.5620303 6513507
0.68855578 -1.1044621 2.5619025 6513507
0.70931125 -1.1044002 2.5617588 6513507
0.73006457 -1.1043383 2.5616152 6513507
0.74850988 -1.1042832 2.5614874 6513507
0.76925862 -1.1042213 2.5613439 6513507
0.79000515 -1.1041594 2.5612004 6513507
0.81074923 -1.1040975 2.5610564 6513507
0.83149111 -1.1040356 2.5609131 6513507
0.84992635 -1.1039805 2.5607853 6513507
0.87066376 -1.1039188 2.560642 6513507
0.89139897 -1.1038568 2.5604982 6513507
0.90982819 -1.1038017 2.5603707 6513507
0.9305588 -1.1037399 2.5602269 6513507
0.95128727 -1.103678 2.5600839 6513507
0.9628039 -1.1013368 2.5600088 6513507
-0.30762064 -1.0913352 2.5750482 2775136
-0.28961781 -1.088959 2.5689373 5136226
-0.26872581 -1.0888025 2.5685673 6513507
-0.25018048 -1.0887481 2.568439 6513507
-0.22931929 -1.0886869 2.5682945 6513507
-0.2084603 -1.0886258 2.5681503 6513507
-0.18992102 -1.0885712 2.5680218 6513507
-0.17138359 -1.088517 2.5678935 6513507
-0.15008986 -1.0890054 2.567745 6513507
-0.12968087 -1.0907081 2.5676 6513507
-0.1111495 -1.0906537 2.5674715 6513507
-0.090303957 -1.0905926 2.5673273 6513507
-0.069460653 -1.0905311 2.567183 6513507
-0.050935291 -1.0904766 2.5670547 6513507
-0.030096509 -1.0904155 2.5669107 6513507
-0.0092599802 -1.0903542 2.5667663 6513507
0.0092593729 -1.0902997 2.5666382 6513507
0.030091388 -1.0902385 2.5664942 6513507
0.050921153 -1.0901772 2.56635 6513507
0.069434486 -1.0901226 2.5662217 6513507
0.090259746 -1.0900615 2.5660772 6513507
0.11108278 -1.0900003 2.5659335 6513507
0.12959009 -1.0899458 2.5658054 6513507
0.15040857 -1.0898846 2.565661 6513507
0.17122485 -1.0898235 2.5655167 6513507
0.18972617 -1.0897689 2.5653892 6513507
0.21053791 -1.0897079 2.5652447 6513507
0.23134741 -1.0896466 2.5651007 6513507
0.24984269 -1.0895922 2.5649729 6513507
0.27064773 -1.0895311 2.5648289 6513507
0.29145044 -1.0894699 2.5646849 6513507
0.30993983 -1.0894153 2.5645571 6513507
0.33073804 -1.0893544 2.5644128 6513507
0.35153407 -1.0892932 2.5642686 6513507
0.36950365 -1.0902672 2.5641425 6513507
0.38849816 -1.091495 2.5640082 6513507
0.40928754 -1.0914338 2.5638642 6513507
0.43007463 -1.0913725 2.5637202 6513507
0.44855013 -1.0913179 2.5635927 6513507
0.46933275 -1.0912569 2.5634487 6513507
0.49011314 -1.0911955 2.5633047 6513507
0.50858265 -1.091141 2.5631769 6513507
0.52935863 -1.0910797 2.5630333 6513507
0.55013227 -1.0910187 2.5628891 6513507
0.56859565 -1.0909642 2.5627615 6513507
0.58936489 -1.090903 2.5626178 6513507
0.61013186 -1.0908419 2.562474 6513507
0.62858927 -1.0907874 2.562346 6513507
0.64935172 -1.0907261 2.5622025 6513507
0.67011195 -1.090665 2.5620587 6513507
0.68856347 -1.0906107 2.5619307 6513507
0.70931917 -1.0905495 2.5617871 6513507
0.73007268 -1.0904883 2.5616436 6513507
0.74851811 -1.0904341 2.5615158 6513507
0.76926714 -1.0903728 2.5613723 6513507
0.79001385 -1.0903118 2.5612285 6513507
0.81075823 -1.0902506 2.5610852 6513507
0.83150035 -1.0901893 2.5609412 6513507
0.84993571 -1.0901351 2.5608137 6513507
0.87067348 -1.0900741 2.5606704 6513507
0.8914088 -1.0900129 2.5605268 6513507
0.90983814 -1.0899587 2.5603991 6513507
0.93056905 -1.0898976 2.5602558 6513507
0.95129782 -1.0898365 2.5601122 6513507
0.96434927 -1.0882601 2.5600252 6513507
-0.3024258 -1.0724486 2.5793805 2053985
-0.28971338 -1.0707976 2.5716977 3693409
-0.26872984 -1.0702857 2.5686054 6185571
-0.25018421 -1.0702323 2.5684772 6513507
-0.2293227 -1.070172 2.5683327 6513507
-0.20846342 -1.0701118 2.5681882 6513507
-0.18992382 -1.0700582 2.5680602 6513507
-0.17138614 -1.0700048 2.5679317 6513507
-0.15053345 -1.0699446 2.5677872 6513507
-0.12968305 -1.0698847 2.5676429 6513507
-0.11115136 -1.0698309 2.5675144 6513507
-0.090305462 -1.0697709 2.5673704 6513507
-0.069461815 -1.0697109 2.5672259 6513507
-0.050936148 -1.0696573 2.5670979 6513507
-0.030097008 -1.0695975 2.5669534 6513507
-0.0092601348 -1.0695373 2.5668094 6513507
0.0092595275 -1.0694838 2.5666809 6513507
0.030091891 -1.0694238 2.5665367 6513507
0.050922003 -1.0693636 2.5663927 6513507
0.069435664 -1.0693102 2.5662646 6513507
0.090261266 -1.0692499 2.5661204 6513507
0.1110846 -1.06919 2.5659764 6513507
0.12959224 -1.0691367 2.5658484 6513507
0.1504111 -1.0690767 2.5657039 6513507
0.17122769 -1.0690166 2.5655599 6513507
0.18972933 -1.0689632 2.5654316 6513507
0.21054144 -1.0689031 2.5652878 6513507
0.23135127 -1.0688432 2.5651436 6513507
0.24984691 -1.0687897 2.5650156 6513507
0.27065217 -1.0687299 2.5648713 6513507
0.2914553 -1.0686698 2.5647278 6513507
0.30994499 -1.0686164 2.5645993 6513507
0.33074358 -1.0685565 2.5644555 6513507
0.35153988 -1.0684966 2.5643117 6513507
0.37053654 -1.0697254 2.5641775 6513507
0.38850459 -1.0707003 2.5640509 6513507
0.40929437 -1.0706402 2.5639071 6513507
0.43008178 -1.0705802 2.5637631 6513507
0.44855756 -1.0705267 2.5636353 6513507
0.46934056 -1.0704669 2.5634916 6513507
0.4901213 -1.0704068 2.5633473 6513507
0.50859106 -1.0703534 2.5632195 6513507
0.52936739 -1.0702933 2.5630755 6513507
0.55014133 -1.070233 2.5629318 6513507
0.56860524 -1.0701797 2.562804 6513507
0.5893746 -1.0701196 2.5626605 6513507
0.61014193 -1.0700597 2.5625167 6513507
0.62859976 -1.0700063 2.5623889 6513507
0.64936256 -1.0699463 2.5622449 6513507
0.67012316 -1.0698863 2.5621014 6513507
0.68857491 -1.0698329 2.5619738 6513507
0.70933092 -1.0697728 2.56183 6513507
0.73008478 -1.0697128 2.5616865 6513507
0.74853063 -1.0696596 2.5615585 6513507
0.76928002 -1.0695999 2.5614147 6513507
0.79002702 -1.0695398 2.5612714 6513507
0.81077164 -1.0694795 2.5611279 6513507
0.83151418 -1.0694195 2.5609841 6513507
0.84994996 -1.0693665 2.5608563 6513507
0.87068802 -1.0693066 2.5607133 6513507
0.89105946 -1.0697334 2.560571 6513507
0.90985167 -1.0715005 2.5604372 6513507
0.93058288 -1.0714406 2.5602937 6513507
0.95131183 -1.0713805 2.5601499 6513507
0.96701467 -1.0707059 2.5600429 6513507
-0.28441238 -1.0521172 2.5742338 2972000
-0.26876289 -1.0495617 2.5689151 4939618
-0.25018841 -1.049401 2.5685201 6447715
-0.22932652 -1.0493419 2.5683756 6513507
-0.20846689 -1.0492829 2.5682311 6513507
-0.18992667 -1.0515447 2.5680981 6513507
-0.17138869 -1.0514922 2.5679698 6513507
-0.1505357 -1.0514331 2.5678253 6513507
-0.12968498 -1.051374 2.5676808 6513507
-0.11115301 -1.0513215 2.5675526 6513507
-0.090306796 -1.0512623 2.5674083 6513507
-0.069462843 -1.0512033 2.5672641 6513507
-0.050936893 -1.0511508 2.5671358 6513507
-0.030097455 -1.0510917 2.5669916 6513507
-0.0092602717 -1.0510325 2.5668473 6513507
0.0092596654 -1.0509801 2.5667191 6513507
0.030092344 -1.0509212 2.5665746 6513507
0.050922759 -1.0508621 2.5664303 6513507
0.069436684 -1.0508096 2.5663023 6513507
0.090262599 -1.0507504 2.5661585 6513507
0.11108626 -1.0506916 2.5660141 6513507
0.12959416 -1.0506392 2.565886 6513507
0.15041332 -1.05058 2.565742 6513507
0.17123023 -1.0505209 2.5655978 6513507
0.18973213 -1.0504686 2.5654697 6513507
0.21054456 -1.0504096 2.565326 6513507
0.23135468 -1.0503507 2.5651815 6513507
0.2498506 -1.0502981 2.5650535 6513507
0.27065629 -1.0502391 2.5649095 6513507
0.29145962 -1.0501802 2.5647655 6513507
0.30994958 -1.0501279 2.5646374 6513507
0.33074847 -1.0500687 2.5644937 6513507
0.3515451 -1.0500098 2.5643494 6513507
0.370029 -1.0499574 2.5642214 6513507
0.38851109 -1.0499052 2.5640936 6513507
0.40930113 -1.0498463 2.5639498 6513507
0.430089 -1.0497872 2.5638058 6513507
0.44856507 -1.049735 2.5636778 6513507
0.46934843 -1.0496759 2.5635343 6513507
0.4901295 -1.0496171 2.5633903 6513507
0.50859952 -1.0495646 2.5632625 6513507
0.52937615 -1.0495059 2.5631185 6513507
0.55015051 -1.0494471 2.5629747 6513507
0.56861466 -1.0493946 2.5628469 6513507
0.58938444 -1.0493357 2.5627029 6513507
0.61015207 -1.0492768 2.5625594 6513507
0.62861025 -1.0492245 2.5624316 6513507
0.64937341 -1.0491656 2.5622878 6513507
0.67013419 -1.0491067 2.562144 6513507
0.68858641 -1.0490545 2.5620162 6513507
0.70934284 -1.0489956 2.5618727 6513507
0.730097 -1.0489368 2.561729 6513507
0.7485432 -1.0488846 2.5616014 6513507
0.76929289 -1.0488257 2.5614576 6513507
0.79004025 -1.048767 2.5613139 6513507
0.80848038 -1.0487146 2.5611863 6513507
0.82922333 -1.0486557 2.561043 6513507
0.84996414 -1.0485971 2.5608993 6513507
0.87070245 -1.0485384 2.5607555 6513507
0.89184457 -1.049157 2.5606079 6513507
0.90986681 -1.0507346 2.5604796 6513507
0.93059838 -1.0506756 2.5603364 6513507
0.95132768 -1.0506169 2.5601928 6513507
0.96938854 -1.0500799 2.5600686 6513507
0.98127329 -1.0413041 2.5600045 6513507
-0.2813881 -1.0371819 2.5784578 2185057
-0.26931754 -1.0296034 2.572861 3299937
-0.25019255 -1.0285692 2.568563 5726563
-0.22933035 -1.0285113 2.5684183 6513507
-0.20847036 -1.0284535 2.5682738 6513507
-0.18992981 -1.0307162 2.5681405 6513507
-0.17139153 -1.0306649 2.5680127 6513507
-0.15053822 -1.030607 2.5678682 6513507
-0.12968716 -1.0305489 2.5677238 6513507
-0.11115485 -1.0304974 2.5675957 6513507
-0.090308316 -1.0304396 2.5674512 6513507
-0.069464006 -1.0303817 2.567307 6513507
-0.050937742 -1.0303303 2.5671787 6513507
-0.03009796 -1.0302722 2.5670342 6513507
-0.0092604253 -1.0302144 2.56689 6513507
0.0092598191 -1.0301629 2.566762 6513507
0.030092841 -1.0301049 2.5666177 6513507
0.050923608 -1.0300472 2.5664735 6513507
0.069437847 -1.0299958 2.5663452 6513507
0.090264104 -1.0299379 2.5662012 6513507
0.11108812 -1.02988 2.566057 6513507
0.12959635 -1.0298287 2.5659289 6513507
0.15041584 -1.0297706 2.5657849 6513507
0.17123309 -1.0297129 2.5656407 6513507
0.18973531 -1.0296615 2.5655127 6513507
0.21054806 -1.0296036 2.5653687 6513507
0.23135853 -1.0295459 2.5652246 6513507
0.24985476 -1.0294945 2.5650964 6513507
0.27066076 -1.0294366 2.5649521 6513507
0.29146451 -1.0293788 2.5648084 6513507
0.30995473 -1.0293274 2.5646801 6513507
0.33036873 -1.0296558 2.5645382 6513507
0.35155031 -1.0315229 2.5643876 6513507
0.37003449 -1.0314714 2.5642595 6513507
0.38851687 -1.0314199 2.5641317 6513507
0.40930724 -1.0313621 2.5639877 6513507
0.43009534 -1.0313041 2.563844 6513507
0.44857171 -1.0312527 2.5637159 6513507
0.4693554 -1.0311948 2.5635719 6513507
0.4901368 -1.0311369 2.5634282 6513507
0.50860709 -1.0310855 2.5633004 6513507
0.52938396 -1.0310276 2.5631566 6513507
0.55015868 -1.0309697 2.5630126 6513507
0.56862313 -1.0309184 2.5628848 6513507
0.5893932 -1.0308604 2.562741 6513507
0.61016107 -1.0308027 2.5625973 6513507
0.62861955 -1.0307512 2.5624695 6513507
0.64938295 -1.0306934 2.5623255 6513507
0.67014414 -1.0306356 2.5621817 6513507
0.68859649 -1.0305843 2.5620544 6513507
0.70935333 -1.0305264 2.5619104 6513507
0.73010778 -1.0304687 2.5617671 6513507
0.74855423 -1.0304172 2.5616393 6513507
0.76930416 -1.0303594 2.5614958 6513507
0.79005188 -1.0303017 2.5613518 6513507
0.80849236 -1.0302503 2.5612242 6513507
0.82923573 -1.0301926 2.5610805 6513507
0.84997672 -1.0301348 2.5609369 6513507
0.87071526 -1.0300772 2.5607934 6513507
0.89145172 -1.0300194 2.5606499 6513507
0.90988201 -1.0299681 2.5605226 6513507
0.93061388 -1.0299103 2.5603786 6513507
0.95134366 -1.0298526 2.5602355 6513507
0.96976787 -1.0298012 2.5601077 6513507
0.98281878 -1.0282269 2.5600207 6513507
-0.2642737 -1.0123646 2.5759726 2644064
-0.25071943 -1.0098168 2.5697453 4283745
-0.22933373 -1.0099945 2.5684562 6382179
-0.20847346 -1.0099378 2.5683122 6513507
-0.189933 -1.0098872 2.5681839 6513507
-0.17139439 -1.0098367 2.5680554 6513507
-0.15054069 -1.00978 2.5679111 6513507
-0.12968931 -1.0097233 2.5677667 6513507
-0.11115671 -1.0096728 2.5676384 6513507
-0.090309814 -1.0096161 2.5674939 6513507
-0.06946516 -1.0095594 2.5673497 6513507
-0.050938595 -1.0095088 2.5672216 6513507
-0.030098459 -1.0094521 2.5670772 6513507
-0.0092605809 -1.0093955 2.5669332 6513507
0.0092599746 -1.0093451 2.5668049 6513507
0.030093346 -1.0092883 2.5666604 6513507
0.050924461 -1.0092316 2.5665164 6513507
0.069438994 -1.0091811 2.5663881 6513507
0.090265609 -1.0091245 2.5662436 6513507
0.11108996 -1.0090678 2.5660999 6513507
0.1295985 -1.0090175 2.5659719 6513507
0.15041834 -1.0089607 2.5658274 6513507
0.17123595 -1.0089042 2.5656831 6513507
0.18973848 -1.0088537 2.5655556 6513507
0.21055157 -1.0087969 2.5654111 6513507
0.2313624 -1.0087402 2.5652671 6513507
0.24985892 -1.0086901 2.5651391 6513507
0.27066529 -1.0086334 2.5649953 6513507
0.29146937 -1.0085769 2.564851 6513507
0.30995992 -1.0085264 2.564723 6513507
0.32912809 -1.009154 2.5645885 6513507
0.34963071 -1.0103444 2.5644443 6513507
0.37004066 -1.0106738 2.5643024 6513507
0.38852334 -1.0106233 2.5641744 6513507
0.40931404 -1.0105666 2.5640304 6513507
0.43010253 -1.01051 2.5638864 6513507
0.44857922 -1.0104593 2.5637586 6513507
0.46936312 -1.0104028 2.5636148 6513507
0.49014491 -1.0103459 2.5634708 6513507
0.50861561 -1.0102956 2.563343 6513507
0.52939284 -1.010239 2.5631995 6513507
0.55016792 -1.0101823 2.5630553 6513507
0.5686326 -1.010132 2.5629277 6513507
0.58940297 -1.0100752 2.5627835 6513507
0.61017132 -1.0100186 2.5626397 6513507
0.62862998 -1.0099683 2.5625124 6513507
0.64939386 -1.0099115 2.5623684 6513507
0.67015541 -1.0098549 2.5622249 6513507
0.68860805 -1.0098045 2.5620971 6513507
0.70936507 -1.009748 2.5619531 6513507
0.73011988 -1.0096912 2.5618095 6513507
0.74856669 -1.0096409 2.5616817 6513507
0.76931703 -1.0095842 2.5615385 6513507
0.79006517 -1.0095277 2.5613945 6513507
