# .PCD v0.7 - Point Cloud Data file format
VERSION 0.7
FIELDS x y z rgb
SIZE 4 4 4 4
TYPE F F F U
COUNT 1 1 1 1
WIDTH 1176
HEIGHT 1
VIEWPOINT 0 0 0 1 0 0 0
POINTS 1176
DATA ascii
0.29195684 0.18470739 0.50818157 1381653
0.29287404 0.18470772 0.50818247 1381653
0.28461885 0.18562099 0.50817317 1776411
0.28553599 0.18562132 0.50817406 1381653
0.28645316 0.18562163 0.50817496 1381653
0.28737029 0.18562196 0.50817585 1381653
0.28828746 0.18562229 0.50817674 1381653
0.28920463 0.18562262 0.50817764 1381653
0.29012179 0.18562295 0.50817853 1381653
0.29103896 0.18562327 0.50817943 1381653
0.29195613 0.1856236 0.50818032 1381653
0.29287329 0.18562393 0.50818121 1381653
0.28278387 0.18653652 0.50817013 2236962
0.28370097 0.18653682 0.50817096 1381653
0.28461811 0.18653715 0.50817186 1381653
0.28553525 0.18653747 0.50817275 1381653
0.28645241 0.1865378 0.50817364 1381653
0.28736955 0.18653813 0.50817454 1381653
0.28828672 0.18653847 0.50817543 1381653
0.28920388 0.1865388 0.50817633 1381653
0.29012105 0.18653913 0.50817722 1381653
0.29103822 0.18653946 0.50817811 1381653
0.29195538 0.18653978 0.50817901 1381653
0.29287255 0.18654011 0.5081799 1381653
0.28186598 0.18745235 0.50816792 1381653
0.28278312 0.18745267 0.50816882 1381653
0.28370026 0.187453 0.50816971 1381653
0.28461742 0.18745333 0.5081706 1381653
0.28553456 0.18745367 0.5081715 1381653
0.2864517 0.187454 0.50817239 1381653
0.28736886 0.18745433 0.50817329 1381653
0.288286 0.18745466 0.50817418 1381653
0.28920317 0.18745498 0.50817508 1381653
0.2901203 0.1874553 0.50817591 1381653
0.29103747 0.18745562 0.5081768 1381653
0.29195464 0.18745595 0.5081777 1381653
0.2928718 0.18745628 0.50817859 1381653
0.28003103 0.18836783 0.50816482 1776411
0.28094813 0.18836817 0.50816572 1381653
0.28186527 0.1883685 0.50816661 1381653
0.28278241 0.18836883 0.50816751 1381653
0.28369954 0.18836915 0.5081684 1381653
0.28461668 0.1883695 0.50816929 1381653
0.28553382 0.18836983 0.50817019 1381653
0.28645095 0.18837015 0.50817108 1381653
0.28736812 0.18837048 0.50817198 1381653
0.28828526 0.18837082 0.50817287 1381653
0.28920242 0.18837115 0.50817376 1381653
0.29011959 0.18837148 0.50817466 1381653
0.29103675 0.18837181 0.50817555 1381653
0.29195389 0.18837215 0.50817645 1381653
0.29287109 0.18837248 0.50817734 1381653
0.2781961 0.18928334 0.50816178 1776411
0.2791132 0.18928367 0.50816268 1381653
0.28003031 0.189284 0.50816357 1381653
0.28094745 0.18928434 0.50816447 1381653
0.28186458 0.18928467 0.50816536 1381653
0.28278172 0.189285 0.50816625 1381653
0.28369883 0.18928534 0.50816715 1381653
0.28461593 0.18928564 0.50816798 1381653
0.28553307 0.18928598 0.50816888 1381653
0.28645024 0.18928631 0.50816977 1381653
0.28736737 0.18928665 0.50817066 1381653
0.28828451 0.18928698 0.50817156 1381653
0.28920168 0.1892873 0.50817245 1381653
0.29011884 0.18928765 0.50817335 1381653
0.29103598 0.18928798 0.50817424 1381653
0.29195315 0.1892883 0.50817513 1381653
0.29287031 0.18928865 0.50817603 1381653
0.27636114 0.19019879 0.50815868 2236962
0.27727824 0.19019914 0.50815958 1381653
0.27819538 0.19019946 0.50816047 1381653
0.27911249 0.19019981 0.50816137 1381653
0.28002959 0.19020014 0.50816226 1381653
0.28094673 0.19020048 0.50816315 1381653
0.28186384 0.19020081 0.50816405 1381653
0.28278098 0.19020115 0.50816494 1381653
0.28369811 0.19020148 0.50816584 1381653
0.28461525 0.19020182 0.50816673 1381653
0.28553239 0.19020215 0.50816762 1381653
0.28644952 0.19020247 0.50816852 1381653
0.28736666 0.19020282 0.50816941 1381653
0.28828382 0.19020315 0.50817031 1381653
0.28920096 0.19020349 0.5081712 1381653
0.29011807 0.1902038 0.50817204 1381653
0.29103523 0.19020413 0.50817293 1381653
0.2919524 0.19020447 0.50817382 1381653
0.29286957 0.1902048 0.50817472 1381653
0.27544338 0.19111462 0.50815654 1776411
0.27636048 0.19111495 0.50815743 1381653
0.27727759 0.19111529 0.50815833 1381653
0.27819464 0.1911156 0.50815916 1381653
0.27911177 0.19111593 0.50816005 1381653
0.28002888 0.19111627 0.50816095 1381653
0.28094599 0.19111662 0.50816184 1381653
0.28186312 0.19111694 0.50816274 1381653
0.28278026 0.19111729 0.50816363 1381653
0.28369737 0.19111761 0.50816453 1381653
0.2846145 0.19111796 0.50816542 1381653
0.28553164 0.19111829 0.50816631 1381653
0.28644878 0.19111863 0.50816721 1381653
0.28736591 0.19111896 0.5081681 1381653
0.28828308 0.1911193 0.508169 1381653
0.28920022 0.19111964 0.50816989 1381653
0.29011735 0.19111997 0.50817078 1381653
0.29103452 0.19112031 0.50817168 1381653
0.29195169 0.19112064 0.50817257 1381653
0.29286885 0.19112098 0.50817347 1381653
0.27360848 0.19203006 0.50815344 1776411
0.27452555 0.1920304 0.50815433 1381653
0.27544266 0.19203074 0.50815523 1381653
0.27635977 0.19203107 0.50815612 1381653
0.27727684 0.19203141 0.50815701 1381653
0.27819398 0.19203176 0.50815791 1381653
0.27911109 0.19203208 0.5081588 1381653
0.28002819 0.19203243 0.5081597 1381653
0.2809453 0.19203277 0.50816059 1381653
0.28186244 0.1920331 0.50816149 1381653
0.28277954 0.19203344 0.50816238 1381653
0.28369668 0.19203378 0.50816327 1381653
0.28461376 0.1920341 0.50816411 1381653
0.28553089 0.19203442 0.508165 1381653
0.28644803 0.19203477 0.5081659 1381653
0.28736517 0.19203511 0.50816679 1381653
0.28828233 0.19203544 0.50816768 1381653
0.28919947 0.19203578 0.50816858 1381653
0.29011661 0.19203612 0.50816947 1381653
0.29103377 0.19203645 0.50817037 1381653
0.29195091 0.19203679 0.50817126 1381653
0.29286808 0.19203714 0.50817215 1381653
0.27177361 0.19294551 0.5081504 1776411
0.27269065 0.19294584 0.50815123 1381653
0.27360776 0.19294617 0.50815213 1381653
0.27452484 0.19294651 0.50815302 1381653
0.27544194 0.19294685 0.50815392 1381653
0.27635905 0.19294719 0.50815481 1381653
0.27727613 0.19294754 0.5081557 1381653
0.27819324 0.19294786 0.5081566 1381653
0.27911034 0.19294821 0.50815749 1381653
0.28002748 0.19294855 0.50815839 1381653
0.28094459 0.19294889 0.50815928 1381653
0.28186169 0.19294924 0.50816017 1381653
0.28277883 0.19294956 0.50816107 1381653
0.28369594 0.19294991 0.50816196 1381653
0.28461307 0.19295025 0.50816286 1381653
0.28553021 0.19295059 0.50816375 1381653
0.28644735 0.19295092 0.50816464 1381653
0.28736448 0.19295126 0.50816554 1381653
0.28828162 0.1929516 0.50816643 1381653
0.28919876 0.19295195 0.50816733 1381653
0.29011586 0.19295226 0.50816816 1381653
0.29103303 0.1929526 0.50816905 1381653
0.29195017 0.19295295 0.50816995 1381653
0.29286733 0.19295327 0.50817084 1381653
0.27085584 0.19386128 0.50814819 1381653
0.27177292 0.19386162 0.50814909 1381653
0.27269 0.19386196 0.50814998 1381653
0.27360708 0.1938623 0.50815088 1381653
0.27452418 0.19386265 0.50815177 1381653
0.27544126 0.19386299 0.50815266 1381653
0.27635837 0.19386333 0.50815356 1381653
0.27727547 0.19386367 0.50815445 1381653
0.27819255 0.193864 0.50815535 1381653
0.27910963 0.19386433 0.50815618 1381653
0.28002673 0.19386467 0.50815707 1381653
0.28094387 0.19386502 0.50815797 1381653
0.28186098 0.19386536 0.50815886 1381653
0.28277808 0.19386569 0.50815976 1381653
0.28369522 0.19386603 0.50816065 1381653
0.28461233 0.19386637 0.50816154 1381653
0.28552946 0.19386671 0.50816244 1381653
0.2864466 0.19386706 0.50816333 1381653
0.28736374 0.1938674 0.50816423 1381653
0.28828087 0.19386774 0.50816512 1381653
0.28919801 0.19386809 0.50816602 1381653
0.29011515 0.19386843 0.50816691 1381653
0.29103231 0.19386876 0.5081678 1381653
0.29194945 0.1938691 0.5081687 1381653
0.29286662 0.19386944 0.50816959 1381653
0.26902097 0.1947767 0.50814509 1776411
0.26993805 0.19477704 0.50814599 1381653
0.27085513 0.19477738 0.50814688 1381653
0.27177221 0.19477773 0.50814778 1381653
0.27268928 0.19477807 0.50814867 1381653
0.27360639 0.19477841 0.50814956 1381653
0.27452347 0.19477876 0.50815046 1381653
0.27544054 0.1947791 0.50815135 1381653
0.27635765 0.19477944 0.50815225 1381653
0.27727476 0.19477978 0.50815314 1381653
0.27819183 0.19478013 0.50815403 1381653
0.27910894 0.19478047 0.50815493 1381653
0.28002605 0.19478081 0.50815582 1381653
0.28094316 0.19478115 0.50815672 1381653
0.28186029 0.1947815 0.50815761 1381653
0.2827774 0.19478184 0.5081585 1381653
0.28369451 0.19478218 0.5081594 1381653
0.28461161 0.1947825 0.50816023 1381653
0.28552872 0.19478284 0.50816113 1381653
0.28644586 0.19478318 0.50816202 1381653
0.28736299 0.19478352 0.50816292 1381653
0.28828013 0.19478387 0.50816381 1381653
0.28919727 0.19478421 0.5081647 1381653
0.2901144 0.19478455 0.5081656 1381653
0.29103154 0.19478489 0.50816649 1381653
0.29194871 0.19478524 0.50816739 1381653
0.29286584 0.19478558 0.50816828 1381653
0.26718619 0.19569212 0.50814205 1776411
0.26810327 0.19569246 0.50814295 1381653
0.26902032 0.19569281 0.50814384 1381653
0.2699374 0.19569315 0.50814474 1381653
0.27085447 0.19569349 0.50814563 1381653
0.27177155 0.19569384 0.50814652 1381653
0.27268863 0.19569419 0.50814742 1381653
0.27360567 0.19569451 0.50814825 1381653
0.27452275 0.19569485 0.50814915 1381653
0.27543983 0.19569519 0.50815004 1381653
0.27635694 0.19569553 0.50815094 1381653
0.27727404 0.19569589 0.50815183 1381653
0.27819112 0.19569623 0.50815272 1381653
0.27910823 0.19569658 0.50815362 1381653
0.28002533 0.19569692 0.50815451 1381653
0.28094244 0.19569726 0.50815541 1381653
0.28185955 0.19569761 0.5081563 1381653
0.28277665 0.19569795 0.50815719 1381653
0.28369379 0.19569829 0.50815809 1381653
0.2846109 0.19569863 0.50815898 1381653
0.28552803 0.19569898 0.50815988 1381653
0.28644514 0.19569933 0.50816077 1381653
0.28736228 0.19569968 0.50816166 1381653
0.28827941 0.19570002 0.50816256 1381653
0.28919655 0.19570036 0.50816345 1381653
0.29011369 0.19570071 0.50816435 1381653
0.29103079 0.19570103 0.50816518 1381653
0.29194796 0.19570138 0.50816607 1381653
0.2928651 0.19570172 0.50816697 1381653
0.26535138 0.19660752 0.50813895 2236962
0.26626846 0.19660786 0.50813985 1381653
0.26718551 0.1966082 0.50814074 1381653
0.26810256 0.19660854 0.50814164 1381653
0.26901963 0.1966089 0.50814253 1381653
0.26993671 0.19660924 0.50814342 1381653
0.27085376 0.19660959 0.50814432 1381653
0.27177083 0.19660993 0.50814521 1381653
0.27268791 0.19661027 0.50814611 1381653
0.27360499 0.19661063 0.508147 1381653
0.27452207 0.19661097 0.5081479 1381653
0.27543917 0.19661132 0.50814879 1381653
0.27635625 0.19661166 0.50814968 1381653
0.27727336 0.19661202 0.50815058 1381653
0.27819043 0.19661236 0.50815147 1381653
0.27910751 0.19661267 0.50815231 1381653
0.28002462 0.19661303 0.5081532 1381653
0.28094172 0.19661337 0.50815409 1381653
0.28185883 0.19661371 0.50815499 1381653
0.28277594 0.19661406 0.50815588 1381653
0.28369305 0.19661441 0.50815678 1381653
0.28461018 0.19661476 0.50815767 1381653
0.28552729 0.1966151 0.50815856 1381653
0.28644443 0.19661544 0.50815946 1381653
0.28736153 0.19661579 0.50816035 1381653
0.28827867 0.19661614 0.50816125 1381653
0.28919581 0.19661649 0.50816214 1381653
0.29011294 0.19661683 0.50816303 1381653
0.29103008 0.19661717 0.50816393 1381653
0.29194722 0.19661751 0.50816482 1381653
0.29286438 0.19661787 0.50816572 1381653
0.26630428 0.19892053 0.51173133 1315860
0.26561117 0.19771747 0.50863642 1315860
0.26626781 0.19752395 0.5081386 1381653
0.26718485 0.19752431 0.50813949 1381653
0.26810187 0.19752464 0.50814033 1381653
0.26901895 0.19752498 0.50814122 1381653
0.269936 0.19752532 0.50814211 1381653
0.27085307 0.19752567 0.50814301 1381653
0.27177015 0.19752602 0.5081439 1381653
0.27268723 0.19752637 0.5081448 1381653
0.2736043 0.19752671 0.50814569 1381653
0.27452138 0.19752707 0.50814658 1381653
0.27543846 0.19752741 0.50814748 1381653
0.27635553 0.19752775 0.50814837 1381653
0.27727264 0.19752811 0.50814927 1381653
0.27818972 0.19752845 0.50815016 1381653
0.27910683 0.19752879 0.50815105 1381653
0.28002393 0.19752915 0.50815195 1381653
0.28094101 0.19752949 0.50815284 1381653
0.28185812 0.19752984 0.50815374 1381653
0.28277522 0.1975302 0.50815463 1381653
0.28369236 0.19753054 0.50815552 1381653
0.28460947 0.19753088 0.50815642 1381653
0.28552654 0.19753121 0.50815725 1381653
0.28644368 0.19753155 0.50815815 1381653
0.28736079 0.19753191 0.50815904 1381653
0.28827792 0.19753225 0.50815994 1381653
0.28919506 0.19753259 0.50816083 1381653
0.2901122 0.19753295 0.50816172 1381653
0.29102933 0.19753329 0.50816262 1381653
0.29194647 0.19753364 0.50816351 1381653
0.29286361 0.19753399 0.50816441 1381653
0.26867718 0.20303178 0.5198952 1776411
0.26795849 0.20178439 0.51670104 1315860
0.26724857 0.20055221 0.51354587 1315860
0.26654732 0.19933504 0.51042908 1315860
0.26626712 0.19844003 0.50813729 1381653
0.26718417 0.19844037 0.50813818 1381653
0.26810122 0.19844073 0.50813907 1381653
0.26901826 0.19844107 0.50813997 1381653
0.26993534 0.19844143 0.50814086 1381653
0.27085239 0.19844177 0.50814176 1381653
0.27176946 0.19844213 0.50814265 1381653
0.27268654 0.19844247 0.50814354 1381653
0.27360359 0.1984428 0.50814438 1381653
0.27452067 0.19844314 0.50814527 1381653
0.27543774 0.1984435 0.50814617 1381653
0.27635482 0.19844384 0.50814706 1381653
0.27727193 0.1984442 0.50814795 1381653
0.278189 0.19844455 0.50814885 1381653
0.27910611 0.19844489 0.50814974 1381653
0.28002319 0.19844525 0.50815064 1381653
0.28094029 0.19844559 0.50815153 1381653
0.2818574 0.19844595 0.50815243 1381653
0.28277451 0.19844629 0.50815332 1381653
0.28369161 0.19844665 0.50815421 1381653
0.28460872 0.19844699 0.50815511 1381653
0.28552586 0.19844735 0.508156 1381653
0.28644297 0.19844769 0.5081569 1381653
0.2873601 0.19844803 0.50815779 1381653
0.28827721 0.19844839 0.50815868 1381653
0.28919435 0.19844873 0.50815958 1381653
0.29011148 0.19844909 0.50816047 1381653
0.29102859 0.19844942 0.50816131 1381653
0.29194573 0.19844976 0.5081622 1381653
0.29286286 0.1984501 0.50816309 1381653
0.27112699 0.20727634 0.52832377 1776411
0.27038142 0.20598236 0.52502555 1315860
0.26964512 0.2047044 0.52176821 1315860
0.26891792 0.20344225 0.51855111 1315860
0.26819962 0.20219555 0.51537341 1315860
0.26749003 0.20096402 0.51223439 1315860
0.26678908 0.19974741 0.5091334 1315860
0.26718348 0.19935645 0.50813687 1381653
0.26810053 0.19935679 0.50813776 1381653
0.26901758 0.19935715 0.50813866 1381653
0.26993465 0.19935749 0.50813955 1381653
0.2708517 0.19935785 0.50814044 1381653
0.27176878 0.19935821 0.50814134 1381653
0.27268583 0.19935855 0.50814223 1381653
0.2736029 0.19935891 0.50814313 1381653
0.27451998 0.19935925 0.50814402 1381653
0.27543706 0.19935961 0.50814492 1381653
0.27635413 0.19935995 0.50814581 1381653
0.27727124 0.19936031 0.5081467 1381653
0.27818832 0.19936065 0.5081476 1381653
0.27910542 0.19936101 0.50814849 1381653
0.28002247 0.19936134 0.50814933 1381653
0.28093958 0.19936168 0.50815022 1381653
0.28185669 0.19936204 0.50815111 1381653
0.28277379 0.19936238 0.50815201 1381653
0.2836909 0.19936274 0.5081529 1381653
0.28460801 0.19936308 0.5081538 1381653
0.28552511 0.19936344 0.50815469 1381653
0.28644222 0.1993638 0.50815558 1381653
0.28735936 0.19936414 0.50815648 1381653
0.28827646 0.1993645 0.50815737 1381653
0.2891936 0.19936484 0.50815827 1381653
0.29011074 0.1993652 0.50815916 1381653
0.29102787 0.19936554 0.50816005 1381653
0.29194501 0.1993659 0.50816095 1381653
0.29286215 0.19936624 0.50816184 1381653
0.27288374 0.21031781 0.53362268 1315860
0.2721197 0.20899175 0.53025818 1315860
0.2713652 0.2076823 0.52693582 1315860
0.27062011 0.20638916 0.52365482 1315860
0.26988426 0.20511203 0.52041447 1315860
0.26915741 0.2038506 0.51721394 1315860
0.2684395 0.20260459 0.51405257 1315860
0.2677303 0.20137373 0.51092958 1315860
0.26718283 0.20027253 0.50813562 1381653
0.26809984 0.20027287 0.50813645 1381653
0.26901689 0.20027322 0.50813735 1381653
0.26993394 0.20027357 0.50813824 1381653
0.27085102 0.20027392 0.50813913 1381653
0.27176806 0.20027427 0.50814003 1381653
0.27268514 0.20027463 0.50814092 1381653
0.27360222 0.20027497 0.50814182 1381653
0.27451926 0.20027533 0.50814271 1381653
0.27543634 0.20027569 0.5081436 1381653
0.27635342 0.20027603 0.5081445 1381653
0.27727053 0.20027639 0.50814539 1381653
0.2781876 0.20027675 0.50814629 1381653
0.27910468 0.20027709 0.50814718 1381653
0.28002179 0.20027745 0.50814807 1381653
0.28093889 0.20027781 0.50814897 1381653
0.28185597 0.20027815 0.50814986 1381653
0.28277308 0.20027851 0.50815076 1381653
0.28369018 0.20027886 0.50815165 1381653
0.28460729 0.20027921 0.50815254 1381653
0.28552437 0.20027953 0.50815338 1381653
0.2864415 0.20027989 0.50815427 1381653
0.28735861 0.20028025 0.50815517 1381653
0.28827572 0.20028059 0.50815606 1381653
0.28919286 0.20028095 0.50815696 1381653
0.29010999 0.20028129 0.50815785 1381653
0.29102713 0.20028165 0.50815874 1381653
0.29194424 0.20028201 0.50815964 1381653
0.29286137 0.20028235 0.50816053 1381653
0.27546933 0.21479757 0.54250598 1776411
0.27467608 0.2134209 0.53902894 1315860
0.27389294 0.21206172 0.53559613 1315860
0.27311969 0.21071975 0.53220677 1315860
0.27235615 0.20939465 0.52886003 1315860
0.27160215 0.20808613 0.52555513 1315860
0.27085757 0.20679386 0.5222913 1315860
0.27012211 0.20551752 0.5190677 1315860
0.26939571 0.20425685 0.51588368 1315860
0.26867819 0.20301157 0.51273853 1315860
0.26796931 0.20178135 0.5096314 1315860
0.26809916 0.20118895 0.5081352 1381653
0.26901624 0.20118931 0.50813609 1381653
0.26993328 0.20118965 0.50813699 1381653
0.27085033 0.20119001 0.50813788 1381653
0.27176741 0.20119037 0.50813878 1381653
0.27268445 0.20119072 0.50813967 1381653
0.27360153 0.20119107 0.50814056 1381653
0.27451858 0.20119141 0.5081414 1381653
0.27543566 0.20119175 0.50814229 1381653
0.27635273 0.20119211 0.50814319 1381653
0.27726981 0.20119247 0.50814408 1381653
0.27818689 0.20119283 0.50814497 1381653
0.27910396 0.20119317 0.50814587 1381653
0.28002107 0.20119353 0.50814676 1381653
0.28093815 0.20119388 0.50814766 1381653
0.28185526 0.20119424 0.50814855 1381653
0.28277236 0.20119458 0.50814945 1381653
0.28368947 0.20119494 0.50815034 1381653
0.28460658 0.2011953 0.50815123 1381653
0.28552368 0.20119566 0.50815213 1381653
0.28644079 0.201196 0.50815302 1381653
0.2873579 0.20119636 0.50815392 1381653
0.28827503 0.20119672 0.50815481 1381653
0.28919214 0.20119707 0.5081557 1381653
0.29010928 0.20119742 0.5081566 1381653
0.29102638 0.20119777 0.50815749 1381653
0.29194349 0.2011981 0.50815833 1381653
0.29286063 0.20119846 0.50815922 1381653
0.27814242 0.219429 0.55168998 1776411
0.27731842 0.21799898 0.54809463 1315860
0.27650511 0.21658748 0.54454583 1315860
0.27570224 0.21519414 0.54104269 1315860
0.27490962 0.21381858 0.53758425 1315860
0.27412704 0.2124605 0.53416973 1315860
0.27335438 0.21111958 0.53079838 1315860
0.27259138 0.20979546 0.52746928 1315860
0.27183789 0.20848784 0.52418166 1315860
0.27109376 0.20719644 0.52093482 1315860
0.27035877 0.20592093 0.51772791 1315860
0.26963276 0.20466101 0.51456022 1315860
0.26891562 0.20341644 0.5114311 1315860
0.26820713 0.20218691 0.50833982 1315860
0.26901552 0.20210536 0.50813478 1381653
0.26993257 0.20210572 0.50813568 1381653
0.27084965 0.20210607 0.50813657 1381653
0.27176669 0.20210643 0.50813746 1381653
0.27268377 0.20210679 0.50813836 1381653
0.27360082 0.20210715 0.50813925 1381653
0.27451789 0.2021075 0.50814015 1381653
0.27543497 0.20210785 0.50814104 1381653
0.27635205 0.2021082 0.50814193 1381653
0.27726912 0.20210856 0.50814283 1381653
0.2781862 0.20210892 0.50814372 1381653
0.27910328 0.20210928 0.50814462 1381653
0.28002033 0.20210961 0.50814545 1381653
0.28093743 0.20210996 0.50814635 1381653
0.28185451 0.20211032 0.50814724 1381653
0.28277162 0.20211068 0.50814813 1381653
0.28368872 0.20211104 0.50814903 1381653
0.28460583 0.20211138 0.50814992 1381653
0.28552294 0.20211174 0.50815082 1381653
0.28644004 0.20211209 0.50815171 1381653
0.28735715 0.20211245 0.5081526 1381653
0.28827429 0.20211281 0.5081535 1381653
0.2891914 0.20211317 0.50815439 1381653
0.29010853 0.20211352 0.50815529 1381653
0.29102564 0.20211387 0.50815618 1381653
0.29194278 0.20211422 0.50815707 1381653
0.29285991 0.20211458 0.50815797 1381653
0.2809076 0.22421993 0.56119031 2171169
0.28005114 0.22273368 0.55747044 1315860
0.27920604 0.22126703 0.55379963 1315860
0.2783719 0.21981953 0.55017674 1315860
0.2775487 0.2183909 0.54660106 1315860
0.27673605 0.21698065 0.54307145 1315860
0.27593389 0.21558855 0.5395872 1315860
0.27514189 0.21421416 0.5361473 1315860
0.27435991 0.21285717 0.53275096 1315860
0.27358782 0.21151729 0.52939743 1315860
0.27282536 0.21019416 0.52608579 1315860
0.27207237 0.20888746 0.52281535 1315860
0.27132875 0.20759694 0.51958537 1315860
0.27059418 0.20632225 0.51639497 1315860
0.26986861 0.20506312 0.51324356 1315860
0.26915187 0.20381927 0.51013041 1315860
0.26901484 0.20302142 0.50813347 1381653
0.26993188 0.20302178 0.50813437 1381653
0.27084893 0.20302214 0.50813526 1381653
0.27176601 0.20302249 0.50813615 1381653
0.27268305 0.20302285 0.50813705 1381653
0.27360013 0.20302321 0.50813794 1381653
0.27451718 0.20302355 0.50813884 1381653
0.27543426 0.20302391 0.50813973 1381653
0.27635133 0.20302427 0.50814062 1381653
0.27726841 0.20302463 0.50814152 1381653
0.27818549 0.20302498 0.50814241 1381653
0.27910256 0.20302534 0.50814331 1381653
0.28001964 0.2030257 0.5081442 1381653
0.28093675 0.20302606 0.50814509 1381653
0.28185382 0.20302641 0.50814599 1381653
0.28277093 0.20302677 0.50814688 1381653
0.28368804 0.20302713 0.50814778 1381653
0.28460512 0.20302749 0.50814867 1381653
0.28552219 0.20302783 0.5081495 1381653
0.2864393 0.20302819 0.5081504 1381653
0.28735641 0.20302854 0.50815129 1381653
0.28827354 0.20302889 0.50815219 1381653
0.28919065 0.20302925 0.50815308 1381653
0.29010776 0.2030296 0.50815398 1381653
0.29102489 0.20302996 0.50815487 1381653
0.29194203 0.20303032 0.50815576 1381653
0.29285917 0.20303068 0.50815666 1381653
0.28287902 0.22763321 0.56717265 1315860
0.2820003 0.22610836 0.56337333 1315860
0.28113332 0.22460382 0.55962461 1315860
0.28027779 0.22311917 0.55592543 1315860
0.27943346 0.22165398 0.55227476 1315860
0.27860016 0.22020793 0.54867178 1315860
0.27777767 0.21878064 0.54511553 1315860
0.27696577 0.21737172 0.54160506 1315860
0.27616423 0.21598081 0.53813946 1315860
0.27537292 0.21460761 0.53471798 1315860
0.27459159 0.21325175 0.5313397 1315860
0.27382004 0.2119129 0.52800381 1315860
0.27305815 0.21059076 0.52470958 1315860
0.2723057 0.20928502 0.52145618 1315860
0.27156252 0.20799538 0.5182429 1315860
0.27082843 0.20672153 0.51506895 1315860
0.27010328 0.20546317 0.51193362 1315860
0.26938692 0.20422006 0.50883627 1315860
0.26993123 0.20393784 0.50813311 1381653
0.27084827 0.2039382 0.50813401 1381653
0.27176532 0.20393857 0.5081349 1381653
0.27268237 0.20393893 0.5081358 1381653
0.27359945 0.20393929 0.50813669 1381653
0.27451646 0.20393962 0.50813752 1381653
0.27543354 0.20393997 0.50813842 1381653
0.27635062 0.20394033 0.50813931 1381653
0.27726769 0.20394069 0.50814021 1381653
0.27818477 0.20394105 0.5081411 1381653
0.27910185 0.20394142 0.50814199 1381653
0.28001893 0.20394178 0.50814289 1381653
0.280936 0.20394213 0.50814378 1381653
0.28185311 0.20394249 0.50814468 1381653
0.28277019 0.20394285 0.50814557 1381653
0.28368729 0.20394321 0.50814646 1381653
0.2846044 0.20394357 0.50814736 1381653
0.28552151 0.20394392 0.50814825 1381653
0.28643861 0.20394428 0.50814915 1381653
0.28735572 0.20394464 0.50815004 1381653
0.28827283 0.203945 0.50815094 1381653
0.28918993 0.20394535 0.50815183 1381653
0.29010704 0.20394573 0.50815272 1381653
0.29102418 0.20394608 0.50815362 1381653
0.29194126 0.20394641 0.50815445 1381653
0.29285839 0.20394677 0.50815535 1381653
0.28580704 0.23270628 0.57721853 1776411
0.28489295 0.23112004 0.57328391 1315860
0.28399119 0.22955528 0.56940258 1315860
0.28310156 0.22801153 0.56557339 1315860
0.28222385 0.22648844 0.56179541 1315860
0.28135777 0.22498555 0.55806756 1315860
0.28050312 0.22350249 0.55438888 1315860
0.27965966 0.22203884 0.55075836 1315860
0.27882716 0.22059423 0.54717505 1315860
0.27800542 0.21916831 0.54363811 1315860
0.27719426 0.2177607 0.54014659 1315860
0.27639338 0.216371 0.53669953 1315860
0.27560273 0.21499899 0.53329629 1315860
0.27482197 0.21364422 0.52993584 1315860
0.27405104 0.21230644 0.52661753 1315860
0.27328968 0.2109853 0.52334052 1315860
0.27253774 0.2096805 0.52010399 1315860
0.27179506 0.20839176 0.51690733 1315860
0.27106145 0.20711873 0.51374966 1315860
0.27033675 0.2058612 0.51063037 1315860
0.26993051 0.20485389 0.5081318 1381653
0.27084756 0.20485425 0.5081327 1381653
0.27176464 0.20485462 0.50813359 1381653
0.27268168 0.20485498 0.50813448 1381653
0.27359873 0.20485534 0.50813538 1381653
0.27451581 0.2048557 0.50813627 1381653
0.27543285 0.20485605 0.50813717 1381653
0.27634993 0.20485641 0.50813806 1381653
0.27726701 0.20485678 0.50813895 1381653
0.27818409 0.20485714 0.50813985 1381653
0.27910116 0.2048575 0.50814074 1381653
0.28001821 0.20485784 0.50814158 1381653
0.28093529 0.2048582 0.50814247 1381653
0.28185236 0.20485856 0.50814337 1381653
0.28276947 0.20485891 0.50814426 1381653
0.28368655 0.20485927 0.50814515 1381653
0.28460366 0.20485964 0.50814605 1381653
0.28552076 0.20486 0.50814694 1381653
0.28643787 0.20486036 0.50814784 1381653
0.28735498 0.20486072 0.50814873 1381653
0.28827208 0.20486107 0.50814962 1381653
0.28918919 0.20486145 0.50815052 1381653
0.2901063 0.2048618 0.50815141 1381653
0.29102343 0.20486216 0.50815231 1381653
0.29194054 0.20486252 0.5081532 1381653
0.29285768 0.20486288 0.50815409 1381653
0.28884068 0.23796232 0.5876267 1776411
0.28788915 0.23631121 0.58354944 1315860
0.28695074 0.23468284 0.57952833 1315860
0.28602514 0.23307675 0.57556224 1315860
0.28511214 0.2314925 0.57165009 1315860
0.28421149 0.22992966 0.56779075 1315860
0.2833229 0.22838776 0.5639832 1315860
0.28244615 0.22686639 0.56022632 1315860
0.28158101 0.22536519 0.55651921 1315860
0.28072721 0.22388369 0.5528608 1315860
0.27988458 0.22242156 0.54925019 1315860
0.27905291 0.22097842 0.54568648 1315860
0.27823195 0.21955387 0.54216868 1315860
0.27742147 0.21814753 0.53869587 1315860
0.27662131 0.21675912 0.53526729 1315860
0.27583131 0.21538827 0.53188211 1315860
0.27505118 0.21403463 0.52853942 1315860
0.27428082 0.21269791 0.52523851 1315860
0.27352002 0.21137778 0.52197856 1315860
0.27276862 0.21007393 0.51875883 1315860
0.27202642 0.2087861 0.51557863 1315860
0.27129325 0.20751391 0.51243711 1315860
0.27056897 0.20625716 0.50933367 1315860
0.27084687 0.2057703 0.50813138 1381653
0.27176392 0.20577066 0.50813228 1381653
0.27268097 0.20577103 0.50813317 1381653
0.27359805 0.20577139 0.50813407 1381653
0.27451509 0.20577174 0.50813496 1381653
0.27543214 0.2057721 0.50813586 1381653
0.27634922 0.20577247 0.50813675 1381653
0.27726629 0.20577283 0.50813764 1381653
0.27818337 0.20577319 0.50813854 1381653
0.27910045 0.20577356 0.50813943 1381653
0.28001752 0.20577392 0.50814033 1381653
0.2809346 0.20577428 0.50814122 1381653
0.28185168 0.20577464 0.50814211 1381653
0.28276876 0.20577501 0.50814301 1381653
0.28368586 0.20577537 0.5081439 1381653
0.28460297 0.20577572 0.5081448 1381653
0.28552005 0.2057761 0.50814569 1381653
0.28643712 0.20577642 0.50814652 1381653
0.28735423 0.2057768 0.50814742 1381653
0.28827134 0.20577715 0.50814831 1381653
0.28918844 0.20577751 0.50814921 1381653
0.29010555 0.20577788 0.5081501 1381653
0.29102269 0.20577824 0.50815099 1381653
0.2919398 0.2057786 0.50815189 1381653
0.29285693 0.20577896 0.50815278 1381653
0.29198572 0.24341139 0.59841716 2171169
0.29099461 0.24169166 0.59418929 1315860
0.29001743 0.23999608 0.59002072 1315860
0.28905383 0.23832408 0.5859102 1315860
0.28810358 0.23667525 0.58185661 1315860
0.28716639 0.23504908 0.57785875 1315860
0.28624201 0.23344509 0.57391542 1315860
0.28533012 0.23186284 0.5700255 1315860
0.28443053 0.23030192 0.56618804 1315860
0.28354296 0.22876185 0.56240183 1315860
0.28266716 0.22724223 0.55866593 1315860
0.28180298 0.2257427 0.55497938 1315860
0.28095007 0.2242628 0.55134112 1315860
0.2801083 0.22280221 0.54775029 1315860
0.27927744 0.22136049 0.5442059 1315860
0.27845725 0.21993732 0.54070711 1315860
0.2776475 0.21853232 0.53725296 1315860
0.27684805 0.21714516 0.53384268 1315860
0.27605864 0.21577549 0.53047538 1315860
0.27527919 0.21442299 0.52715033 1315860
0.27450943 0.21308735 0.52386671 1315860
0.2737492 0.21176824 0.52062374 1315860
0.2729983 0.21046536 0.51742065 1315860
0.27225658 0.2091784 0.51425672 1315860
0.27152392 0.20790711 0.51113129 1315860
0.27084622 0.20668636 0.50813013 1315860
0.27176327 0.20668672 0.50813103 1381653
0.27268031 0.20668709 0.50813192 1381653
0.27359736 0.20668745 0.50813282 1381653
0.27451441 0.20668781 0.50813371 1381653
0.27543145 0.20668815 0.50813454 1381653
0.2763485 0.20668852 0.50813544 1381653
0.27726558 0.20668888 0.50813633 1381653
0.27818266 0.20668924 0.50813723 1381653
0.2790997 0.20668961 0.50813812 1381653
0.28001678 0.20668997 0.50813901 1381653
0.28093386 0.20669034 0.50813991 1381653
0.28185096 0.2066907 0.5081408 1381653
0.28276804 0.20669106 0.5081417 1381653
0.28368512 0.20669143 0.50814259 1381653
0.28460222 0.20669179 0.50814348 1381653
0.28551933 0.20669216 0.50814438 1381653
0.28643641 0.20669252 0.50814527 1381653
0.28735352 0.20669289 0.50814617 1381653
0.28827062 0.20669325 0.50814706 1381653
0.28918773 0.2066936 0.50814795 1381653
0.29010484 0.20669398 0.50814885 1381653
0.29102197 0.20669433 0.50814974 1381653
0.29193905 0.20669468 0.50815058 1381653
0.29285616 0.20669504 0.50815147 1381653
0.29421544 0.24727197 0.60522431 1776411
0.29319721 0.24550524 0.60090005 1315860
0.29219341 0.24376357 0.59663713 1315860
0.2912038 0.24204645 0.59243429 1315860
0.29022798 0.24035333 0.58829021 1315860
0.28926572 0.23868375 0.58420372 1315860
0.28831676 0.2370372 0.58017361 1315860
0.28738081 0.23541322 0.57619876 1315860
0.2864576 0.23381133 0.57227796 1315860
0.28554684 0.2322311 0.56841016 1315860
0.28464833 0.23067208 0.56459433 1315860
0.2837618 0.22913384 0.56082934 1315860
0.28288698 0.227616 0.55711424 1315860
0.28202373 0.22611815 0.55344808 1315860
0.28117177 0.22463986 0.54982984 1315860
0.28033084 0.22318079 0.54625857 1315860
0.27950078 0.22174054 0.54273343 1315860
0.27868131 0.22031873 0.53925341 1315860
0.27787229 0.21891505 0.53581774 1315860
0.27707356 0.21752916 0.53242564 1315860
0.27628484 0.21616068 0.52907616 1315860
0.27550599 0.21480931 0.52576852 1315860
0.27473682 0.21347477 0.52250206 1315860
0.27397716 0.21215667 0.5192759 1315860
0.2732268 0.21085475 0.51608932 1315860
0.27248558 0.20956871 0.5129416 1315860
0.2717534 0.20829828 0.50983208 1315860
0.27176255 0.20760275 0.50812972 1381653
0.2726796 0.20760313 0.50813061 1381653
0.27359664 0.20760348 0.5081315 1381653
0.27451369 0.20760386 0.5081324 1381653
0.27543077 0.20760421 0.50813329 1381653
0.27634782 0.20760459 0.50813419 1381653
0.27726489 0.20760494 0.50813508 1381653
0.27818197 0.20760532 0.50813597 1381653
0.27909902 0.20760567 0.50813687 1381653
0.28001609 0.20760605 0.50813776 1381653
0.28093314 0.20760639 0.5081386 1381653
0.28185022 0.20760675 0.50813949 1381653
0.2827673 0.20760712 0.50814039 1381653
0.2836844 0.20760748 0.50814128 1381653
0.28460148 0.20760785 0.50814217 1381653
0.28551859 0.20760821 0.50814307 1381653
0.28643566 0.20760858 0.50814396 1381653
0.28735277 0.20760894 0.50814486 1381653
0.28826988 0.20760931 0.50814575 1381653
0.28918698 0.20760967 0.50814664 1381653
0.29010409 0.20761004 0.50814754 1381653
0.2910212 0.2076104 0.50814843 1381653
0.29193833 0.20761077 0.50814933 1381653
0.29285544 0.20761113 0.50815022 1381653
0.29755816 0.25306347 0.61667699 1776411
0.29649645 0.25122139 0.6121881 1315860
0.29545012 0.24940594 0.60776412 1315860
0.29441878 0.24761653 0.60340363 1315860
0.29340214 0.24585262 0.59910524 1315860
0.29239988 0.24411365 0.59486765 1315860
0.2914117 0.24239913 0.5906896 1315860
0.29043731 0.24070852 0.58656985 1315860
0.28947639 0.23904131 0.58250713 1315860
0.28852874 0.23739706 0.57850033 1315860
0.28759399 0.23577526 0.57454824 1315860
0.28667197 0.23417549 0.57064986 1315860
0.28576234 0.23259725 0.56680393 1315860
0.2848649 0.23104016 0.56300956 1315860
0.28397939 0.22950378 0.55926561 1315860
0.28310558 0.22798769 0.55557114 1315860
0.28224328 0.22649151 0.55192518 1315860
0.28139216 0.22501484 0.54832673 1315860
0.28055212 0.22355729 0.54477495 1315860
0.27972287 0.2221185 0.54126883 1315860
0.2789042 0.2206981 0.53780752 1315860
0.27809593 0.21929576 0.53439021 1315860
0.27729788 0.21791111 0.53101605 1315860
0.27650982 0.21654384 0.52768421 1315860
0.27573162 0.21519363 0.52439398 1315860
0.27496302 0.21386014 0.52114445 1315860
0.27420393 0.21254307 0.51793498 1315860
0.27345413 0.21124215 0.51476485 1315860
0.27271345 0.20995705 0.51163322 1315860
0.27198172 0.20868748 0.5085395 1315860
0.27267888 0.20851916 0.5081293 1381653
0.27359596 0.20851952 0.50813019 1381653
0.27451301 0.20851989 0.50813109 1381653
0.27543005 0.20852026 0.50813198 1381653
0.2763471 0.20852062 0.50813287 1381653
0.27726418 0.20852099 0.50813377 1381653
0.27818123 0.20852135 0.50813466 1381653
0.2790983 0.20852172 0.50813556 1381653
0.28001538 0.2085221 0.50813645 1381653
0.28093246 0.20852245 0.50813735 1381653
0.28184953 0.20852283 0.50813824 1381653
0.28276661 0.2085232 0.50813913 1381653
0.28368369 0.20852356 0.50814003 1381653
0.28460079 0.20852393 0.50814092 1381653
0.28551787 0.20852429 0.50814182 1381653
0.28643495 0.20852463 0.50814265 1381653
0.28735203 0.208525 0.50814354 1381653
0.28826913 0.20852537 0.50814444 1381653
0.28918624 0.20852573 0.50814533 1381653
0.29010335 0.2085261 0.50814623 1381653
0.29102045 0.20852646 0.50814712 1381653
0.29193756 0.20852683 0.50814801 1381653
0.2928547 0.20852721 0.50814891 1381653
0.3010298 0.25907838 0.62857145 2171169
0.29992202 0.2571564 0.6239084 1315860
0.29883057 0.25526273 0.61931401 1315860
0.29775509 0.25339678 0.61478686 1315860
0.29669517 0.25155789 0.61032534 1315860
0.29565054 0.24974547 0.60592812 1315860
0.2946209 0.24795902 0.60159385 1315860
0.29360586 0.24619794 0.59732115 1315860
0.2926051 0.24446167 0.59310865 1315860
0.29161841 0.24274975 0.58895522 1315860
0.29064542 0.24106161 0.58485949 1315860
0.28968588 0.23939681 0.58082038 1315860
0.28873947 0.23775484 0.57683665 1315860
0.28780597 0.23613524 0.57290721 1315860
0.28688511 0.23453756 0.56903094 1315860
0.28597662 0.23296136 0.56520677 1315860
0.28508028 0.2314062 0.56143367 1315860
0.28419581 0.22987165 0.55771059 1315860
0.28332302 0.22835734 0.55403662 1315860
0.28246161 0.22686285 0.55041069 1315860
0.28161144 0.22538778 0.54683191 1315860
0.28077224 0.22393177 0.54329938 1315860
0.27994379 0.22249445 0.53981215 1315860
0.2791259 0.22107545 0.53636938 1315860
0.27831835 0.21967442 0.53297025 1315860
0.27752098 0.21829104 0.52961391 1315860
0.27673364 0.216925 0.52629966 1315860
0.27595603 0.21557592 0.52302653 1315860
0.27518809 0.21424353 0.51979393 1315860
0.27442956 0.21292752 0.51660103 1315860
0.2736803 0.21162756 0.51344711 1315860
0.2729401 0.21034339 0.51033145 1315860
0.27267823 0.20943521 0.50812805 1381653
0.27359527 0.20943558 0.50812894 1381653
0.27451232 0.20943594 0.50812984 1381653
0.27542934 0.20943628 0.50813067 1381653
0.27634639 0.20943666 0.50813156 1381653
0.27726346 0.20943703 0.50813246 1381653
0.27818051 0.2094374 0.50813335 1381653
0.27909759 0.20943776 0.50813425 1381653
0.28001466 0.20943813 0.50813514 1381653
0.28093174 0.2094385 0.50813603 1381653
0.28184882 0.20943888 0.50813693 1381653
0.2827659 0.20943923 0.50813782 1381653
0.28368297 0.20943961 0.50813872 1381653
0.28460005 0.20943998 0.50813961 1381653
0.28551713 0.20944034 0.5081405 1381653
0.28643423 0.20944071 0.5081414 1381653
0.28735134 0.20944108 0.50814229 1381653
0.28826842 0.20944145 0.50814319 1381653
0.28918552 0.20944181 0.50814408 1381653
0.29010263 0.20944218 0.50814497 1381653
0.29101974 0.20944256 0.50814587 1381653
0.29193684 0.20944293 0.50814676 1381653
0.29285392 0.20944327 0.5081476 1381653
0.30348134 0.26332313 0.63608623 1315860
0.302342 0.26134649 0.63131142 1315860
0.3012197 0.25939932 0.62660784 1315860
0.30011395 0.25748092 0.62197375 1315860
0.29902443 0.25559071 0.61740774 1315860
0.2979508 0.25372803 0.61290824 1315860
0.2968927 0.25189233 0.6084739 1315860
0.29584983 0.250083 0.60410327 1315860
0.2948218 0.24829948 0.59979492 1315860
0.29380834 0.2465412 0.59554762 1315860
0.29280916 0.24480765 0.59136003 1315860
0.29182392 0.24309833 0.58723098 1315860
0.29085231 0.24141267 0.58315909 1315860
0.2898941 0.23975025 0.57914335 1315860
0.28894901 0.23811059 0.57518256 1315860
0.28801677 0.23649319 0.57127553 1315860
0.2870971 0.23489761 0.56742126 1315860
0.28618973 0.23332341 0.5636186 1315860
0.28529447 0.23177019 0.55986661 1315860
0.28441101 0.23023748 0.55616421 1315860
0.28353918 0.22872493 0.55251044 1315860
0.28267875 0.22723213 0.54890442 1315860
0.28182945 0.22575867 0.54534513 1315860
0.28099114 0.22430421 0.54183173 1315860
0.28016347 0.22286835 0.53836322 1315860
0.27934638 0.22145076 0.53493887 1315860
0.2785396 0.22005108 0.5315578 1315860
0.27774298 0.218669 0.52821922 1315860
0.27695629 0.21730416 0.52492231 1315860
0.27617931 0.21595623 0.52166623 1315860
0.27541196 0.21462496 0.51845038 1315860
0.27465403 0.21330999 0.51527393 1315860
0.27390528 0.21201101 0.5121361 1315860
0.27316561 0.21072777 0.5090363 1315860
0.27359456 0.2103516 0.50812763 1381653
0.27451161 0.21035197 0.50812852 1381653
0.27542865 0.21035235 0.50812942 1381653
0.27634573 0.2103527 0.50813031 1381653
0.27726278 0.21035308 0.50813121 1381653
0.27817982 0.21035345 0.5081321 1381653
0.2790969 0.21035382 0.50813299 1381653
0.28001398 0.21035419 0.50813389 1381653
0.280931 0.21035454 0.50813472 1381653
0.28184807 0.21035491 0.50813562 1381653
0.28276515 0.21035528 0.50813651 1381653
0.28368223 0.21035565 0.5081374 1381653
0.2845993 0.21035601 0.5081383 1381653
0.28551641 0.21035638 0.50813919 1381653
0.28643349 0.21035676 0.50814009 1381653
0.28735059 0.21035713 0.50814098 1381653
0.28826767 0.2103575 0.50814188 1381653
0.28918478 0.21035787 0.50814277 1381653
0.29010189 0.21035823 0.50814366 1381653
0.29101899 0.2103586 0.50814456 1381653
0.2919361 0.21035898 0.50814545 1381653
0.29285321 0.21035935 0.50814635 1381653
0.30482012 0.26563719 0.63889229 2235933
0.30366573 0.26363447 0.63407546 1315860
0.30252862 0.26166171 0.62933069 1315860
0.30140835 0.25971824 0.62465638 1315860
0.30030468 0.25780344 0.62005109 1315860
0.2992171 0.25591668 0.61551315 1315860
0.29814535 0.25405732 0.61104113 1315860
0.29708907 0.25222477 0.60663366 1315860
0.29604787 0.25041848 0.60228926 1315860
0.29502153 0.2486379 0.59800673 1315860
0.29400969 0.24688244 0.59378463 1315860
0.29301199 0.24515159 0.58962172 1315860
0.29202819 0.24344485 0.58551675 1315860
0.291058 0.2417617 0.58146858 1315860
0.29010117 0.24010168 0.57747602 1315860
0.28915736 0.2384643 0.57353789 1315860
0.28822634 0.23684908 0.56965309 1315860
0.28730783 0.23525561 0.56582057 1315860
0.28640163 0.23368345 0.56203932 1315860
0.28550744 0.23213215 0.55830824 1315860
0.28462502 0.2306013 0.55462635 1315860
0.2837542 0.22909053 0.55099273 1315860
0.2828947 0.2275994 0.54740638 1315860
0.28204632 0.22612758 0.54386646 1315860
0.28120884 0.22467466 0.54037201 1315860
0.28038204 0.22324027 0.5369221 1315860
0.27956572 0.22182408 0.53351599 1315860
0.27875969 0.22042577 0.53015286 1315860
0.27796376 0.21904494 0.52683181 1315860
0.27717775 0.21768132 0.52355212 1315860
0.27640146 0.21633458 0.52031302 1315860
0.27563471 0.2150044 0.51711375 1315860
0.27487731 0.21369046 0.51395357 1315860
0.27412915 0.21239251 0.51083183 1315860
0.27359387 0.21126762 0.50812632 1381653
0.27451089 0.21126799 0.50812721 1381653
0.27542797 0.21126837 0.50812811 1381653
0.27634501 0.21126874 0.508129 1381653
0.27726206 0.21126911 0.50812989 1381653
0.27817911 0.21126948 0.50813079 1381653
0.27909619 0.21126986 0.50813168 1381653
0.28001323 0.21127023 0.50813258 1381653
0.28093031 0.2112706 0.50813347 1381653
0.28184739 0.21127097 0.50813437 1381653
0.28276446 0.21127133 0.50813526 1381653
0.28368154 0.2112717 0.50813615 1381653
0.28459862 0.21127208 0.50813705 1381653
0.2855157 0.21127245 0.50813794 1381653
0.2864328 0.21127282 0.50813884 1381653
0.28734985 0.21127318 0.50813967 1381653
0.28826693 0.21127354 0.50814056 1381653
0.28918403 0.21127391 0.50814146 1381653
0.29010114 0.21127428 0.50814235 1381653
0.29101825 0.21127465 0.50814325 1381653
0.29193535 0.21127503 0.50814414 1381653
0.29285246 0.2112754 0.50814503 1381653
0.30500105 0.26594254 0.63686371 1315860
0.30384895 0.26394385 0.63207734 1315860
0.30271402 0.26197493 0.62736231 1315860
0.3015959 0.26003519 0.62271714 1315860
0.30049419 0.25812396 0.61814022 1315860
0.29940858 0.25624064 0.61363012 1315860
0.29833871 0.25438458 0.60918534 1315860
0.29728419 0.25255519 0.60480446 1315860
0.29624477 0.25075197 0.60048622 1315860
0.29522005 0.24897429 0.59622914 1315860
0.29420978 0.24722165 0.59203202 1315860
0.29321364 0.2454935 0.58789355 1315860
0.29223129 0.24378935 0.58381253 1315860
0.29126254 0.24210872 0.57978785 1315860
0.29030702 0.24045108 0.57581824 1315860
0.28936449 0.23881596 0.57190257 1315860
0.28843471 0.23720296 0.56803983 1315860
0.2875174 0.2356116 0.56422895 1315860
0.28661233 0.23404145 0.56046885 1315860
0.28571922 0.23249209 0.55675852 1315860
0.28483787 0.23096311 0.55309701 1315860
0.28396803 0.2294541 0.5494833 1315860
0.28310949 0.22796468 0.54591656 1315860
0.282262 0.22649448 0.54239577 1315860
0.28142539 0.2250431 0.5389201 1315860
0.28059942 0.22361019 0.53548867 1315860
0.27978387 0.22219543 0.53210068 1315860
0.27897859 0.22079845 0.52875525 1315860
0.2781834 0.21941893 0.52545166 1315860
0.27739805 0.21805653 0.52218908 1315860
0.27662241 0.21671097 0.51896679 1315860
0.27585629 0.21538191 0.51578403 1315860
0.27509949 0.21406901 0.51264 1315860
0.27435187 0.21277206 0.50953412 1315860
0.27451023 0.21218403 0.50812596 1381653
0.27542728 0.2121844 0.50812685 1381653
0.2763443 0.21218476 0.50812769 1381653
0.27726135 0.21218513 0.50812858 1381653
0.27817839 0.2121855 0.50812948 1381653
0.27909547 0.21218587 0.50813037 1381653
0.28001252 0.21218625 0.50813127 1381653
0.2809296 0.21218662 0.50813216 1381653
0.28184664 0.21218699 0.50813305 1381653
0.28276372 0.21218736 0.50813395 1381653
0.2836808 0.21218774 0.50813484 1381653
0.28459787 0.21218811 0.50813574 1381653
0.28551495 0.21218848 0.50813663 1381653
0.28643206 0.21218885 0.50813752 1381653
0.28734913 0.21218924 0.50813842 1381653
0.28826624 0.21218961 0.50813931 1381653
0.28918332 0.21218999 0.50814021 1381653
0.29010043 0.21219036 0.5081411 1381653
0.29101753 0.21219073 0.50814199 1381653
0.29193464 0.2121911 0.50814289 1381653
0.29285169 0.21219145 0.50814372 1381653
0.30634823 0.26827106 0.63967669 2236190
0.30518088 0.26624599 0.63484806 1315860
0.30403101 0.26425126 0.63009173 1315860
0.30289826 0.26228622 0.62540621 1315860
0.30178225 0.26035017 0.62078983 1315860
0.30068257 0.25844249 0.6162411 1315860
0.2995989 0.25656259 0.61175859 1315860
0.29853088 0.25470984 0.60734075 1315860
0.2974782 0.25288364 0.60298634 1315860
0.29644045 0.25108343 0.59869385 1315860
0.29541743 0.24930871 0.5944621 1315860
0.29440871 0.24755888 0.59028971 1315860
0.29341409 0.24583343 0.5861755 1315860
0.29243323 0.24413186 0.58211821 1315860
0.29146588 0.24245372 0.57811677 1315860
0.2905117 0.24079847 0.57416993 1315860
0.28957048 0.23916568 0.57027662 1315860
0.2886419 0.23755485 0.56643569 1315860
0.28772581 0.23596561 0.56264627 1315860
0.28682187 0.23439749 0.55890715 1315860
0.28592986 0.23285004 0.55521739 1315860
0.28504953 0.23132291 0.55157602 1315860
0.2841807 0.22981571 0.54798216 1315860
0.28332311 0.22832799 0.54443479 1315860
0.28247654 0.22685939 0.54093301 1315860
0.28164077 0.22540957 0.537476 1315860
0.28081563 0.22397815 0.53406286 1315860
0.2800009 0.2225648 0.53069282 1315860
0.27919635 0.22116917 0.52736503 1315860
0.27840188 0.21979095 0.52407873 1315860
0.27761722 0.2184298 0.52083313 1315860
0.27684224 0.21708539 0.51762748 1315860
0.2760767 0.21575743 0.51446104 1315860
0.27532053 0.21444565 0.51133317 1315860
0.27457348 0.2131497 0.50824302 1315860
0.27542657 0.21310042 0.50812554 1381653
0.27634361 0.21310079 0.50812644 1381653
0.27726066 0.21310116 0.50812733 1381653
0.27817771 0.21310155 0.50812823 1381653
0.27909479 0.21310192 0.50812912 1381653
0.28001183 0.2131023 0.50813001 1381653
0.28092891 0.21310267 0.50813091 1381653
0.28184593 0.21310303 0.50813174 1381653
0.282763 0.2131034 0.50813264 1381653
0.28368008 0.21310377 0.50813353 1381653
0.28459716 0.21310414 0.50813442 1381653
0.28551424 0.21310452 0.50813532 1381653
0.28643131 0.21310489 0.50813621 1381653
0.28734839 0.21310528 0.50813711 1381653
0.2882655 0.21310565 0.508138 1381653
0.28918257 0.21310602 0.5081389 1381653
0.29009968 0.21310639 0.50813979 1381653
0.29101676 0.21310677 0.50814068 1381653
0.29193386 0.21310714 0.50814158 1381653
0.29285097 0.21310753 0.50814247 1381653
0.30652454 0.2685684 0.63764316 1315860
0.30535954 0.26654747 0.63284504 1315860
0.30421197 0.26455677 0.62811863 1315860
0.30308139 0.26259556 0.62346226 1315860
0.30196744 0.26066321 0.61887443 1315860
0.30086979 0.25875911 0.61435366 1315860
0.29978809 0.25688264 0.60989845 1315860
0.29872191 0.25503317 0.60550737 1315860
0.29767099 0.25321013 0.60117906 1315860
0.296635 0.25141296 0.59691221 1315860
0.29561359 0.24964114 0.59270549 1315860
0.29460651 0.24789412 0.58855766 1315860
0.2936134 0.24617137 0.58446747 1315860
0.29263398 0.2444724 0.58043373 1315860
0.29166803 0.24279673 0.5764553 1315860
0.29071522 0.24114388 0.57253104 1315860
0.28977528 0.23951337 0.56865984 1315860
0.28884795 0.23790476 0.56484061 1315860
0.28793302 0.2363176 0.56107235 1315860
0.28703022 0.23475151 0.55735409 1315860
0.28613931 0.23320603 0.55368477 1315860
0.28526005 0.23168077 0.55006343 1315860
0.28439218 0.2301753 0.54648912 1315860
0.28353554 0.2286893 0.542961 1315860
0.2826899 0.22722235 0.53947812 1315860
0.28185502 0.22577408 0.53603959 1315860
0.28103068 0.22434415 0.53264463 1315860
0.28021675 0.22293223 0.5292924 1315860
0.27941301 0.22153799 0.52598214 1315860
0.27861926 0.22016107 0.52271301 1315860
0.27783528 0.21880113 0.51948422 1315860
0.27706093 0.21745791 0.51629508 1315860
0.27629605 0.21613109 0.51314491 1315860
0.27554044 0.21482034 0.51003289 1315860
0.27542585 0.21401642 0.50812423 1381653
0.2763429 0.21401681 0.50812513 1381653
0.27725995 0.21401718 0.50812602 1381653
0.27817699 0.21401756 0.50812691 1381653
0.27909404 0.21401793 0.50812781 1381653
0.28001112 0.21401832 0.5081287 1381653
0.28092816 0.21401869 0.5081296 1381653
0.28184524 0.21401906 0.50813049 1381653
0.28276229 0.21401945 0.50813138 1381653
0.28367937 0.21401982 0.50813228 1381653
0.28459644 0.21402019 0.50813317 1381653
0.28551352 0.21402057 0.50813407 1381653
0.2864306 0.21402095 0.50813496 1381653
0.28734764 0.2140213 0.5081358 1381653
0.28826475 0.21402168 0.50813669 1381653
0.28918183 0.21402206 0.50813758 1381653
0.29009894 0.21402243 0.50813848 1381653
0.29101601 0.2140228 0.50813937 1381653
0.29193312 0.21402319 0.50814027 1381653
0.29285023 0.21402356 0.50814116 1381653
0.30669972 0.26886386 0.6356225 1315860
0.30553707 0.2668471 0.63085467 1315860
0.30439177 0.26486036 0.62615782 1315860
0.30326337 0.26290298 0.62153035 1315860
0.30215153 0.26097435 0.61697084 1315860
0.30105588 0.25907379 0.61247772 1315860
0.29997608 0.25720072 0.60804957 1315860
0.29891178 0.25535449 0.60368496 1315860
0.29786265 0.25353462 0.59938258 1315860
0.29682836 0.25174052 0.59514111 1315860
0.29580864 0.24997161 0.59095925 1315860
0.29480311 0.2482274 0.58683574 1315860
0.29381153 0.24650735 0.58276933 1315860
0.2928336 0.24481098 0.57875896 1315860
0.29186901 0.24313779 0.57480335 1315860
0.29091755 0.24148731 0.57090145 1315860
0.28997892 0.2398591 0.56705219 1315860
0.28905284 0.2382527 0.56325448 1315860
0.2881391 0.23666766 0.55950731 1315860
0.28723744 0.23510359 0.55580968 1315860
0.2863476 0.23356004 0.55216056 1315860
0.28546938 0.23203664 0.54855907 1315860
0.28460258 0.230533 0.54500431 1315860
0.28374687 0.22904867 0.5414952 1315860
0.28290209 0.22758333 0.53803098 1315860
