# .PCD v0.7 - Point Cloud Data file format
VERSION 0.7
FIELDS x y z rgb
SIZE 4 4 4 4
TYPE F F F U
COUNT 1 1 1 1
WIDTH 1116
HEIGHT 1
VIEWPOINT 0 0 0 1 0 0 0
POINTS 1116
DATA ascii
-0.044226389 0.090519436 0.45828685 6574403
-0.043250103 0.090207361 0.45670685 4012345
-0.042272214 0.089879751 0.45504823 5418
-0.041301399 0.089554518 0.45340163 5161
-0.040337585 0.089231633 0.45176688 5161
-0.039441291 0.089047864 0.45083648 5419
-0.038566273 0.088905409 0.45011526 5419
-0.037694052 0.088763408 0.44939634 5419
-0.036824614 0.08862187 0.44867975 5419
-0.03595794 0.088480771 0.44796538 5419
-0.035094023 0.088340126 0.44725332 5419
-0.034232847 0.088199928 0.44654351 5419
-0.033389539 0.088100106 0.44603813 5677
-0.032587763 0.08810766 0.44607636 5934
-0.031788975 0.088123865 0.44615844 5935
-0.030989893 0.088140085 0.44624054 5935
-0.030190514 0.088156305 0.44632265 5935
-0.029390844 0.088172533 0.44640481 5935
-0.028590878 0.088188767 0.44648701 5935
-0.027790619 0.08820501 0.44656923 5935
-0.026990063 0.088221252 0.44665149 5935
-0.026189212 0.088237502 0.44673374 5935
-0.025388068 0.088253759 0.44681606 5935
-0.024586627 0.088270023 0.4468984 5935
-0.023784893 0.088286296 0.44698077 5935
-0.02298286 0.088302568 0.44706318 5935
-0.022180533 0.088318855 0.44714561 5935
-0.02137791 0.088335142 0.44722807 5935
-0.020574991 0.088351436 0.44731057 5935
-0.019774338 0.088379189 0.44745108 5934
-0.018989015 0.088480726 0.44796517 5934
-0.018201884 0.088582501 0.44848043 5934
-0.01741294 0.088684507 0.44899687 5934
-0.016622176 0.088786751 0.44951451 5934
-0.015829589 0.088889234 0.45003337 5934
-0.015035169 0.088991947 0.45055339 5934
-0.014240596 0.089105442 0.45112801 5934
-0.013454231 0.089287177 0.45204809 3159355
-0.012675839 0.089548677 0.45337203 6707020
-0.011892876 0.08981172 0.45470378 6445908
-0.011105298 0.090076305 0.45604336 6052952
-0.010313067 0.090342462 0.45739087 6576979
-0.0095155593 0.090604678 0.45871842 7297867
-0.0087131606 0.090865821 0.46004054 7363403
-0.0079061231 0.091128469 0.46137029 7363403
-0.0070944056 0.091392636 0.46270776 7297867
-0.0062779691 0.091658346 0.464053 7101262
-0.059417363 0.097268425 0.48799938 6838348
-0.058181908 0.096678205 0.48503825 7630183
-0.057009224 0.096175864 0.48251799 6969681
-0.055878393 0.095729649 0.4802793 5515298
-0.054756336 0.095284648 0.47804672 5119257
-0.053634338 0.094825514 0.4757432 4661541
-0.052523103 0.094370775 0.47346178 5118743
-0.051422473 0.09392038 0.47120214 5316634
-0.050342076 0.093492426 0.46905506 5647909
-0.049299657 0.093121573 0.4671945 6508097
-0.048265476 0.092753649 0.4653486 6574146
-0.047239434 0.092388622 0.46351725 6574403
-0.046234217 0.092051908 0.46182793 6574403
-0.045242749 0.091730714 0.46021649 6574403
-0.044258181 0.091411762 0.45861629 6574403
-0.043269556 0.091072112 0.45691225 6443074
-0.042291153 0.090741217 0.45525214 3224118
-0.04131984 0.090412714 0.45360404 5418
-0.04035553 0.090086587 0.45196784 5161
-0.039428927 0.089832917 0.45069516 5418
-0.038554203 0.089689247 0.44997439 5419
-0.037682272 0.089546047 0.44925594 5419
-0.036813125 0.089403301 0.44853976 5419
-0.035946742 0.08926101 0.44782588 5419
-0.035087079 0.089129247 0.44716483 5418
-0.034236562 0.089015059 0.44659194 5418
-0.03338822 0.088901162 0.44602051 5419
-0.032580066 0.088891298 0.44597101 5677
-0.031773664 0.088885821 0.44594356 5678
-0.030970601 0.088889651 0.44596276 5678
-0.030171718 0.088905998 0.44604477 5935
-0.029372541 0.088922352 0.44612682 5935
-0.028573072 0.088938713 0.44620892 5935
-0.027773306 0.088955082 0.44629103 5935
-0.026973246 0.088971451 0.44637316 5935
-0.026172893 0.088987835 0.44645536 5935
-0.025372243 0.089004219 0.44653755 5935
-0.0245713 0.08902061 0.44661981 5935
-0.02377006 0.089037009 0.44670206 5935
-0.022968527 0.089053415 0.44678438 5935
-0.022166697 0.089069821 0.44686669 5935
-0.021364573 0.089086242 0.44694906 5935
-0.020562151 0.089102656 0.44703144 5934
-0.01977561 0.089192033 0.44747984 5934
-0.018990237 0.089294516 0.44799399 5934
-0.018203055 0.089397229 0.44850931 5934
-0.017414063 0.089500181 0.44902584 5934
-0.016623249 0.089603372 0.44954354 5934
-0.015830612 0.089706801 0.45006245 5934
-0.015036142 0.089810476 0.45058256 925490
-0.014240554 0.089918926 0.45112666 3815996
-0.013450239 0.090075843 0.45191392 6246984
-0.012672068 0.090339579 0.45323712 6708050
-0.011889326 0.090604864 0.45456806 6052952
-0.011101974 0.090871714 0.45590684 6052953
-0.010309945 0.091139913 0.45725241 6446164
-0.0095123993 0.091401748 0.45856607 7297611
-0.0087102586 0.091665097 0.4598873 7363403
-0.0079034809 0.091929965 0.46121615 7363403
-0.0070920289 0.092196375 0.46255273 7100745
-0.0062801088 0.092526935 0.46421117 6706505
-0.059869375 0.098895334 0.4917118 6574660
-0.058249213 0.097665973 0.48559934 7498082
-0.057105403 0.09720996 0.48333204 7629670
-0.055972226 0.096758187 0.48108581 5647398
-0.054849532 0.096310593 0.47886035 5119257
-0.053730108 0.095854513 0.47659269 4335407
-0.052616436 0.095394023 0.47430313 4987672
-0.051513415 0.094937943 0.47203547 5184278
-0.050428949 0.094501309 0.46986449 5316634
-0.049363554 0.094086088 0.46780002 5780009
-0.048322327 0.0937033 0.46589676 6508353
-0.047294859 0.093334101 0.46406111 6574147
-0.04627854 0.092974007 0.46227068 6574403
-0.045285974 0.092649288 0.46065617 6574403
-0.044300318 0.092326827 0.45905289 6574403
-0.043315213 0.091993265 0.45739439 6574403
-0.042321727 0.091628596 0.45558125 6377282
-0.041338295 0.091271676 0.45380664 2435891
-0.040373489 0.090942301 0.45216897 5161
-0.03941657 0.090617478 0.45055392 5418
-0.038542144 0.090472609 0.44983363 5419
-0.037670504 0.090328194 0.4491156 5419
-0.036801644 0.090184242 0.44839987 5418
-0.035946526 0.090068258 0.4478232 5418
-0.035093654 0.0899527 0.44724864 5418
-0.034242969 0.089837432 0.44667551 5418
-0.03339446 0.089722462 0.44610387 5419
-0.032577172 0.089687772 0.4459314 5677
-0.031770844 0.089682251 0.44590396 5677
-0.030964609 0.08967673 0.44587648 5677
-0.030158477 0.089671209 0.44584903 5677
-0.029354261 0.089671239 0.44584918 5678
-0.028555285 0.089687727 0.44593117 5935
-0.027756015 0.089704223 0.44601318 5935
-0.02695645 0.089720726 0.44609523 5935
-0.026156591 0.089737229 0.4461773 5935
-0.025356438 0.089753747 0.44625941 5935
-0.02455599 0.089770265 0.44634154 5935
-0.023755249 0.08978679 0.44642371 5935
-0.022954213 0.089803323 0.4465059 5935
-0.02215288 0.089819856 0.44658813 5935
-0.021351252 0.089836404 0.44667038 5935
-0.020560501 0.089901805 0.44699556 5934
-0.019776881 0.090004988 0.4475086 5934
-0.018991457 0.09010841 0.44802281 5934
-0.018204229 0.090212069 0.44853821 5934
-0.017415186 0.090315968 0.44905481 5934
-0.016624324 0.090420097 0.44957256 991282
-0.015832666 0.090530381 0.45012087 4013118
-0.015039088 0.090640992 0.45067084 6312520
-0.014246371 0.090769738 0.45131096 6641227
-0.013452559 0.090906687 0.45199189 6773585
-0.012668297 0.091130003 0.45310223 6118231
-0.011885778 0.091397531 0.4544324 5987160
-0.01109865 0.091666631 0.45577037 6052952
-0.010306532 0.091934256 0.45710102 6380373
-0.0095092412 0.09219829 0.45841381 7297611
-0.0087073585 0.092463851 0.45973417 7363403
-0.0079008425 0.092730939 0.46106213 7166282
-0.007103465 0.093180746 0.46329862 7166282
-0.0062818243 0.093389787 0.46433797 7166282
-0.059764072 0.099606782 0.49084693 6508354
-0.058347799 0.098708682 0.48642123 7036242
-0.057201911 0.098247558 0.48414886 7563877
-0.056066375 0.097790189 0.48189503 5911598
-0.054941367 0.097337067 0.47966212 5184793
-0.053826217 0.096887194 0.47744519 4270129
-0.052710101 0.096420914 0.47514746 4661283
-0.051604677 0.095959112 0.47287175 5052950
-0.050519466 0.095520005 0.47070789 5184278
-0.049448758 0.095093764 0.46860746 5316634
-0.048391715 0.094679445 0.46656576 5846573
-0.047350414 0.0942818 0.46460623 6574146
-0.046329599 0.09391135 0.46278071 6574403
-0.04532928 0.093569614 0.46109667 6574403
-0.044341154 0.093240745 0.45947608 6574403
-0.043354779 0.0929031 0.45781219 6574403
-0.042371299 0.09255866 0.45611486 6574403
-0.041382086 0.092187814 0.45428738 6048833
-0.04040077 0.091819927 0.4524745 1844528
-0.039433111 0.091468558 0.45074299 5418
-0.038530089 0.091255471 0.44969293 5419
-0.037665945 0.091127291 0.44906127 5418
-0.036808509 0.091010049 0.44848353 5418
-0.035953272 0.090893105 0.44790724 5418
-0.035100229 0.090776458 0.44733244 5418
-0.034249377 0.09066011 0.4467591 5418
-0.033400699 0.090544067 0.44618726 5418
-0.032574281 0.090484113 0.4458918 5677
-0.03176802 0.090478539 0.44586435 5677
-0.030961862 0.090472974 0.4458369 5677
-0.030155798 0.090467393 0.44580942 5677
-0.029349837 0.090461828 0.44578198 5677
-0.028543973 0.090456255 0.44575453 5677
-0.027738746 0.090452433 0.44573569 5678
-0.026939675 0.090469062 0.44581762 5935
-0.026140312 0.090485699 0.44589961 5935
-0.025340654 0.090502337 0.44598159 5935
-0.024540702 0.090518981 0.44606364 5935
-0.023740456 0.090535641 0.44614571 5935
-0.022939915 0.090552293 0.44622779 5935
-0.02213908 0.09056896 0.44630992 5935
-0.021343697 0.090610035 0.44651234 5934
-0.020561822 0.090713918 0.44702426 5934
-0.019778151 0.09081804 0.44753736 5934
-0.018992681 0.090922408 0.44805166 5934
-0.018205654 0.091028266 0.44857332 1188146
-0.017417695 0.091139108 0.44911951 4209982
-0.016627816 0.091250218 0.44966704 6378056
-0.01583601 0.091361597 0.45021591 6707020
-0.015044248 0.091485292 0.45082545 6707792
-0.014252492 0.091623165 0.45150489 6183252
-0.013458349 0.09176147 0.45218641 5921111
-0.012664529 0.091919966 0.45296746 5921367
-0.011882232 0.092189729 0.45429683 5987416
-0.01109533 0.092461079 0.455634 6052696
-0.01030312 0.092728086 0.45694974 6249301
-0.009506084 0.092994303 0.45826164 7232075
-0.0087152431 0.093377605 0.46015048 7100746
-0.007923591 0.093832001 0.46238968 7429196
-0.0071007619 0.09398067 0.46312231 7429196
-0.0062923059 0.094384588 0.46511275 7034696
-0.059659135 0.10031573 0.48998508 6508353
-0.058452949 0.099765562 0.4872978 6640453
-0.05729707 0.099285759 0.48495427 7168088
-0.056160845 0.098825671 0.48270699 6110005
-0.055033509 0.098366976 0.48046654 5185049
-0.053916588 0.097912528 0.47824681 4400685
-0.052804101 0.097451471 0.47599483 4335151
-0.051696263 0.096983895 0.47371098 4987672
-0.050610315 0.096542366 0.47155434 5118229
-0.049535908 0.096108124 0.46943334 5184279
-0.048475023 0.095685482 0.46736896 5316891
-0.047424998 0.09526968 0.46533802 6177078
-0.046384055 0.094857484 0.46332467 6574146
-0.045372665 0.094491698 0.46153802 6574403
-0.044381846 0.094155878 0.45989773 6574403
-0.04339442 0.093814604 0.45823079 6574403
-0.042414125 0.093475789 0.45657587 6574403
-0.041430417 0.093115889 0.45481798 6574403
-0.040447764 0.092743866 0.45300084 5589055
-0.039472934 0.092374802 0.45119819 1450543
-0.038537592 0.092084564 0.44978052 5161
-0.037673086 0.091954738 0.44914642 5418
-0.036815424 0.091836281 0.44856781 5418
-0.035960019 0.091718256 0.44799131 5418
-0.035106808 0.091600522 0.44741628 5418
-0.034255788 0.091483101 0.44684273 5418
-0.033406947 0.091365986 0.44627067 5418
-0.03257139 0.091280311 0.44585222 5676
-0.0317652 0.091274686 0.44582474 5677
-0.030959111 0.091269068 0.44579729 5677
-0.030153122 0.091263451 0.44576985 5677
-0.029347232 0.091257825 0.4457424 5677
-0.02854144 0.091252208 0.44571495 5677
-0.027735749 0.091246597 0.44568753 5677
-0.026930155 0.091240972 0.44566008 5677
-0.026124664 0.091235362 0.44563267 5678
-0.025324889 0.091249995 0.44570413 5935
-0.024525432 0.091266774 0.44578609 5935
-0.023725681 0.091283552 0.44586805 5935
-0.022925636 0.091300339 0.44595003 5935
-0.022125296 0.091317132 0.44603205 5934
-0.021345066 0.091421321 0.44654098 5934
-0.020563142 0.091526143 0.44705296 5934
-0.019779986 0.091633812 0.44757885 1319731
-0.018995689 0.091745138 0.44812262 4341567
-0.018209485 0.09185674 0.44866773 6378056
-0.017421367 0.091968611 0.44921416 6707020
-0.016631324 0.09208075 0.4497619 6773328
-0.015840409 0.092199303 0.45034096 6248788
-0.015050706 0.092338108 0.45101896 5855575
-0.014258619 0.092477337 0.45169899 5855318
-0.013464143 0.092616983 0.4523811 5855574
-0.012667262 0.092757054 0.45306525 5855574
-0.011878689 0.092981458 0.45416135 5987160
-0.011091944 0.093254492 0.45549497 5789781
-0.010299711 0.093521379 0.45679855 6052438
-0.0095305005 0.094061889 0.45943865 6640969
-0.0087405052 0.094480701 0.46148428 7429196
-0.0079205818 0.094630107 0.46221405 7429196
-0.007098061 0.094779991 0.46294615 7297867
-0.0063028228 0.09538272 0.46589014 7034696
-0.059741117 0.10133863 0.4906584 6574403
-0.05856185 0.10083206 0.48820567 6574403
-0.057394311 0.10033052 0.48577732 6640197
-0.056252658 0.099859372 0.48349616 6175798
-0.05512505 0.099398717 0.48126575 5250842
-0.054006748 0.098940365 0.47904652 4596519
-0.052897844 0.098484606 0.47683984 4139316
-0.051788177 0.098012336 0.47455323 4791838
-0.050701488 0.097568408 0.47240382 5118229
-0.049624741 0.097128771 0.47027519 5118486
-0.048558619 0.096694991 0.46817493 5184535
-0.047506426 0.096274078 0.46613699 5581860
-0.046463352 0.095856823 0.46411672 6441790
-0.045429278 0.095443167 0.46211389 6574403
-0.044422608 0.095072687 0.46032012 6574403
-0.043434132 0.094727769 0.45865011 6574403
-0.042452801 0.094385356 0.45699221 6574403
-0.041478537 0.094045393 0.4553462 6574403
-0.040494874 0.093669958 0.45352843 6574403
-0.039518721 0.093296781 0.45172158 5129021
-0.03857857 0.09299466 0.45025879 662316
-0.037691161 0.092809416 0.44936189 5161
-0.036828551 0.092678443 0.44872773 5418
-0.03596973 0.092551328 0.44811228 5418
-0.035113391 0.092424907 0.44750017 5418
-0.034262203 0.092306405 0.44692641 5418
-0.03341319 0.092188202 0.44635412 5418
-0.032568496 0.092076361 0.44581261 5676
-0.03176238 0.092070691 0.44578516 5677
-0.030956361 0.092065029 0.44575772 5677
-0.030150445 0.092059359 0.44573027 5677
-0.029344626 0.092053689 0.44570282 5677
-0.028538907 0.092048027 0.4456754 5677
-0.027733287 0.092042357 0.44564795 5677
-0.026927765 0.092036694 0.44562054 5677
-0.026122343 0.092031024 0.44559309 5677
-0.025317021 0.092025362 0.44556567 5677
-0.024511797 0.0920197 0.44553825 5678
-0.023710923 0.092030533 0.4455907 5935
-0.022911374 0.092047445 0.4456726 5935
-0.022126619 0.092127196 0.44605872 5934
-0.021347351 0.092236668 0.44658878 1451060
-0.020566693 0.092348479 0.44713014 4472895
-0.019784139 0.092460565 0.44767284 6378312
-0.018999683 0.09257292 0.44821683 6641483
-0.018213317 0.09268555 0.44876215 6707792
-0.017425038 0.092798457 0.44930881 6248788
-0.016634861 0.092911787 0.44985753 5789782
-0.015847201 0.093051516 0.45053408 5789781
-0.015057169 0.093191661 0.45121264 5789781
-0.014264752 0.093332238 0.45189327 5855318
-0.013469943 0.093473233 0.45257595 5855574
-0.012672727 0.09361466 0.45326069 5855574
-0.011875146 0.093772709 0.45402592 5921366
-0.011088286 0.094045088 0.45534474 5460560
-0.01034324 0.094744071 0.45872906 5722444
-0.0095542269 0.095126867 0.46058244 7297869
-0.0087371916 0.095276996 0.46130934 7429196
-0.0079175746 0.09542761 0.46203858 7429196
-0.0070991521 0.095629752 0.46301731 7231818
-0.0063133747 0.096384183 0.4666701 7034697
-0.061467201 0.10364178 0.49746501 5983813
-0.059853189 0.10241545 0.49157885 6574403
-0.058671154 0.10190253 0.48911691 6574403
-0.057500906 0.10139473 0.48667952 6574146
-0.056344371 0.10089573 0.48428443 5978673
-0.055214509 0.10042953 0.48204675 5316634
-0.054095041 0.099967636 0.4798297 4727075
-0.052985825 0.099509962 0.47763294 4335150
-0.051881909 0.099047281 0.47541213 4596261
-0.050792985 0.098598145 0.47325635 5118229
-0.049713895 0.09815307 0.47112006 4987673
-0.048644502 0.097711995 0.46900296 5052950
-0.047588129 0.097281933 0.4669387 5316635
-0.046542916 0.096859582 0.46491149 6177078
-0.045506738 0.096440881 0.4629018 6574147
-0.044462893 0.095989987 0.46073756 6574403
-0.043473914 0.095642611 0.45907024 6574403
-0.042491544 0.095296569 0.45740926 6574403
-0.041516256 0.094953023 0.4557603 6574403
-0.040542088 0.094598211 0.45405725 6574403
-0.039564617 0.094220892 0.45224619 6508867
-0.038619634 0.093906686 0.45073804 5654591
-0.0377312 0.09371943 0.44983923 1647664
-0.036846302 0.09353292 0.448944 5161
-0.035985582 0.093400784 0.44830978 5418
-0.035128716 0.093272798 0.44769546 5418
-0.034274194 0.093145162 0.44708285 5418
-0.033422008 0.093017876 0.4464719 5418
-0.032572437 0.09289176 0.44586655 5419
-0.03175956 0.092866562 0.44574559 5676
-0.030953614 0.09286084 0.44571814 5676
-0.030147767 0.092855126 0.44569069 5676
-0.029342448 0.092850767 0.44566977 5676
-0.028537262 0.092846587 0.44564971 5676
-0.027732149 0.092842415 0.44562969 5676
-0.026927108 0.092838243 0.44560966 5676
-0.02612214 0.09283407 0.44558963 5676
-0.025317244 0.092829898 0.4455696 5676
-0.024512419 0.092825726 0.44554958 202541
-0.023707669 0.092821553 0.44552955 465454
-0.022911079 0.092850164 0.44566688 1647924
-0.022130754 0.092949167 0.44614208 4407102
-0.021351825 0.09306173 0.44668236 6443848
-0.020571006 0.093174554 0.44722393 6641483
-0.019788293 0.093287669 0.44776684 6641998
-0.019003678 0.09340106 0.44831109 6117459
-0.018217152 0.093514711 0.44885662 5789782
-0.017428711 0.093628652 0.44940352 5789781
-0.016641987 0.093763389 0.45005023 5789781
-0.015853999 0.093904458 0.45072734 5789780
-0.015063638 0.094045952 0.45140651 5789780
-0.014270891 0.094187878 0.4520877 5789781
-0.013475747 0.094330229 0.45277098 5789782
-0.012678197 0.094473012 0.45345631 5658452
-0.011878751 0.094620399 0.45416376 5460560
-0.011153473 0.095424153 0.45802164 5328715
-0.010364774 0.095770508 0.4596841 6052695
-0.0095506115 0.09592136 0.46040818 7232333
-0.0087338816 0.096072696 0.46113455 7429196
-0.0079145692 0.096224502 0.46186322 7429196
-0.007110964 0.096625455 0.4637877 7034696
-0.006323962 0.09738902 0.4674527 7100489
-0.061505299 0.1046039 0.49777335 6706505
-0.059948273 0.10346628 0.49235979 6574403
-0.058783442 0.10298152 0.490053 6574403
-0.0576079 0.1024629 0.4875851 6574403
-0.056446578 0.1019539 0.48516291 5978929
-0.055304259 0.10146372 0.48283032 5316634
-0.054182567 0.1009963 0.48060605 4857632
-0.05307116 0.10053317 0.47840217 4530985
-0.051975615 0.10008528 0.47627079 4596261
-0.050884821 0.099631622 0.474112 5053208
-0.049803372 0.099181071 0.471968 4857116
-0.048731655 0.098734573 0.46984327 4922652
-0.047670119 0.098293252 0.46774319 5184279
-0.046622757 0.097865783 0.465709 5581860
-0.045584463 0.097442016 0.46369243 6508097
-0.044533309 0.096974403 0.46146724 6574403
-0.04351294 0.096557282 0.45948231 6574403
-0.04253019 0.096209072 0.4578253 6574403
-0.041554045 0.095862299 0.45617512 6574403
-0.040584747 0.095517643 0.45453501 6574403
-0.039610621 0.095147163 0.45277202 6574403
-0.038660787 0.094820663 0.45121834 6574403
-0.037771326 0.094631381 0.45031762 6311746
-0.036885407 0.094442852 0.44942048 2961461
-0.036003012 0.094255075 0.44852692 70954
-0.035144188 0.094121791 0.44789264 5418
-0.034289267 0.093992934 0.44727945 5418
-0.033436686 0.093864433 0.44666797 5418
-0.032586433 0.093736283 0.44605815 5418
-0.031770822 0.093703814 0.44590363 5676
-0.030965103 0.093699597 0.44588357 5676
-0.030159457 0.09369538 0.44586352 5676
-0.029353885 0.093691163 0.44584346 5676
-0.028548384 0.093686953 0.4458234 5676
-0.027742956 0.093682736 0.44580334 465454
-0.026937602 0.093678527 0.44578332 1253681
-0.026132319 0.09367431 0.44576326 2699063
-0.025327109 0.0936701 0.4457432 4341309
-0.024522416 0.093667589 0.44573125 5326657
-0.023717834 0.093665347 0.44572058 5392449
-0.022931654 0.093738168 0.44606712 6180934
-0.022147106 0.093823195 0.44647175 6444105
-0.021361133 0.093908377 0.44687709 6379085
-0.020575322 0.094000988 0.44731778 5920079
-0.019792451 0.094115116 0.4478609 5723988
-0.019007673 0.094229534 0.44840536 5789525
-0.018220989 0.094344229 0.44895115 5789781
-0.017435066 0.094473727 0.44956741 5723989
-0.016649118 0.09461572 0.45024309 5789781
-0.015860803 0.094758138 0.45092079 5789780
-0.01507015 0.094901212 0.45160165 5921367
-0.014278824 0.095056176 0.45233905 5921368
-0.01348491 0.09521164 0.45307887 5789782
-0.012688396 0.095367618 0.45382109 5329231
-0.01196121 0.096102133 0.4573164 5526609
-0.011172165 0.096411645 0.45878926 5263438
-0.01036086 0.096563213 0.45951054 5987159
-0.0095469998 0.096715264 0.46023408 7167054
-0.0087305726 0.096867785 0.46095988 7429196
-0.0079115666 0.09702079 0.46168798 7297867
-0.0071228151 0.097624466 0.46456066 7034696
-0.0063418564 0.098510176 0.46877542 6969932
-0.061755445 0.10593087 0.49979782 6181706
-0.060081933 0.10458707 0.49345756 6640196
-0.058909062 0.10408743 0.49110022 6574403
-0.057722609 0.10354819 0.48855597 6574403
-0.056551281 0.10301977 0.48606282 6110771
-0.055398803 0.1025096 0.48365572 5382683
-0.054270372 0.1020283 0.4813849 5053465
-0.053156774 0.10155969 0.47917393 4530983
-0.052064594 0.10111719 0.47708613 4726561
-0.050980229 0.10067525 0.47500098 4857116
-0.049893167 0.10021278 0.47281897 4922395
-0.048819128 0.099760823 0.47068661 4400171
-0.047754731 0.099312931 0.46857339 5119000
-0.046702869 0.098875448 0.46650925 5250842
-0.045662448 0.098446563 0.46448573 6309947
-0.044612877 0.09798155 0.46229172 6574146
-0.043551911 0.097473331 0.45989385 6574403
-0.042568147 0.097121499 0.45823389 6574403
-0.041591458 0.096772209 0.45658585 6574403
-0.04062159 0.096424989 0.45494762 6574403
-0.039656729 0.096075572 0.45329905 6574403
-0.038702022 0.095736586 0.45169964 6574403
-0.037811533 0.09554527 0.45079699 6574403
-0.036924597 0.095354728 0.44989797 6574403
-0.036041189 0.095164932 0.4490025 4340794
-0.03516129 0.094975896 0.44811061 333867
-0.034304354 0.094841443 0.44747624 5418
-0.033451378 0.094711728 0.44686422 5418
-0.032600731 0.094582364 0.44625387 5418
-0.031783208 0.094544984 0.4460775 137005
-0.030977175 0.09454073 0.44605741 596782
-0.030171216 0.094536476 0.44603735 1713715
-0.029365327 0.094532222 0.44601727 3224633
-0.028559513 0.094527967 0.44599721 4670015
-0.027753772 0.09452372 0.44597715 5721156
-0.026948104 0.094519466 0.44595709 6312263
-0.026143001 0.094517 0.44594547 6443848
-0.025337994 0.094514742 0.4459348 6509640
-0.024533028 0.094512478 0.44592413 6509640
-0.02373608 0.094542019 0.44606349 6444362
-0.02295227 0.094627775 0.44646811 6116685
-0.022167033 0.094713688 0.44687346 5657679
-0.02138037 0.094799757 0.44727954 5460816
-0.020592276 0.094885975 0.44768634 5460817
-0.019802747 0.094972365 0.44809392 5460817
-0.019011781 0.095058896 0.44850221 5592403
-0.018226447 0.09518256 0.44908565 5658196
-0.017443987 0.095333412 0.44979742 5592403
-0.016659688 0.095488451 0.45052892 5658196
-0.015872834 0.095644005 0.45126283 5789782
-0.015083414 0.095800057 0.45199913 6447713
-0.014291413 0.095956631 0.45273784 6447714
-0.013496818 0.096113704 0.45347893 6250334
-0.012766464 0.096778028 0.45661333 6118748
-0.011976419 0.097050294 0.4578979 5921369
-0.011167955 0.097202569 0.45861638 5263694
-0.010356949 0.097355321 0.45933709 5921366
-0.0095433909 0.097508565 0.46006009 7101263
-0.0087272674 0.097662278 0.46078536 7429196
-0.0079118442 0.097857021 0.46170416 7231818
-0.0071672341 0.099076472 0.46745774 7100489
-0.0063501862 0.099486254 0.46939114 6970191
-0.060324159 0.10590241 0.49544698 6772297
-0.058959194 0.10506263 0.49151817 6574403
-0.057845581 0.10465193 0.48959678 6574403
-0.056668229 0.1041114 0.48706803 6243384
-0.055502981 0.10357643 0.48456526 5383197
-0.054358467 0.10306366 0.48216632 5118742
-0.05324335 0.10259084 0.47995436 4857374
-0.052153874 0.10215263 0.47790423 4726817
-0.051073663 0.10171814 0.47587153 4661282
-0.04998713 0.10125598 0.4737094 4987930
-0.048906911 0.10079076 0.47153297 4139316
-0.047840212 0.10033744 0.46941215 4988187
-0.046783257 0.099888578 0.46731225 5119771
-0.045740709 0.099454567 0.46528178 6111028
-0.044692729 0.098992303 0.46311918 6508096
-0.043625921 0.098469935 0.46067536 6574403
-0.042606171 0.098035559 0.4586432 6574403
-0.041628476 0.097682655 0.45699221 6574403
-0.040657796 0.097332299 0.45535311 6574403
-0.039694052 0.096984439 0.4537257 6574403
-0.038743351 0.09665446 0.45218197 6574403
-0.037851829 0.09646111 0.45127741 6574403
-0.036963865 0.096268535 0.45037645 6574403
-0.036079444 0.096076719 0.4494791 6574403
-0.035198536 0.095885672 0.4485853 5654848
-0.034321126 0.095695376 0.44769505 859181
-0.033466082 0.095559776 0.44706064 5418
-0.032615039 0.09542919 0.44644973 925230
-0.031795606 0.095386818 0.44625151 5195329
-0.030989259 0.095382527 0.44623142 5918277
-0.030182986 0.095378235 0.44621134 6378312
-0.029376782 0.095373936 0.44619125 6444106
-0.028570654 0.095369644 0.44617116 6313292
-0.027765144 0.09536723 0.44615987 6182222
-0.026959712 0.095364951 0.4461492 6182478
-0.026154319 0.095362671 0.44613853 6116942
-0.025348963 0.095360383 0.44612783 5985615
-0.024543647 0.095358104 0.44611716 5920078
-0.023757419 0.095432341 0.44646448 5526608
-0.022972919 0.095518976 0.44686979 5461072
-0.022186995 0.095605783 0.44727588 5461073
-0.021399641 0.095692731 0.44768268 5461073
-0.020610854 0.095779851 0.44809023 5460817
-0.019820629 0.095867127 0.44849855 5526609
-0.019030193 0.095960759 0.44893658 5460816
-0.018241694 0.09607292 0.44946131 5395024
-0.017459279 0.096229047 0.45019174 5460817
-0.016674316 0.09638568 0.45092452 5723990
-0.015886795 0.096542828 0.45165971 6184797
-0.015096702 0.096700497 0.45239732 6710886
-0.014304022 0.096858665 0.45313731 6776678
-0.013569245 0.097451851 0.45591241 6579300
-0.012777554 0.097686462 0.45701 6974057
-0.011971914 0.097839437 0.45772567 6119004
-0.011163748 0.097992897 0.45844361 5263694
-0.010353042 0.098146833 0.45916378 5789524
-0.0095397849 0.098301254 0.45988622 7035727
-0.008723964 0.098456167 0.46061093 7429196
-0.0079249712 0.098853588 0.4624702 7100233
-0.0071693771 0.099949546 0.46759748 7035210
-0.0063602906 0.10049259 0.47013801 6969934
-0.0055469563 0.10112528 0.47309795 6247755
-0.060553834 0.10720272 0.49733332 7036243
-0.05900773 0.10603645 0.4919228 6574146
-0.057925928 0.10568166 0.49027684 6574403
-0.05678859 0.10521297 0.48810253 6375997
-0.055620261 0.1046712 0.48558915 5515040
-0.054463897 0.10413497 0.48310149 5184278
-0.053335205 0.10363507 0.48078236 5118486
-0.052243464 0.10319163 0.47872517 4857117
-0.051161025 0.10275197 0.47668549 4400171
-0.050083626 0.10230757 0.47462386 4857117
-0.048999418 0.10183357 0.47242486 4074037
-0.047926005 0.10136562 0.47025394 4792352
-0.046866585 0.10091094 0.4681446 4662569
-0.045819234 0.10046603 0.46608058 5847087
-0.044772867 0.10000668 0.46394959 6441790
-0.043703735 0.099478021 0.46149704 6574403
-0.042645846 0.098954916 0.45907027 6574403
-0.041665558 0.09859474 0.45739931 6574403
-0.040693883 0.098240785 0.45575726 6574403
-0.039729159 0.097889371 0.45412698 6574403
-0.038803518 0.097621478 0.4528842 6574403
-0.03790817 0.097419918 0.45194912 6574403
-0.037003223 0.097184286 0.45085597 6574403
-0.036117781 0.096990444 0.44995669 6574403
-0.035235863 0.096797369 0.44906101 6574403
-0.034357451 0.09660507 0.44816887 5983297
-0.033482522 0.09641353 0.44728029 2107442
-0.032629363 0.09627676 0.4466458 1713458
-0.031808015 0.096229307 0.44642565 6640968
-0.03100135 0.096224971 0.44640553 6313035
-0.030194761 0.096220642 0.44638544 5854287
-0.029388847 0.09621828 0.44637448 5592146
-0.02858299 0.096215978 0.44636381 5592147
-0.027777169 0.096213669 0.44635311 5526610
-0.026971389 0.096211374 0.44634244 5526609
-0.026165646 0.096209064 0.44633174 5526609
-0.025359942 0.096206769 0.44632107 5526609
-0.024562553 0.096236885 0.44646081 5526609
-0.023778792 0.096324265 0.44686615 5526609
-0.022993607 0.096411787 0.44727221 5526609
-0.022206992 0.09649948 0.44767901 5526609
-0.021418948 0.096587323 0.44808656 5526610
-0.020629466 0.096675336 0.44849485 5526610
-0.019840581 0.096773453 0.44895002 5395024
-0.019050639 0.096874528 0.44941893 5000266
-0.018259045 0.096975811 0.44988883 4737095
-0.017474597 0.097126253 0.45058674 5329489
-0.016688971 0.097284488 0.45132083 6119005
-0.01590078 0.097443238 0.4520573 6645092
-0.015110012 0.097602509 0.45279619 6776679
-0.014369565 0.098123603 0.45521364 6842472
-0.013575588 0.098320171 0.45612556 7171437
-0.012772758 0.098473839 0.45683846 7039850
-0.011967413 0.098627992 0.4575536 6250591
-0.011159544 0.098782629 0.45827097 5329487
-0.010349137 0.09893775 0.4589906 5789524
-0.0095361806 0.099093355 0.45971251 6970448
-0.0087206634 0.099249452 0.46043667 7363403
-0.0079903658 0.10051039 0.46628639 7231818
-0.007174856 0.10087004 0.46795484 7100490
-0.0063704266 0.10150213 0.47088724 6969676
-0.0055475072 0.10198878 0.47314495 5524293
-0.060651321 0.10827384 0.49813399 6445910
-0.059154008 0.10718884 0.49314225 6705989
-0.057973493 0.10665353 0.49067941 6574403
-0.056897864 0.10629756 0.48904175 6508353
-0.055738032 0.1057706 0.48661736 5581603
-0.054578632 0.1052276 0.48411921 5184278
-0.053436913 0.10470159 0.4816992 5118485
-0.052333359 0.1042342 0.4795489 5052951
-0.051248681 0.10378934 0.47750223 4269615
-0.050173219 0.10334826 0.47547293 4596262
-0.049093746 0.10288342 0.47333434 4008503
-0.048017051 0.10240804 0.4711473 4530984
-0.046950404 0.10193736 0.46898183 4466734
-0.045898203 0.10148135 0.46688387 5453876
-0.044853292 0.1010247 0.46478298 6310205
-0.043781824 0.10048971 0.46232164 6574403
-0.042721644 0.09996035 0.45988622 6574403
-0.041702706 0.099508442 0.45780712 6574403
-0.040730033 0.099150889 0.45616215 6574403
-0.039776739 0.098826744 0.45467085 6574403
-0.038880568 0.098633863 0.45378348 6574403
-0.037987892 0.098441742 0.45289958 6574403
-0.037098683 0.098250359 0.4520191 6574403
-0.036204197 0.098036088 0.45103329 6574403
-0.035305168 0.097799376 0.44994426 6574403
-0.034410469 0.097563803 0.44886047 6443332
-0.033520073 0.097329363 0.44778189 5129536
-0.032645471 0.097130351 0.44686627 3027769
-0.031820439 0.097072475 0.44660002 6772040
-0.031014115 0.09707015 0.44658932 6247755
-0.03020783 0.097067825 0.44657862 5723215
-0.029401584 0.097065501 0.44656792 5657681
-0.028595375 0.097063176 0.44655722 5592146
-0.027789205 0.097060844 0.44654652 5526866
-0.026983075 0.09705852 0.44653583 5526866
-0.026176983 0.097056203 0.44652516 5526609
-0.025370931 0.097053878 0.44651446 5526609
-0.024584653 0.097129531 0.44686252 5526609
-0.023800207 0.097217791 0.44726858 5526609
-0.023014333 0.097306214 0.44767538 5526609
-0.022227027 0.097394794 0.44808289 5461073
-0.021438494 0.097484469 0.44849548 5460817
-0.020651018 0.097586185 0.44896343 5460817
-0.019861899 0.097688116 0.44943237 5263437
-0.019071128 0.097790256 0.4499023 4737351
-0.018278703 0.097892612 0.4503732 4539717
-0.017489944 0.098025031 0.45098242 5197903
-0.01670365 0.098184869 0.45171779 6513507
-0.015914788 0.098345235 0.45245558 6710886
-0.015167437 0.098793305 0.45451701 6842472
-0.01437054 0.098951429 0.45524451 7171437
-0.013570501 0.099105783 0.45595464 7171437
-0.012767964 0.099260621 0.45666701 7039851
-0.011962915 0.09941595 0.45738161 6381920
-0.011155343 0.099571764 0.45809847 5461074
-0.010345235 0.099728063 0.45881754 5789781
-0.009532785 0.099887006 0.4595488 6773327
-0.0088067641 0.1010681 0.46498263 7231818
-0.0079927491 0.10138171 0.46642548 7231818
-0.0071862373 0.10187548 0.46869713 7034696
-0.0063801333 0.10250748 0.47160476 7100747
-0.0055465903 0.10282525 0.47306672 5524292
-0.059350356 0.10843711 0.49477911 6969935
-0.058021132 0.10762699 0.49108264 6574403
-0.056944471 0.10726749 0.48944232 6574403
-0.05585631 0.10687467 0.48764995 5845543
-0.054693852 0.10632485 0.48514122 5250327
-0.053543292 0.10578065 0.48265815 5118485
-0.052436139 0.10530564 0.48049074 5118485
-0.051336639 0.10483028 0.47832176 4269614
-0.050258968 0.10438401 0.47628552 4465706
-0.049188443 0.10393731 0.47424734 4269873
-0.048109233 0.10345614 0.47205183 4139316
-0.047039978 0.10297941 0.46987659 4532269
-0.045980528 0.10250705 0.46772128 5060923
-0.044934008 0.10204639 0.46561939 6244670
-0.043860193 0.10150502 0.46314919 6574403
-0.042797711 0.10096936 0.46070507 6574403
-0.041746385 0.10043932 0.45828661 6574403
-0.04076625 0.10006262 0.45656776 6574403
-0.039856032 0.099845521 0.45557722 6574403
-0.038957924 0.099650271 0.45468631 6574403
-0.038063325 0.099455781 0.45379889 6574403
-0.037172206 0.099262044 0.45291492 6574403
-0.036284558 0.099069074 0.45203441 6574403
-0.03540035 0.098876834 0.45115727 6574403
-0.034507118 0.09864977 0.45012119 6574403
-0.033613991 0.098412052 0.44903654 6509125
-0.032725163 0.098175481 0.44795713 5721414
-0.031840593 0.09794005 0.44688287 5590086
-0.031027559 0.097918138 0.44678292 6509898
-0.030220924 0.097915798 0.44677222 5920079
-0.02941433 0.097913451 0.44676152 5723473
-0.028607771 0.097911105 0.44675082 5592403
-0.027801253 0.097908758 0.44674012 5592403
-0.026994774 0.097906418 0.44672942 5592403
-0.026188331 0.097904064 0.44671869 5592146
-0.0253905 0.097934783 0.44685885 5592146
-0.024606792 0.098023772 0.44726491 5592402
-0.023821658 0.098112933 0.44767171 5395024
-0.023035094 0.098202243 0.44807923 5066059
-0.022248156 0.098296404 0.44850886 5394767
-0.021461504 0.098398969 0.44897684 5526353
-0.020673206 0.098501749 0.44944581 5526353
-0.019883262 0.098604746 0.44991577 5197645
-0.019091662 0.098707959 0.4503867 4671558
-0.018298406 0.098811388 0.45085865 4539972
-0.017505314 0.098925382 0.45137879 5329232
-0.016718356 0.099086836 0.45211548 6447714
-0.01595721 0.099425696 0.45366162 6908265
-0.015162425 0.099580251 0.45436683 7171437
-0.014365165 0.09973529 0.45507425 7171437
-0.013565419 0.099890813 0.45578387 7105644
-0.012763174 0.10004682 0.4564957 7039851
-0.011960999 0.10022492 0.45730835 6184541
-0.011156336 0.10040703 0.45813927 5592659
-0.010348745 0.1005898 0.45897323 5658195
-0.0096186092 0.10162269 0.46368614 6181707
-0.008809383 0.10193714 0.46512091 7231818
-0.0079951342 0.10225356 0.46656463 7100233
-0.0071976543 0.10288411 0.46944177 7034440
-0.0063790819 0.10334113 0.47152704 7297868
-0.0055456734 0.10366143 0.47298852 5524292
-0.059445411 0.10950471 0.49557155 7168344
-0.058068853 0.10860205 0.49148655 6574403
-0.056991149 0.108239 0.48984352 6574403
-0.05592062 0.10787836 0.48821142 5714216
-0.054809559 0.10742673 0.48616755 5514007
-0.053655986 0.10687574 0.48367399 5118485
-0.05253971 0.10638206 0.48143977 5118229
-0.051438723 0.10590325 0.4792729 4661540
-0.050345007 0.1054233 0.47710088 4400171
-0.049274288 0.10497566 0.47507501 4400428
-0.048201781 0.10450828 0.47295988 3943481
-0.047130045 0.10402577 0.47077626 4532013
-0.046068165 0.10354771 0.46861273 4732734
-0.04501434 0.10307022 0.46645182 6244671
-0.043943297 0.10253436 0.46402675 6574404
-0.042878039 0.10199145 0.46156979 6574403
-0.041824002 0.10145427 0.45913869 6574403
-0.040838983 0.10106617 0.45738235 6574403
-0.039935645 0.10086838 0.45648724 6574403
-0.039035592 0.10067073 0.45559278 6574403
-0.038139056 0.10047386 0.45470181 6574403
-0.037246022 0.10027776 0.45381433 6574403
-0.036356471 0.10008242 0.4529303 6574403
-0.035470374 0.099887833 0.4520497 6574403
-0.034587719 0.099694006 0.45117253 6574403
-0.033708442 0.09950082 0.45029825 6574403
-0.032816891 0.099260963 0.44921276 6574661
-0.031929627 0.099022262 0.44813249 6181448
-0.031046622 0.0987847 0.4470574 6116171
-0.030234031 0.098764502 0.44696599 6116685
-0.029427087 0.09876214 0.44695529 5723473
-0.028620178 0.09875977 0.44694456 5657938
-0.02781331 0.098757409 0.44693387 5592403
-0.027006479 0.098755032 0.44692314 5592403
-0.026199689 0.09875267 0.44691244 5592403
-0.025413364 0.098829754 0.44726127 5526610
-0.024628971 0.098919638 0.44766805 5197646
-0.023843149 0.099009685 0.44807556 4605509
-0.023057871 0.099108391 0.44852227 4737095
-0.022272037 0.099211805 0.44899029 5395025
-0.021484565 0.099315442 0.44945928 5592403
-0.020695444 0.099419288 0.44992927 5592403
-0.019904671 0.099523358 0.45040023 5329232
-0.019112242 0.099627644 0.45087218 4803144
-0.018318148 0.099732146 0.45134512 5131853
-0.017522389 0.099836871 0.45181906 5921369
-0.0167433 0.10005143 0.45279005 6711142
-0.015951265 0.10020667 0.45349258 7039851
-0.015159184 0.10037838 0.45426971 6974058
-0.014365651 0.10055955 0.45508963 6974058
-0.013569248 0.10074139 0.4559125 6908265
-0.012769959 0.10092387 0.45673835 6776679
-0.01196777 0.10110702 0.45756721 6382177
-0.011162664 0.10129084 0.45839909 5526867
-0.010354624 0.10147531 0.45923397 4605508
-0.0096214619 0.10248948 0.46382365 5261119
-0.0088120038 0.10280671 0.46525928 7166281
-0.0080071362 0.10324991 0.46726504 7034440
-0.0072061727 0.10385367 0.46999735 7166025
-0.0063780309 0.1041745 0.47144935 7297611
-0.0055447565 0.10449734 0.47291034 5524292
-0.059540775 0.11057573 0.49636656 7102550
-0.058159176 0.1096589 0.49225101 6640453
-0.057037901 0.10921211 0.49024537 6508353
-0.055966347 0.10884793 0.48861063 5713959
-0.054901913 0.10848618 0.48698673 6041363
-0.053769153 0.10797545 0.48469412 5250325
-0.052643143 0.10746162 0.48238757 5118229
-0.051542256 0.10698266 0.48023757 4922394
-0.050446346 0.10649784 0.47806123 4530984
-0.049359195 0.10601497 0.47589365 4596261
-0.0482946 0.1055643 0.47387064 4073781
-0.047220457 0.10507616 0.47167939 4335922
-0.046156134 0.10459234 0.46950758 4469821
-0.0450918 0.10409041 0.46725446 6244930
-0.044046436 0.103614 0.46511588 6574662
-0.042978145 0.1030641 0.46264741 6640453
-0.041921135 0.10252 0.46020499 6574403
-0.040880885 0.10199574 0.45785165 6574403
-0.03999877 0.10185254 0.45720878 6574403
-0.039109167 0.10168383 0.45645151 6574403
-0.038213193 0.10149096 0.45558569 6574403
-0.037320133 0.10129751 0.45471731 6574403
-0.036428668 0.10109978 0.45382974 6574403
-0.035540674 0.10090283 0.45294565 6574403
-0.034656137 0.10070666 0.45206502 6574403
-0.033775032 0.10051124 0.45118779 6574403
-0.032897338 0.10031657 0.45031396 6574403
-0.032019161 0.10011054 0.4493891 6574660
-0.031133471 0.099869706 0.44830799 6378570
-0.03025203 0.099630021 0.44723207 6182222
-0.029439855 0.099611565 0.44714922 5789008
-0.028632598 0.099609181 0.44713852 5657938
-0.027825378 0.09960679 0.44712779 5592659
-0.027018197 0.099604398 0.44711706 5592660
-0.026219923 0.099635705 0.44725761 5592660
-0.025436269 0.099726327 0.44766438 5789783
-0.024651188 0.099817105 0.4480719 5329489
-0.023867631 0.099920422 0.44853565 4868681
-0.02308262 0.10002469 0.4490037 4934474
-0.022295969 0.10012917 0.44947273 5789783
-0.021507673 0.10023388 0.44994274 6184541
-0.020717727 0.1003388 0.45041373 6250334
-0.019926127 0.10044394 0.45088571 5723989
-0.019132864 0.1005493 0.45135868 5395281
-0.018337276 0.10065127 0.45181641 6184541
-0.017540028 0.10075318 0.45227388 6579300
-0.016747082 0.10089096 0.45289233 6776679
-0.015958816 0.10107251 0.45370728 6908265
-0.015167709 0.10125471 0.45452517 6842472
-0.014373743 0.10143756 0.45534599 6118749
-0.013576906 0.10162108 0.45616981 6513507
-0.012777179 0.10180526 0.45699659 6776679
-0.011974548 0.10199012 0.45782638 6513506
-0.011168998 0.10217565 0.4586592 5592405
-0.010429023 0.10303874 0.46253359 2960428
-0.0096243154 0.10335679 0.46396124 5327170
-0.0088146264 0.1036768 0.46539775 7100232
-0.0080198189 0.10425764 0.46800515 7034440
-0.007204989 0.10468425 0.46992016 7297610
-0.0063769803 0.10500761 0.47137168 7297610
-0.062361475 0.11502228 0.51217961 5195070
-0.061154813 0.11449285 0.50982213 6772298
-0.058260135 0.11073873 0.49310553 6706504
-0.057117783 0.11025061 0.49093196 6574146
-0.056021936 0.10983828 0.48909596 5780265
-0.054946687 0.1094538 0.4873839 6173458
-0.053882796 0.10907981 0.48571855 5843471
-0.052746985 0.10854545 0.48333913 5184020
-0.051643472 0.10806071 0.48118064 5118229
-0.050548788 0.10757819 0.47903204 4791839
-0.049458977 0.10708943 0.47685567 4726561
-0.048379019 0.10660509 0.47469896 4269873
-0.04731122 0.10613058 0.47258601 4009532
-0.046237908 0.10562605 0.47033939 4468793
-0.045169525 0.10511412 0.46805987 6310723
-0.044119962 0.10462734 0.46589229 6904400
-0.043078721 0.10414176 0.46373007 6706246
-0.042018715 0.1035907 0.46127623 6640453
-0.040969871 0.10304543 0.45884824 6574403
-0.040035818 0.10277236 0.45763227 6574403
-0.039155308 0.10262812 0.45699 6574403
-0.038277265 0.10248429 0.45634955 6574403
-0.037386376 0.10229899 0.45552441 6574403
-0.036495484 0.10210534 0.45466214 6574403
-0.035607956 0.10191242 0.45380309 6574403
-0.034723774 0.10172023 0.45294729 6574403
-0.033841845 0.10152553 0.45208031 6574403
-0.032962289 0.10132851 0.45120302 6574403
-0.032086138 0.10113226 0.45032912 6574403
-0.031213379 0.10093677 0.44945863 6574660
-0.030336689 0.10071781 0.44848362 6575432
-0.029456817 0.100476 0.44740686 6182736
-0.028645026 0.10045931 0.44733259 5657937
-0.027837455 0.10045691 0.44732186 5592402
-0.027029924 0.10045449 0.44731113 5658452
-0.026243554 0.100533 0.44766071 6184540
-0.025459995 0.1006276 0.44808194 6316384
-0.024677441 0.10073251 0.44854906 6184542
-0.023893252 0.10083762 0.44901714 5460819
-0.023107424 0.10094296 0.4494862 5526612
-0.022319952 0.10104851 0.44995621 6381920
-0.021530533 0.10115288 0.45042095 6447714
-0.020737959 0.10125003 0.45085356 6579299
-0.019943859 0.10134736 0.45128697 6381921
-0.019148232 0.10144489 0.45172122 6513507
-0.018352583 0.10155096 0.45219353 6579300
-0.017558668 0.10167694 0.45275453 6645093
-0.016762784 0.10180325 0.45331696 6710886
-0.015967779 0.10194813 0.45396209 6776679
-0.015176243 0.10213201 0.45478091 5592405
-0.014381845 0.10231656 0.45560265 3618615
-0.013584572 0.10250177 0.4564274 5723991
-0.012784407 0.10268766 0.45725513 6776679
-0.011981335 0.10287421 0.45808583 6381921
-0.011232104 0.10358496 0.46125069 5592404
-0.010432108 0.1039038 0.46267045 3618357
-0.0096271718 0.1042246 0.46409893 5590599
-0.0088230344 0.10461598 0.46584168 6837575
-0.0080265999 0.1051907 0.46840087 7100489
-0.0072038062 0.10551457 0.469843 7297610
-0.0063759293 0.10584043 0.47129402 7297610
-0.062272873 0.11578141 0.5114519 5195070
-0.061068323 0.11524924 0.50910109 6574403
-0.058376685 0.11185151 0.49409199 7102036
-0.057224691 0.11134417 0.49185085 6574403
-0.056108315 0.11089124 0.48985007 6176821
-0.055018641 0.11047743 0.48802215 6107925
-0.053937074 0.11006671 0.48620781 6172684
-0.052851237 0.10963356 0.48429441 5447698
-0.051745083 0.109143 0.4821274 5184020
-0.05064879 0.10865681 0.47997972 5118229
-0.049559157 0.10816824 0.47782156 4922652
-0.048476569 0.10767805 0.47565615 4661283
-0.047402535 0.10718951 0.47349811 3813440
-0.046318132 0.10665919 0.47115546 4664112
-0.045247518 0.10614137 0.46886805 6244675
-0.044190973 0.10563747 0.46664211 7234139
-0.043159321 0.10517465 0.4645977 7168086
-0.042116757 0.1046664 0.46235251 6706504
-0.041064959 0.10411419 0.45991319 6640197
-0.040072933 0.10369388 0.45805654 6574403
-0.039191555 0.10354821 0.45741308 6574403
-0.038312651 0.10340296 0.45677143 6574403
-0.03743621 0.10325812 0.45613161 6574403
-0.036559783 0.1031068 0.45546317 6574403
-0.035670571 0.10291165 0.45460111 6574403
-0.034784719 0.10271724 0.4537423 6574403
-0.033902209 0.10252355 0.45288673 6574403
-0.033023022 0.1023306 0.45203438 6574403
-0.032147139 0.10213838 0.45118526 6574403
-0.031274538 0.10194687 0.45033929 6574403
-0.030403662 0.10175093 0.44947374 6574403
-0.029535804 0.10155461 0.44860655 6509383
-0.028660983 0.10132263 0.4475818 6117200
-0.027849544 0.10130776 0.44751611 5328973
-0.027050829 0.10133968 0.44765708 5526610
-0.026269034 0.10143888 0.44809532 6316128
-0.025487296 0.10154463 0.44856244 6579300
-0.024703929 0.1016506 0.44903055 6447714
-0.023917031 0.10174872 0.44946399 6118749
-0.023128428 0.10184623 0.44989476 6250335
-0.022338314 0.10194394 0.45032635 6513507
-0.02154668 0.10204183 0.45075876 6710886
-0.020753525 0.1021399 0.45119199 6776679
-0.019958846 0.10223817 0.45162609 6710886
-0.019164847 0.10234845 0.45211321 6645093
-0.018372083 0.1024754 0.45267403 6710886
-0.01757735 0.10260268 0.45323625 6710886
-0.016780641 0.10273026 0.45379984 6710886
-0.015981946 0.10285816 0.45436484 6513507
-0.015184786 0.1030103 0.45503691 5329233
-0.014389956 0.10319655 0.4558596 3158064
-0.013592248 0.10338346 0.45668527 5658198
-0.012791643 0.10357105 0.45751393 5789784
-0.012030743 0.10412815 0.45997488 4737096
-0.011235418 0.10444777 0.46138677 5460818
-0.010435196 0.10476936 0.46280736 4407872
-0.00963003 0.10509294 0.46423671 5393478
-0.0088369669 0.10562279 0.46657729 6378054
-0.0080252858 0.10601825 0.46832418 7297610
-0.0072026229 0.10634461 0.46976584 7297610
-0.0063780216 0.10672557 0.47144866 7166025
-0.0055534188 0.1072237 0.47364911 5392706
-0.062184513 0.11653838 0.51072621 5851969
-0.060982075 0.1160035 0.50838208 6574403
-0.058493704 0.11296876 0.49508241 7432031
-0.057338879 0.11245532 0.4928323 6904141
-0.056194957 0.11194744 0.49060652 6375740
-0.055103287 0.11152905 0.48877296 6042655
-0.054019745 0.11111379 0.48695305 6304780
-0.052943572 0.1107002 0.48514053 5645329
-0.0518471 0.11022955 0.48307791 5645584
-0.050748199 0.10973756 0.48092178 5184020
-0.049659058 0.10924993 0.47878477 5052950
-0.048574518 0.10875534 0.47661722 4922395
-0.047499098 0.10826371 0.47446269 4335407
-0.04639864 0.10769592 0.47197437 4859689
-0.045325778 0.10717217 0.46967903 6047039
-0.0442633 0.10665348 0.46740589 7366755
-0.043228589 0.10618284 0.46534336 7498339
-0.042204 0.10571893 0.46331027 7168343
-0.04116049 0.10518792 0.4609831 6706504
-0.04011682 0.10463459 0.45855817 6640196
-0.039227873 0.10447002 0.45783696 6574403
-0.038348105 0.10432334 0.45719412 6574403
-0.037470803 0.10417707 0.4565531 6574403
-0.036595959 0.10403121 0.45591387 6574403
-0.03572356 0.10388575 0.4552764 6574403
-0.034845881 0.10371774 0.4545401 6574403
-0.033961706 0.10352183 0.45368153 6574403
-0.033080865 0.10332666 0.45282617 6574403
-0.032203343 0.10313222 0.45197406 6574403
-0.03132911 0.10293851 0.45112514 6574403
-0.030458162 0.10274553 0.45027941 6574403
-0.029590469 0.10255327 0.44943684 6508868
-0.028726019 0.10236173 0.44859743 6377796
-0.027864527 0.10216993 0.44775686 5722442
-0.027076567 0.10224435 0.44808298 6052956
-0.02629341 0.10234204 0.44851112 6645093
-0.025508752 0.10243991 0.44894004 6710886
-0.024722593 0.10253797 0.44936979 6579300
-0.023934929 0.10263623 0.44980037 6447713
-0.023145754 0.10273466 0.45023179 6316128
-0.022355063 0.10283329 0.45066401 6579300
-0.021562852 0.1029321 0.45109707 6776679
-0.020769119 0.10303112 0.45153099 6776679
-0.019976826 0.10314566 0.45203295 6710886
-0.01918521 0.10327358 0.45259356 6710886
-0.018391626 0.10340181 0.45315555 6710886
-0.017596072 0.10353037 0.45371896 6710886
-0.016798535 0.10365925 0.45428377 6710886
-0.01599901 0.10378845 0.45484999 6250335
-0.015197489 0.10391797 0.4554176 6184542
-0.014398076 0.10407752 0.45611683 4079166
-0.01359993 0.10426614 0.45694342 5789784
-0.012824976 0.10466836 0.45870614 2829099
-0.012034282 0.10498874 0.46011022 4079166
-0.011238733 0.1053111 0.46152294 4868681
-0.010438285 0.10563544 0.46294436 3684407
-0.009633977 0.10597375 0.46442699 4998977
-0.0088414717 0.10651869 0.46681517 6246984
-0.0080239726 0.10684553 0.46824753 7232074
-0.0072046323 0.10722188 0.46989688 7166024
-0.0063872146 0.10773102 0.47212818 7034696
-0.0055612084 0.10822967 0.4743135 6246983
-0.062096409 0.11729322 0.51000261 6574403
-0.060896065 0.11675561 0.50766504 6574403
-0.059706677 0.11622293 0.50534886 6838348
-0.057453521 0.11357091 0.49381766 7564132
-0.056306347 0.11305606 0.491579 6772041
-0.055188194 0.11258391 0.48952609 6176559
-0.05410267 0.11216407 0.48770058 6172942
-0.053025216 0.11174735 0.48588863 5843471
-0.051919058 0.11125512 0.48374838 5909006
-0.050844878 0.11081576 0.48183796 5711375
-0.049756285 0.11032915 0.47972214 5118484
-0.048672859 0.10983698 0.47758216 5052950
-0.047594827 0.10933947 0.4754189 4857375
-0.046492707 0.10876734 0.47293124 4924710
-0.045404311 0.10820653 0.47049281 5913910
-0.044339623 0.10768194 0.46821183 7234140
-0.043298081 0.10719428 0.46609142 7827821
-0.042271551 0.1067252 0.46405181 7629926
-0.041253965 0.10626021 0.46202999 7102293
-0.040209867 0.10570635 0.45962176 6640453
-0.039264258 0.10539353 0.45826158 6574403
-0.038383625 0.10524542 0.45761758 6574403
-0.037505463 0.10509772 0.45697537 6574403
-0.036629759 0.10495044 0.45633495 6574403
-0.035756506 0.10480355 0.45569631 6574403
