# .PCD v0.7 - Point Cloud Data file format
VERSION 0.7
FIELDS x y z rgb
SIZE 4 4 4 4
TYPE F F F U
COUNT 1 1 1 1
WIDTH 1113
HEIGHT 1
VIEWPOINT 0 0 0 1 0 0 0
POINTS 1113
DATA ascii
-0.026887979 0.042252537 0.60841757 11825
-0.025783349 0.042240806 0.60824865 10540
-0.024679335 0.042229082 0.60807985 9254
-0.023575934 0.04221737 0.60791117 8226
-0.022473376 0.042206097 0.60774887 7712
-0.021376401 0.042204689 0.6077286 7454
-0.020279501 0.042203285 0.60770833 6941
-0.019182671 0.042201877 0.60768807 6427
-0.018085916 0.042200468 0.6076678 6169
-0.016994808 0.042212907 0.60784692 5655
-0.015903445 0.042226389 0.60804105 4884
-0.014811386 0.042239878 0.6082353 1286
-0.013722087 0.042264029 0.60858303 1
-0.012632187 0.042290367 0.6089623 0
-0.011540928 0.042316735 0.60934198 0
-0.010448307 0.04234314 0.6097222 460552
-0.0093543213 0.042369574 0.61010283 2170920
-0.0082589686 0.042396039 0.61048394 7105647
-0.0071622478 0.042422544 0.61086559 8750469
-0.0060641537 0.042449079 0.61124766 8750469
-0.0049646855 0.042475644 0.6116302 8750469
-0.003864161 0.042505771 0.612064 8684676
-0.0027622797 0.042539109 0.61254406 8816262
-0.0016592125 0.042586453 0.61322582 8947848
-0.00055368704 0.042633902 0.61390907 8947848
0.00055430469 0.042681459 0.61459386 8947848
0.0016647711 0.042729124 0.61528021 8947848
0.0027777203 0.042776894 0.61596805 8816262
0.0038931612 0.042824771 0.6166575 8487038
0.0050111013 0.042872757 0.61734843 8289657
0.0061363569 0.042954501 0.61852551 8026742
0.0072693899 0.043057155 0.6200037 8157816
0.0084016947 0.043128699 0.62103391 8486781
0.0095355799 0.043190565 0.62192476 8421501
-0.0466967 0.044446256 0.62380344 7237230
-0.045310438 0.044191662 0.6202302 8355711
-0.043933474 0.043933474 0.61660653 8421504
-0.042773172 0.043884162 0.61591446 8421504
-0.041615471 0.043834962 0.61522394 8421504
-0.040460359 0.04378587 0.61453491 8289918
-0.03930784 0.04373689 0.61384749 4342338
-0.038158029 0.043688178 0.61316383 789516
-0.037011437 0.043640353 0.61249256 131586
-0.035867356 0.043592632 0.61182284 0
-0.03472577 0.043545015 0.6111545 771
-0.033586681 0.043497503 0.6104877 2313
-0.032462906 0.04346728 0.61006349 3085
-0.031353455 0.043454789 0.6098882 2828
-0.030244641 0.043442301 0.60971296 2571
-0.029136565 0.043429974 0.60953993 2057
-0.028029274 0.043417897 0.60937041 1543
-0.026922598 0.043405823 0.60920095 1029
-0.025816541 0.043393761 0.60903168 771
-0.024711095 0.043381702 0.6088624 771
-0.023606267 0.043369651 0.6086933 771
-0.02250205 0.043357607 0.60852426 771
-0.021401355 0.043351464 0.60843801 771
-0.020303171 0.043350015 0.60841769 771
-0.019205062 0.043348566 0.60839736 771
-0.018110316 0.043354999 0.60848767 514
-0.017018162 0.043368861 0.60868222 514
-0.015925307 0.043382734 0.60887688 514
-0.014831753 0.043396611 0.60907167 257
-0.0137375 0.043410499 0.60926658 0
-0.012644675 0.043431707 0.60956424 0
-0.011552343 0.043458816 0.6099447 0
-0.010458648 0.043485958 0.61032563 460551
-0.0093635852 0.04351313 0.61070704 2105127
-0.0082671531 0.043540344 0.61108893 6973805
-0.0071696108 0.043569174 0.61149359 8684676
-0.0060709743 0.043600634 0.61193514 8684676
-0.0049707452 0.043632094 0.61237669 8684676
-0.003868914 0.043663457 0.61281687 8684676
-0.0027654977 0.043694865 0.61325765 8684676
-0.0016605749 0.043728475 0.61372936 8816262
-0.00055414229 0.043777239 0.6144138 8947848
0.00055476092 0.043826114 0.61509973 8947848
0.0016661427 0.043875091 0.61578715 8947848
0.0027800116 0.043924186 0.61647618 8816262
0.0038963759 0.043973386 0.6171667 8355452
0.0050194832 0.044059906 0.61838102 8092279
0.0061476617 0.044151388 0.61966497 8355195
0.007275817 0.04421458 0.62055188 8486781
0.0084072072 0.044277959 0.62144136 8486781
0.009541844 0.044341512 0.62233335 8487037
-0.046735466 0.045609307 0.62432128 7237230
-0.045444403 0.045444403 0.62206399 8421504
-0.043991115 0.045104817 0.61741555 8421503
-0.042829227 0.045054123 0.61672163 8421504
-0.041669946 0.045003541 0.61602926 8421504
-0.04051327 0.044953078 0.6153385 8421504
-0.039359178 0.044902723 0.61464924 6974058
-0.038207676 0.044852488 0.61396158 2236962
-0.037058741 0.04480236 0.61327541 394758
-0.035912588 0.044752613 0.61259443 0
-0.03476952 0.04470367 0.61192447 0
-0.033628944 0.044654831 0.61125594 257
-0.032504436 0.044624731 0.61084396 258
-0.031393554 0.04461189 0.61066818 514
-0.030283498 0.044599332 0.61049628 257
-0.029174151 0.044586912 0.61032623 257
-0.028065423 0.044574495 0.6101563 257
-0.026957311 0.044562086 0.60998642 257
-0.025849817 0.044549685 0.60981667 257
-0.024742939 0.044537287 0.60964698 257
-0.023636675 0.044524901 0.6094774 0
-0.022531029 0.044512521 0.60930794 0
-0.021426365 0.04450091 0.60914904 0
-0.020326898 0.044499423 0.60912865 0
-0.019228181 0.044499505 0.60912979 0
-0.018135231 0.044513747 0.60932475 0
-0.017041581 0.044528 0.60951984 0
-0.015947228 0.04454226 0.60971504 0
-0.014852176 0.044556528 0.60991037 0
-0.013756422 0.044570807 0.61010581 0
-0.012659966 0.044585098 0.61030143 0
-0.011563783 0.044603162 0.61054868 0
-0.01046901 0.044631042 0.61093032 394759
-0.0093736667 0.044662762 0.61136454 1973540
-0.0082768537 0.044695009 0.61180592 6579047
-0.0071784547 0.044727296 0.61224788 8684676
-0.0060784607 0.044759575 0.61268973 8684676
-0.0049768626 0.044791762 0.61313033 8684676
-0.0038736789 0.044823997 0.61357158 8684676
-0.0027689058 0.044856276 0.61401343 8684676
-0.0016625408 0.044888604 0.61445594 8684676
-0.00055459817 0.044922452 0.6149193 8816262
0.00055521785 0.044972647 0.61560637 8947848
0.0016675168 0.045022953 0.61629498 8947848
0.0027823069 0.045073371 0.61698514 8684675
0.0039031301 0.045164794 0.61823654 8421502
0.0050260094 0.045234084 0.61918503 8421244
0.0061516864 0.045298781 0.62007064 8486781
0.0072805868 0.045363657 0.62095869 8486781
0.0084127262 0.045428723 0.62184936 8421245
0.0095481183 0.045493975 0.62274253 7302764
-0.045495145 0.04661848 0.62275857 8421504
-0.044121332 0.046355326 0.61924314 8355711
-0.042882524 0.04622402 0.6174891 8421504
-0.041722443 0.046172839 0.61680537 8421504
-0.040564928 0.046121769 0.61612314 8421504
-0.039409969 0.046070807 0.6154424 8289918
-0.038257562 0.046019964 0.6147632 4210752
-0.037107099 0.045968495 0.61407566 723723
-0.035959184 0.045917112 0.61338925 65793
-0.034813832 0.045865841 0.61270434 0
-0.033671319 0.045815073 0.61202615 0
-0.032546073 0.045785155 0.61162645 0
-0.031434037 0.04577237 0.61145568 0
-0.030322626 0.0457596 0.61128509 0
-0.029211834 0.045746833 0.61111456 0
-0.028101666 0.045734081 0.61094421 0
-0.026992114 0.045721333 0.61077392 0
-0.025883179 0.045708593 0.61060369 0
-0.024774862 0.045695856 0.61043358 0
-0.023667164 0.045683131 0.61026359 0
-0.022560082 0.045670412 0.61009365 0
-0.021453617 0.045657698 0.60992384 0
-0.02035068 0.045651525 0.60984135 0
-0.019254662 0.045661055 0.60996866 0
-0.018160215 0.045675691 0.61016417 0
-0.017065065 0.045690335 0.61035979 0
-0.015969213 0.045704987 0.61055553 0
-0.014872474 0.045719087 0.61074388 0
-0.01377481 0.045732368 0.61092132 0
-0.012676507 0.045745656 0.61109883 0
-0.011577566 0.045758951 0.61127645 0
-0.010481799 0.04578891 0.61167663 394502
-0.0093852263 0.045821987 0.61211848 1841953
-0.0082870675 0.045855109 0.61256093 6184547
-0.0071873087 0.0458882 0.61300302 8684676
-0.0060859448 0.045921218 0.61344409 8684676
-0.0049829949 0.045954287 0.61388582 8684676
-0.0038784551 0.045987397 0.61432815 8684676
-0.0027723224 0.046020553 0.61477107 8684676
-0.0016645938 0.046053763 0.61521471 8684676
-0.00055526529 0.046087019 0.61565894 8684676
0.00055567559 0.046121076 0.6161139 8816262
0.001668893 0.046172708 0.61680365 8882055
0.0027860908 0.04624911 0.61782426 8816261
0.0039060935 0.046315111 0.61870593 8487038
0.0050292974 0.046381298 0.6195901 8486780
0.0061557158 0.046447672 0.62047678 8486781
0.0072853626 0.046514239 0.62136602 8486780
0.0084182527 0.046580996 0.62225783 8487037
-0.045532845 0.047781382 0.62327462 8421504
-0.044251576 0.047612455 0.6210711 8421504
-0.04293168 0.047392115 0.6181969 8421504
-0.041770216 0.047339577 0.61751163 8421504
-0.040611323 0.047287159 0.61682785 8421504
-0.039454997 0.047234852 0.61614555 8355711
-0.038301222 0.047182664 0.61546481 4868682
-0.037149996 0.047130592 0.61478555 1052688
-0.03600131 0.047078636 0.61410779 131586
-0.03485515 0.047026791 0.61343151 0
-0.033714641 0.04697942 0.61281359 0
-0.032585673 0.04694546 0.61237061 0
-0.031472433 0.046932578 0.61220258 0
-0.03035981 0.046919707 0.61203468 0
-0.029247794 0.04690684 0.61186683 0
-0.028136387 0.04689398 0.6116991 0
-0.027025593 0.046881132 0.6115315 0
-0.025915405 0.046868287 0.61136395 0
-0.024805825 0.046855446 0.61119646 257
-0.023696853 0.046842616 0.61102909 514
-0.022588486 0.04682979 0.61086178 515
-0.02148073 0.046816975 0.61069465 771
-0.020376028 0.046809793 0.61060095 1028
-0.01927999 0.046822835 0.61077106 1028
-0.018183557 0.04683644 0.6109485 1285
-0.017086489 0.046850052 0.61112607 1543
-0.01598878 0.046863668 0.61130369 1799
-0.014890434 0.046877291 0.61148143 257
-0.013791448 0.046890922 0.61165923 0
-0.012691823 0.046904564 0.61183715 0
-0.011591559 0.046918217 0.61201525 0
-0.010494732 0.04695012 0.61243141 328965
-0.0093968147 0.046984076 0.61287433 1644830
-0.0082972925 0.047017988 0.61331671 5921119
-0.0071961628 0.047051836 0.61375821 8684676
-0.0060934476 0.047085732 0.61420035 8684676
-0.0049891421 0.047119677 0.61464316 8684676
-0.0038832433 0.047153667 0.61508656 8684676
-0.0027757476 0.047187712 0.61553061 8684676
-0.0016666518 0.047221802 0.61597532 8684676
-0.00055595179 0.047255903 0.61642015 8684676
0.00055632135 0.047287315 0.61682987 8750469
0.0016705749 0.047332954 0.6174252 8882055
0.0027881772 0.047399014 0.61828691 8750212
0.0039089033 0.047465257 0.619151 8420731
0.0050327666 0.047531687 0.62001753 8420987
0.0061597805 0.047598302 0.6208865 8420987
0.0072901458 0.047666337 0.62177396 8355451
0.0084237866 0.04773479 0.6226669 8421500
0.009627277 0.048136387 0.62790543 7895160
-0.045570612 0.048946213 0.62379158 7237230
-0.044297606 0.04878344 0.62171715 8421504
-0.04298095 0.048562892 0.61890638 8421247
-0.041818097 0.048508994 0.61821949 8421504
-0.040657829 0.04845522 0.61753416 8421504
-0.039500125 0.048401561 0.61685032 8421504
-0.038344983 0.048348021 0.61616796 5460819
-0.037194163 0.048296895 0.61551642 1381653
-0.036047526 0.048248228 0.61489618 197379
-0.034903202 0.048199657 0.61427718 257
-0.033761177 0.048151188 0.61365944 2056
-0.032623213 0.048105415 0.61307609 7197
-0.03150868 0.048092198 0.61290765 9511
-0.030394766 0.048078995 0.61273938 11054
-0.02928146 0.048065793 0.61257112 12596
-0.028168768 0.048052602 0.61240304 14138
-0.027056683 0.048039418 0.61223501 15681
-0.025945209 0.048026238 0.61206704 17223
-0.024834346 0.048013069 0.6118992 18765
-0.023724092 0.047999907 0.61173147 20308
-0.022615436 0.047988851 0.61159056 21593
-0.021507692 0.047978699 0.61146116 22878
-0.020402944 0.04797449 0.61140752 23649
-0.019304996 0.047986705 0.61156321 23135
-0.018206488 0.047998924 0.61171895 22878
-0.017107422 0.04801115 0.61187476 22621
-0.016008105 0.048024315 0.61204255 16708
-0.014908437 0.048038296 0.6122207 1800
-0.013808127 0.048052285 0.61239898 257
-0.012707177 0.048066277 0.61257732 0
-0.011605585 0.04808028 0.61275578 0
-0.010507698 0.048114195 0.61318803 263172
-0.0094084116 0.048148926 0.61363065 1578780
-0.0083075184 0.048183609 0.61407262 5723740
-0.0072050393 0.04821834 0.61451524 8684676
-0.0061009685 0.048253115 0.61495847 8684676
-0.0049952655 0.048287567 0.61539751 8684676
-0.0038877849 0.048319612 0.61580592 8750469
-0.002778833 0.048351698 0.61621481 8750469
-0.0016684078 0.048383825 0.6166243 8750469
-0.00055650581 0.048416004 0.61703438 8750469
0.00055687607 0.04844822 0.61744493 8750469
0.0016722587 0.048495501 0.61804754 8882055
0.0027909914 0.048563253 0.61891097 8750468
0.003912854 0.048631188 0.61977679 8355451
0.0050378609 0.048699323 0.62064511 8289658
0.0061660237 0.048767641 0.62151581 8223865
0.0072976779 0.048838306 0.62241638 8158073
0.0084338672 0.048916429 0.62341201 8158073
0.0095892372 0.049074329 0.62542439 9013640
-0.045608439 0.050112974 0.62430936 7237230
-0.044334251 0.049946185 0.62223148 8421504
-0.043062549 0.049773596 0.62008137 8355711
-0.041866094 0.049681097 0.61892903 8421504
-0.040704511 0.049626049 0.61824322 8421504
-0.039549246 0.049575817 0.61761743 8421504
-0.038396321 0.049525689 0.61699295 5658198
-0.037245724 0.049475662 0.61636972 1513239
-0.036097448 0.04942574 0.61574775 197379
-0.034951489 0.049375914 0.61512703 771
-0.03380784 0.049326193 0.61450762 5912
-0.032666489 0.049276568 0.6138894 17994
-0.031545013 0.049254496 0.61361438 19793
-0.030429799 0.04924095 0.61344564 19022
-0.029315205 0.04922742 0.61327708 18251
-0.028201221 0.049213894 0.61310858 17479
-0.027087845 0.049200371 0.61294013 16708
-0.025975084 0.049186859 0.61277181 15937
-0.024864297 0.049176052 0.61263716 15166
-0.023754181 0.049165633 0.61250734 14652
-0.022644537 0.049155213 0.61237752 13881
-0.021535363 0.049144801 0.61224782 13110
-0.02042993 0.049142264 0.61221623 12596
-0.019330535 0.049154792 0.61237228 12081
-0.018230582 0.049167328 0.61252844 11310
-0.017130066 0.049179867 0.61268467 10540
-0.016028989 0.049192417 0.61284101 7712
-0.014927349 0.049204964 0.61299735 1028
-0.013825147 0.049217526 0.61315382 0
-0.012722568 0.049230807 0.61331928 0
-0.011619719 0.049245477 0.61350203 0
-0.010520669 0.049281027 0.61394495 197380
-0.0094198743 0.04931581 0.61437827 1512987
-0.0083171604 0.049348485 0.61478531 5526361
-0.0072129844 0.0493812 0.61519289 8750469
-0.0061073434 0.04941396 0.615601 8750469
-0.0050002346 0.049446765 0.61600971 8750469
-0.0038916548 0.049479611 0.6164189 8750469
-0.0027816014 0.049512506 0.61682868 8750469
-0.0016700708 0.049545433 0.61723894 8750469
-0.00055706082 0.049578413 0.61764979 8750469
0.00055743189 0.049611438 0.61806118 8750469
0.0016739458 0.049660392 0.61867106 8882055
0.0027938113 0.049729843 0.61953628 8750468
0.0039168135 0.049799483 0.62040389 8289659
0.0050433883 0.049873509 0.62132609 8158072
0.0061739851 0.049953151 0.62231827 8158072
0.0073081977 0.050033044 0.62331361 8158072
0.0084460452 0.050113197 0.62431216 8158072
0.009587544 0.050193612 0.62531394 8421502
0.010874931 0.050940465 0.63461828 9539985
-0.044370964 0.051110856 0.62274671 8421504
-0.043119051 0.050958879 0.62089497 8421504
-0.041940138 0.050887369 0.62002367 8421504
-0.040764526 0.050816052 0.61915475 8421504
-0.039604262 0.050760392 0.61847657 8026746
-0.038449679 0.050708998 0.61785036 5789784
-0.037297431 0.050657704 0.61722541 1579032
-0.036147512 0.050606515 0.61660171 197379
-0.034999914 0.05055543 0.61597925 257
-0.03385463 0.05050445 0.61535811 1799
-0.032711655 0.05045357 0.61473817 4626
-0.031581424 0.050419468 0.61432266 4370
-0.030464919 0.050405595 0.61415362 3599
-0.029349023 0.050391719 0.61398458 2571
-0.028233839 0.050378028 0.61381775 1542
-0.02712087 0.050367329 0.6136874 1029
-0.026008371 0.050356634 0.6135571 1028
-0.024896348 0.050345946 0.61342686 772
-0.023784794 0.050335262 0.61329669 771
-0.022673713 0.050324582 0.61316657 515
-0.021563103 0.050313909 0.61303651 514
-0.02045699 0.050313137 0.6130271 514
-0.019356145 0.050325979 0.61318356 257
-0.01825474 0.050338827 0.61334014 257
-0.017152771 0.050351683 0.61349678 0
-0.01605024 0.050364546 0.61365348 0
-0.014947145 0.050377417 0.6138103 0
-0.013843487 0.050390292 0.61396718 0
-0.012739479 0.050404023 0.61413449 0
-0.011635307 0.050419662 0.61432505 0
-0.010531727 0.050441433 0.61459029 131587
-0.0094293468 0.050474737 0.61499608 1381400
-0.0083255088 0.050508086 0.6154024 5197141
-0.007220211 0.050541479 0.61580926 8750469
-0.006113451 0.050574914 0.61621666 8750469
-0.005005226 0.050608393 0.61662459 8750469
-0.0038955326 0.050641924 0.61703312 8750469
-0.0027843746 0.050675619 0.61744368 8750469
-0.0016717373 0.050709363 0.61785483 8750469
-0.00055761699 0.050743148 0.61826646 8750469
0.00055798882 0.050776981 0.61867869 8750469
0.0016756364 0.050827637 0.6192959 8816262
0.0027969826 0.050905086 0.62023956 8618883
0.0039220182 0.050986238 0.62122834 8355709
0.0050506461 0.051067647 0.62222022 8158072
0.0061828839 0.051149312 0.62321526 8158072
0.0073187491 0.051231243 0.62421352 8158072
0.0084582577 0.05131343 0.62521493 8158072
0.0096014291 0.051395886 0.62621957 8158072
0.01080068 0.051729575 0.63028532 9276556
0.011994336 0.051975455 0.63328117 9605778
-0.044458557 0.052337289 0.62397611 8421504
-0.043274753 0.052266907 0.623137 8421504
-0.04209137 0.052193295 0.62225938 8421504
-0.040911309 0.052119888 0.6213842 7763574
-0.039734568 0.052046686 0.62051147 5395026
-0.038561128 0.051973693 0.61964124 2697513
-0.037390973 0.051900901 0.6187734 1118481
-0.03622409 0.051828314 0.617908 395272
-0.035060469 0.051755931 0.61704504 131843
-0.033901554 0.051685974 0.616211 66308
-0.032756947 0.051633831 0.61558932 0
-0.031617925 0.051587142 0.61503267 0
-0.030500554 0.051573664 0.61487198 0
-0.02938519 0.051562693 0.61474121 0
-0.0282703 0.051551726 0.61461043 0
-0.027155887 0.051540766 0.61447978 0
-0.026041945 0.051529806 0.61434913 0
-0.02492848 0.051518857 0.61421859 0
-0.023815485 0.051507909 0.61408806 0
-0.022702964 0.051496968 0.61395758 0
-0.021590916 0.05148603 0.61382723 0
-0.020484118 0.051487107 0.61384004 0
-0.019381823 0.051500272 0.61399698 0
-0.01827896 0.051513433 0.61415392 0
-0.017175537 0.051526606 0.61431098 0
-0.016071549 0.05153979 0.61446816 0
-0.014967445 0.051554535 0.61464393 0
-0.013863049 0.051570542 0.61483479 0
-0.012757967 0.051586561 0.61502576 0
-0.011652197 0.051602583 0.61521679 0
-0.01054574 0.051618624 0.615408 131586
-0.0094390139 0.051636957 0.61562657 1249813
-0.00833405 0.051671106 0.61603373 4933969
-0.0072276229 0.051705305 0.61644143 8750469
-0.0061197309 0.051739544 0.61684966 8750469
-0.0050103706 0.051773831 0.61725843 8750469
-0.0038995396 0.051808167 0.61766779 8750469
-0.0027872336 0.051842544 0.61807764 8750469
-0.0016734507 0.05187697 0.61848807 8750469
-0.00055818877 0.051911555 0.61890042 8750469
0.00055857172 0.051947169 0.61932498 8750469
0.0016774681 0.052001514 0.61997288 8947848
0.002800266 0.052084949 0.62096763 8882054
0.0039266725 0.052168649 0.62196553 8618625
0.0050567053 0.05225262 0.62296665 8289659
0.0061903815 0.05233686 0.62397099 8355195
0.0073277191 0.052421376 0.6249786 8355194
0.008468736 0.052506164 0.62598944 8355195
0.0096134497 0.052591223 0.62700355 8355195
0.010766563 0.052699491 0.62829435 8618625
0.011949828 0.052920669 0.63093126 9013641
0.013143068 0.05314371 0.6335904 7829367
-0.044491325 0.053502224 0.62443596 7237230
-0.043308187 0.053432178 0.62361842 8421504
-0.042128142 0.053362314 0.62280303 8421504
-0.040951181 0.053292632 0.62198979 8355711
-0.039777294 0.053223137 0.62117869 4342338
-0.038606461 0.05315382 0.62036967 1052688
-0.037438672 0.053084683 0.61956275 65793
-0.036273919 0.053015728 0.61875796 0
-0.035112187 0.052946948 0.61795521 0
-0.033953466 0.05287835 0.6171546 0
-0.032807868 0.052826229 0.61654627 0
-0.031666767 0.052777942 0.61598271 0
-0.030539898 0.052750733 0.61566514 0
-0.029423142 0.052739594 0.61553514 0
-0.028306859 0.052728459 0.6154052 0
-0.027190998 0.052717242 0.61527425 0
-0.026075607 0.052706014 0.61514324 0
-0.024960695 0.052694801 0.61501235 0
-0.023846257 0.052683592 0.61488152 0
-0.022732291 0.052672382 0.61475068 0
-0.0216188 0.05266118 0.61461997 0
-0.02051132 0.052664198 0.6146552 0
-0.019407567 0.052677684 0.61481255 0
-0.018303247 0.052691165 0.61496991 0
-0.017199114 0.052706961 0.61515427 65793
-0.016094491 0.052723333 0.61534536 65793
-0.014989184 0.052739721 0.61553663 65793
-0.013883189 0.05275612 0.61572802 65793
-0.012776507 0.052772529 0.61591953 65793
-0.011669136 0.052788947 0.61611116 65793
-0.010561075 0.052805375 0.61630291 197123
-0.0094523253 0.052821815 0.61649477 1118483
-0.0083428845 0.052838266 0.61668676 4539468
-0.0072350507 0.052871522 0.61707491 8684676
-0.0061260243 0.052906573 0.61748397 8750469
-0.0050155264 0.052941665 0.61789358 8750469
-0.0039035543 0.052976809 0.61830372 8750469
-0.0027901474 0.053012803 0.61872381 8750469
-0.0016752367 0.053049162 0.61914819 8750469
-0.00055879547 0.053085573 0.61957312 8750469
0.00055917929 0.053122029 0.61999863 8750469
0.0016791383 0.053172711 0.62059015 8882055
0.0028030584 0.05325811 0.62158686 8882054
0.0039305948 0.053343784 0.62258679 8618882
0.0050617638 0.05342973 0.62358987 8289915
0.0061965846 0.053515956 0.62459624 8289659
0.0073350738 0.053602464 0.62560588 8355451
0.0084770992 0.053688295 0.62660766 8355451
0.0096222162 0.053771209 0.62757534 8420987
0.010786776 0.053933881 0.62947392 8816262
0.011972358 0.054160666 0.63212079 8882055
0.013162454 0.054366656 0.63452494 6447714
-0.044524133 0.054668874 0.62489647 7237230
-0.043340083 0.054597247 0.62407774 8421504
-0.042159129 0.054525807 0.62326115 8421504
-0.040981267 0.054454558 0.62244672 7631988
-0.039806474 0.054383494 0.62163442 3158064
-0.038634747 0.054312613 0.62082422 526344
-0.037466064 0.054241918 0.6200161 197379
-0.036309231 0.054184545 0.61936033 197379
-0.035159707 0.05413479 0.61879158 263172
-0.034012295 0.054085128 0.61822391 197379
-0.032866988 0.054035559 0.6176573 197379
-0.031723775 0.053986073 0.61709166 197379
-0.030582653 0.053936679 0.61652708 197379
-0.029460981 0.053919155 0.61632675 131586
-0.028343257 0.053907759 0.61619651 197379
-0.027225999 0.053896368 0.61606628 197379
-0.026109217 0.053884979 0.6159361 197379
-0.024992906 0.053873595 0.61580598 197379
-0.023877066 0.053862218 0.61567593 197379
-0.022761695 0.053850841 0.61554587 197379
-0.021646759 0.053839374 0.6154148 263172
-0.020538645 0.053844556 0.61547405 263172
-0.019434487 0.053861294 0.61566538 263172
-0.018329645 0.053878043 0.61585683 263172
-0.017224113 0.053894803 0.6160484 263172
-0.016117895 0.053911578 0.61624014 328965
-0.015010986 0.053928357 0.61643195 394758
-0.013903389 0.05394515 0.61662388 460551
-0.012795102 0.053961951 0.61681592 526344
-0.011686125 0.053978767 0.61700815 592137
-0.010576456 0.053995591 0.61720043 723723
-0.0094660949 0.054012422 0.61739284 1315861
-0.008355041 0.054029264 0.61758536 4078919
-0.0072432947 0.054046124 0.61777806 8618883
-0.0061323722 0.054076374 0.61812383 8750469
-0.0050208326 0.054113422 0.61854732 8750469
-0.0039077699 0.054150525 0.61897147 8750469
-0.0027931794 0.054187682 0.61939615 8750469
-0.0016770583 0.054224886 0.61982143 8750469
-0.0005594035 0.054262139 0.62024724 8750469
0.00055978814 0.054299448 0.62067372 8750469
0.0016808118 0.054346249 0.62120867 8882055
0.0028058565 0.054433618 0.62220734 8882054
0.0039345245 0.054521266 0.62320924 8618882
0.005066833 0.054609198 0.62421435 8355451
0.0062028002 0.054697417 0.62522274 8355451
0.0073420024 0.054782633 0.6261968 8420987
0.0084846159 0.054867182 0.62716323 8355451
0.0096307611 0.054951988 0.62813264 8618625
0.010807066 0.055172917 0.63065797 8816262
0.011987554 0.055371083 0.63292313 9079434
-0.043372031 0.055764038 0.62453777 8421504
-0.042190164 0.055691015 0.62371993 8421504
-0.041011393 0.055618189 0.6229043 6052704
-0.039842706 0.055555321 0.62220019 2697006
-0.038684655 0.055504069 0.6216262 1775902
-0.037528742 0.05545292 0.62105334 1644314
-0.03637496 0.055401862 0.62048149 1512728
-0.035223298 0.055350896 0.61991072 1381398
-0.034073751 0.055300023 0.61934096 1315605
-0.032926317 0.055249248 0.61877227 1249811
-0.031780988 0.055198561 0.61820459 1184018
-0.03063776 0.055147968 0.61763799 1118225
-0.029498922 0.05510176 0.61712044 986895
-0.028379748 0.055090096 0.61698985 1118225
-0.027261047 0.055078443 0.61685932 1184018
-0.026142819 0.055066787 0.61672878 1249811
-0.025025062 0.055055138 0.61659831 1315605
-0.023907783 0.055043496 0.61646795 1381398
-0.022790972 0.055031858 0.6163376 1447191
-0.021676499 0.055024963 0.61626035 1578520
-0.020563779 0.055022001 0.61622721 1644313
-0.01945819 0.055038877 0.61641622 1710108
-0.018351924 0.055055771 0.6166054 1644318
-0.017244976 0.055072669 0.61679465 1643807
-0.01613735 0.055089574 0.61698401 1578017
-0.015029044 0.055106495 0.61717349 1577763
-0.013920057 0.055123422 0.6173631 1577509
-0.012810388 0.055140365 0.61755282 1511719
-0.011700036 0.055157315 0.61774266 1511465
-0.010589003 0.055174276 0.61793262 1445931
-0.0094772847 0.055191249 0.6181227 1445936
-0.0083647817 0.055207558 0.61830539 3485774
-0.0072513595 0.055221893 0.6184659 8487297
-0.0061384528 0.055246074 0.61873674 8750469
-0.0050260378 0.055286415 0.61918855 8816262
-0.0039119972 0.055326816 0.61964101 8750469
-0.0027962178 0.055365112 0.62006992 8750469
-0.0016788838 0.055403166 0.62049609 8750469
-0.00056001288 0.055441275 0.62092292 8750469
0.00056039833 0.055479433 0.62135029 8750469
0.0016824886 0.055522121 0.62182838 8882055
0.0028086603 0.055611473 0.62282908 8882054
0.0039384621 0.055701107 0.62383294 8618882
0.0050717844 0.055789627 0.62482435 8355452
0.0062083933 0.05587554 0.62578654 8420987
0.0073485081 0.055961713 0.62675166 8355707
0.0084921457 0.056048159 0.62771982 8355451
0.0096471552 0.056180492 0.62920189 8684675
0.010823258 0.056394871 0.63160288 9013641
0.011997683 0.056560505 0.6334579 9079434
-0.043408725 0.056938719 0.62506616 8421504
-0.042242046 0.056885954 0.62448692 8224126
-0.041077524 0.05683329 0.62390876 5130597
-0.039915156 0.056780715 0.62333161 2036810
-0.038754936 0.056728244 0.62275559 1706047
-0.037596863 0.05667587 0.62218064 1837115
-0.036440924 0.056623589 0.62160671 1640251
-0.035287116 0.056571405 0.62103385 1508924
-0.034135431 0.056519318 0.62046206 1312060
-0.032985866 0.056467328 0.61989129 1246523
-0.031838413 0.056415431 0.61932158 1246777
-0.030693067 0.056363635 0.61875296 1312567
-0.029549824 0.056311928 0.61818534 1312821
-0.028416334 0.056275487 0.61778527 1247285
-0.027296184 0.056263562 0.61765438 1181496
-0.026176505 0.056251638 0.61752349 1181242
-0.025057305 0.056239728 0.61739272 1180987
-0.023938578 0.056227818 0.61726201 1115197
-0.022823066 0.056222674 0.6172055 1180478
-0.021708544 0.056219563 0.61717135 1312062
-0.020594142 0.056216445 0.61713713 1508925
-0.019480363 0.056214761 0.61711866 1705788
-0.018372841 0.056232028 0.6173082 1902653
-0.01726464 0.056249309 0.61749792 2099516
-0.016155755 0.056266598 0.6176877 2296379
-0.015046191 0.056283902 0.61787766 2427707
-0.013935943 0.05630121 0.61806768 2624570
-0.012825012 0.056318533 0.61825782 2821433
-0.011713397 0.056335863 0.61844808 2952760
-0.010601045 0.056352921 0.61863536 3149623
-0.0094876084 0.056367554 0.61879599 2165312
-0.0083735948 0.056382202 0.6189568 2827093
-0.0072590006 0.056396853 0.61911762 8421249
-0.0061443145 0.056415979 0.6193276 8750469
-0.0050308411 0.056457218 0.6197803 8816262
-0.0039157383 0.056498509 0.6202336 8816262
-0.0027990032 0.056539867 0.6206876 8816262
-0.0016806321 0.056581281 0.62114227 8816262
-0.00056062138 0.056622759 0.62159759 8750469
0.0005610098 0.056661993 0.62202829 8750469
0.00168419 0.056701064 0.62245721 8816262
0.0028114694 0.056791682 0.62345201 8882055
0.0039421422 0.056879483 0.62441587 8618625
0.0050762682 0.056967013 0.62537676 8355451
0.0062138909 0.057054818 0.62634069 8355451
0.0073550255 0.057142891 0.62730753 8355451
0.0084996885 0.057231233 0.62827736 8487038
0.00966381 0.057414398 0.63028812 8947848
0.010832383 0.057582669 0.63213539 9079434
0.012007828 0.057751935 0.63399357 6447714
-0.043467525 0.058144871 0.62591285 8421504
-0.042291895 0.058080867 0.62522388 8421504
-0.041131847 0.058035344 0.62473381 5722731
-0.039974008 0.057990462 0.62425065 2627144
-0.038817953 0.057945643 0.62376821 3806003
-0.037663687 0.057900894 0.62328649 5446695
-0.036507126 0.057849754 0.62273598 5381160
-0.035351165 0.057796348 0.62216109 5184297
-0.03419733 0.057743032 0.62158716 4987434
-0.033045627 0.057689819 0.62101436 4856107
-0.03189604 0.057636704 0.62044257 4790315
-0.03074857 0.057583686 0.61987185 4659244
-0.029603211 0.057530768 0.61930221 4527917
-0.028459953 0.057477947 0.61873358 4331054
-0.02733141 0.05745174 0.61845148 4462381
-0.026210282 0.057439551 0.61832029 4659245
-0.025089627 0.057427369 0.61818916 4724780
-0.023973154 0.057424065 0.61815357 4856107
-0.022856856 0.05742088 0.6181193 4921642
-0.021740682 0.057417698 0.61808503 5052970
-0.020624632 0.057414513 0.61805075 5118761
-0.019508705 0.057411332 0.61801648 5249833
-0.018393807 0.057410974 0.61801267 5381160
-0.017284347 0.057428639 0.61820281 5578024
-0.016174205 0.057446312 0.61839306 5643816
-0.015063377 0.057463992 0.61858338 5774887
-0.013951866 0.057481688 0.61877388 5840679
-0.012839669 0.05749939 0.61896443 5971750
-0.011726246 0.057514448 0.6191265 6037542
-0.010612219 0.057529397 0.61928743 6103077
-0.0094976118 0.057544351 0.61944842 3806261
-0.0083824247 0.057559319 0.61960953 2826322
-0.0072666588 0.057574295 0.61977077 8355457
-0.0061503109 0.057589274 0.619932 8684676
-0.0050356537 0.05763026 0.62037319 8816262
-0.0039194869 0.057672452 0.62082738 8816262
-0.0028016847 0.057714704 0.62128222 8816262
-0.0016822433 0.05775702 0.62173772 8816262
-0.00056115922 0.057799399 0.62219393 8816262
0.00056157127 0.057841841 0.6226508 8750469
0.0016862409 0.057894271 0.6232152 8750469
0.0028139586 0.057967547 0.62400401 8750469
0.0039456114 0.058056854 0.62496537 8421502
0.0050807567 0.058146439 0.62592971 8289915
0.0062193982 0.058236182 0.62689579 8355707
0.0073615541 0.058326159 0.62786436 8355451
0.0085085193 0.058425166 0.62893015 8750211
0.0096719405 0.058600582 0.63081843 9079434
0.010841524 0.058772475 0.63266879 9079434
-0.043528978 0.059357695 0.62679774 8421504
-0.042351618 0.059292264 0.6261068 8421504
-0.041176852 0.059226982 0.62541741 7697273
-0.040006366 0.059164342 0.62475598 2891598
-0.038849354 0.059118584 0.62427276 3478069
-0.03769413 0.059072889 0.62379026 6628385
-0.036540691 0.059027269 0.62330854 6759456
-0.035389036 0.058981724 0.62282759 6759456
-0.034239154 0.058936246 0.62234735 6759456
-0.033091042 0.058890834 0.62186784 6693920
-0.0319447 0.058845498 0.62138909 6693920
-0.030800121 0.058800228 0.62091106 6628128
-0.029656792 0.058754023 0.62042314 6628128
-0.02851142 0.05869998 0.61985248 6562592
-0.027368151 0.058646038 0.61928284 6562593
-0.026244985 0.058632411 0.61913896 6562592
-0.025126781 0.058629155 0.61910456 6562592
-0.024008701 0.058625899 0.61907017 6562592
-0.022890748 0.058622647 0.61903584 6628384
-0.021772915 0.058619387 0.61900145 6628384
-0.020655209 0.058616132 0.61896706 6693920
-0.019537626 0.058612876 0.61893266 6693919
-0.018420167 0.058609623 0.61889833 6693919
-0.0173041 0.058610663 0.6189093 6759455
-0.016192693 0.058628719 0.61909997 6890784
-0.015080603 0.058646787 0.61929077 6890784
-0.013967276 0.05866256 0.6194573 6890784
-0.012853236 0.058677815 0.61961842 6890784
-0.011738616 0.058693077 0.61977959 6890784
-0.010623416 0.058708355 0.61994088 6890784
-0.0095076356 0.058723632 0.62010223 4396850
-0.0083912751 0.058738925 0.6202637 2825808
-0.007274332 0.058754221 0.62042522 8289664
-0.0061568073 0.058769524 0.62058681 8684676
-0.0050404752 0.05880554 0.62096715 8816262
-0.0039232424 0.058848638 0.62142223 8816262
-0.0028043713 0.058891796 0.62187797 8816262
-0.0016838576 0.058935016 0.62233436 8750469
-0.00056182919 0.058992065 0.62293679 8684676
0.00056239037 0.059050988 0.623559 8618883
0.0016888579 0.059110027 0.6241824 8618883
0.0028175802 0.059169184 0.62480712 8553089
0.0039489949 0.059234921 0.62550128 8289916
0.0050851204 0.059326403 0.62646729 8355451
0.0062247603 0.059418168 0.62743628 8355451
0.0073679313 0.059510212 0.62840825 8420988
0.0085163219 0.059614252 0.62950689 8882054
0.0096800849 0.05978876 0.63134962 9079434
0.010850681 0.059964288 0.63320315 9079434
-0.043590605 0.060573958 0.62768513 8421504
-0.042411514 0.060507096 0.62699229 8421504
-0.041235022 0.060440376 0.62630093 8355711
-0.040061124 0.060373809 0.62561113 4801122
-0.038889807 0.060307384 0.62492281 2822718
-0.037724622 0.060246784 0.62429488 6168867
-0.036570229 0.060200222 0.62381238 6759456
-0.035417616 0.060153726 0.62333059 6759456
-0.034266785 0.060107309 0.62284958 6759456
-0.033117726 0.060060959 0.62236929 6759456
-0.031970438 0.060014684 0.62188977 6759456
-0.03082492 0.059968483 0.62141103 6759456
-0.029681161 0.059922345 0.62093294 6759456
-0.028539162 0.059876282 0.62045562 6759456
-0.027402563 0.05983825 0.62006152 6693920
-0.026282737 0.059835166 0.62002957 6693920
-0.025163027 0.059832085 0.61999762 6693920
-0.02404343 0.059829 0.61996567 6693920
-0.022923952 0.059825923 0.61993378 6693920
-0.021804586 0.059822839 0.61990184 6693920
-0.020685336 0.059819758 0.61986989 6693920
-0.019566204 0.059816681 0.619838 6693920
-0.018447183 0.059813596 0.61980605 6693920
-0.017328281 0.059810519 0.61977416 6693920
-0.016210826 0.05981236 0.61979324 6890784
-0.015096693 0.059827637 0.61995155 6890784
-0.013982018 0.059843034 0.62011111 6890784
-0.012866805 0.059858616 0.62027258 6890784
-0.011751012 0.059874207 0.62043411 6890784
-0.010634638 0.059889805 0.62059575 6890784
-0.0095176818 0.05990541 0.62075746 4593968
-0.0084001431 0.059921023 0.62091923 2825550
-0.0072820224 0.059936646 0.62108111 8223871
-0.0061633177 0.059952274 0.62124306 8618883
-0.0050453059 0.059983082 0.6215623 8750469
-0.0039271312 0.060029004 0.62203819 8684676
-0.0028078915 0.06008888 0.62265861 8618883
-0.0016864168 0.060148869 0.62328023 8618883
-0.00056270073 0.060208976 0.6239031 8618883
0.00056326366 0.06026921 0.62452728 8618883
0.0016914831 0.060329564 0.62515265 8618883
0.0028219642 0.060390033 0.62577927 8553090
0.0039547142 0.060450632 0.62640721 8223867
0.0050897393 0.060511347 0.62703633 8158072
0.0062301192 0.060602069 0.62797642 8355452
0.0073742839 0.060696028 0.62895006 8355452
0.0085246665 0.060809292 0.63012373 8947848
0.0096882433 0.060978942 0.63188171 9079434
0.010859852 0.061158113 0.63373834 8750469
-0.043644726 0.061782796 0.62846446 8487297
-0.042471576 0.061725359 0.62788022 8553090
-0.041293357 0.061657205 0.62718695 8487297
-0.040117733 0.061589193 0.62649512 7631481
-0.038944703 0.06152134 0.6258049 2891341
-0.03777425 0.061453633 0.62511617 4200240
-0.036606371 0.061386071 0.62442893 6693919
-0.035446245 0.061327629 0.62383443 6693919
-0.03429446 0.061280265 0.62335265 6759456
-0.033144452 0.061232973 0.62287158 6759456
-0.03199622 0.061185755 0.62239128 6759456
-0.03084976 0.061138615 0.62191176 6759456
-0.029705061 0.061091539 0.6214329 6759456
-0.028562685 0.06104574 0.62096703 6693920
-0.027441163 0.061042588 0.62093496 6693920
-0.026319759 0.06103944 0.62090296 6693920
-0.025198471 0.061036296 0.62087095 6693920
-0.024077294 0.061033141 0.62083888 6693920
-0.022956237 0.061029997 0.62080687 6693920
-0.021835295 0.061026849 0.62077487 6693920
-0.020713527 0.061020929 0.62071466 6759712
-0.019591054 0.061012141 0.62062526 6825248
-0.018468905 0.061003353 0.62053585 6825248
-0.017347077 0.060994562 0.62044644 6825248
-0.016227623 0.060993478 0.62043542 6890785
-0.015112861 0.06101118 0.62061548 6890785
-0.013997451 0.061028887 0.62079561 6890784
-0.012881179 0.061045587 0.62096548 6890784
-0.011764086 0.061061211 0.62112439 6890784
-0.010646421 0.061076839 0.62128335 6890784
-0.0095281834 0.06109247 0.62144238 4987693
-0.0084093735 0.061108116 0.62160152 2824779
-0.0072899903 0.061123766 0.62176073 7697274
-0.0061700335 0.061139423 0.62191999 8618883
-0.0050501693 0.061163161 0.62216145 8882055
-0.0039321505 0.061229203 0.62283325 8882055
-0.002811715 0.061295386 0.62350649 8882055
-0.0016888547 0.061361719 0.62418121 8816262
-0.00056356139 0.061428189 0.62485737 8816262
0.00056413963 0.061491221 0.62549853 8816262
0.0016941163 0.061552893 0.62612587 8816262
0.0028263621 0.061614696 0.62675452 8618883
0.0039608832 0.061676614 0.62738436 8421245
0.0050976872 0.061738655 0.62801546 8026486
0.0062367804 0.061800823 0.62864786 8092279
0.0073806476 0.061883889 0.62949282 8487039
0.0085330959 0.062007163 0.63074678 8947848
0.0096964147 0.062171131 0.6324147 9079434
0.010955425 0.062849544 0.63931561 6447714
-0.043681931 0.062970057 0.62900019 8487297
-0.042486262 0.062879667 0.6280973 8684676
-0.041318797 0.062827207 0.62757331 8684676
-0.040153276 0.062774844 0.62705022 8684676
-0.038989697 0.062722556 0.62652797 4932452
-0.037827585 0.062669583 0.6259988 2888255
-0.036658004 0.06260059 0.62530965 6431266
-0.035490993 0.062531747 0.62462199 6693919
-0.034326546 0.06246306 0.62393588 6693919
-0.033171225 0.062406883 0.6233747 6759456
-0.032022044 0.062358722 0.62289363 6759456
-0.030874638 0.062310632 0.62241328 6759456
-0.029728999 0.062262621 0.6219337 6693920
-0.02860298 0.062253546 0.62184304 6693920
-0.027479874 0.062250327 0.62181091 6693920
-0.026356885 0.062247112 0.62177879 6693920
-0.025233867 0.062243536 0.62174308 6759456
-0.024108883 0.062234558 0.62165338 6759712
-0.022984222 0.062225576 0.62156367 6825248
-0.021859884 0.062216595 0.62147397 6825248
-0.020735873 0.062207621 0.62138432 6825248
-0.019612188 0.062198654 0.62129474 6825248
-0.018488824 0.062189683 0.62120515 6825248
-0.017365785 0.062180717 0.62111557 6825248
-0.016244434 0.062176969 0.62107813 6890785
-0.015128521 0.062195029 0.62125856 6890785
-0.01401196 0.062213104 0.6214391 6890785
-0.012894752 0.062231191 0.62161976 6890785
-0.011776892 0.062249288 0.62180054 6890785
-0.010658382 0.062267393 0.62198138 6890784
-0.0095389122 0.062283486 0.62214214 5446954
-0.008418845 0.062299456 0.62230164 2758471
-0.0072982032 0.06231543 0.6224612 6973301
-0.0061769872 0.062331416 0.62262088 8618883
-0.0050551952 0.062347408 0.62278062 8684676
-0.0039346386 0.062392123 0.6232273 9013641
-0.0028134959 0.06245961 0.62390143 9013641
-0.0016899254 0.062527247 0.62457699 9013641
-0.00056391914 0.062595025 0.62525403 9013641
0.00056453107 0.062662944 0.62593251 9013641
0.0016954329 0.06273102 0.62661248 9013641
0.0028287948 0.062799245 0.62729394 9013640
0.0039646244 0.062867612 0.62797689 8684675
0.0051029297 0.062936135 0.62866133 8420987
0.0062437183 0.063004799 0.62934721 8420987
0.0073877852 0.063080318 0.63010162 8487038
0.0085415412 0.063207403 0.63137102 8947848
0.009704601 0.063365333 0.63294858 9079434
-0.043735161 0.064182773 0.6297667 8421504
-0.042501096 0.064034984 0.62831658 8553090
-0.041329149 0.06397526 0.62773055 8684676
-0.040163327 0.063921914 0.62720716 8684676
-0.038999449 0.063868664 0.62668467 8092030
-0.037837513 0.063815504 0.62616307 3088978
-0.036677506 0.063762434 0.6256423 4331315
-0.035519425 0.063709445 0.62512237 6956321
-0.034363266 0.063656546 0.62460333 6890784
-0.033209033 0.063603736 0.62408519 6824992
-0.032050319 0.06353835 0.6234436 6824992
-0.030899556 0.063484542 0.62291563 6759456
-0.029768201 0.063468046 0.6227538 6693920
-0.028641703 0.063461028 0.6226849 6759712
-0.027514521 0.063451856 0.62259489 6825248
-0.026387667 0.063442685 0.62250495 6825248
-0.025261138 0.06343352 0.62241501 6825248
-0.024134932 0.063424356 0.62232506 6825248
-0.023009053 0.063415192 0.62223518 6825248
-0.021883499 0.063406035 0.6221453 6825248
-0.020758271 0.063396879 0.62205547 6825248
-0.019633366 0.063387722 0.62196565 6825248
-0.018508788 0.06337858 0.62187588 6825248
-0.017384533 0.063369431 0.62178612 6825248
-0.01626128 0.063362919 0.62172222 6890785
-0.015144214 0.063381344 0.621903 6890785
-0.014026499 0.063399777 0.6220839 6890785
-0.012908136 0.063418232 0.62226498 6890785
-0.01178912 0.063436694 0.62244612 6890785
-0.010669451 0.063455157 0.62262732 6890785
-0.0095491325 0.063473642 0.62280869 5775144
-0.0084281592 0.063492134 0.62299013 2823491
-0.0073064351 0.063509785 0.62316328 6314863
-0.0061839554 0.063526087 0.62332326 8618883
-0.0050608995 0.063542403 0.62348336 8618883
-0.0039372668 0.063558735 0.62364358 8816262
-0.0028152792 0.063625306 0.62429684 9013641
-0.0016909976 0.063694246 0.62497324 9013641
-0.00056427729 0.063763328 0.62565112 9013641
0.00056488998 0.063832566 0.62633049 9013641
0.0016965122 0.063901961 0.62701136 8947848
0.0028305971 0.063971497 0.62769365 8947848
0.0039675226 0.06404715 0.62843597 8618881
0.0051072496 0.064124361 0.62919354 8355194
0.0062497277 0.06420175 0.62995291 8289658
0.0073961946 0.064290002 0.63081884 8289658
0.0085504726 0.064413555 0.6320312 8421501
0.0097128004 0.064561553 0.63348335 8816261
-0.045029949 0.065549925 0.63199556 6118749
-0.043788526 0.065398447 0.63053513 8421504
-0.042552836 0.065247677 0.62908149 8421504
-0.041339505 0.065123878 0.62788785 8553090
-0.040173445 0.065069668 0.62736517 8618883
-0.039010011 0.065016687 0.62685436 8618883
-0.037848473 0.064963795 0.62634444 5130086
-0.03668882 0.064910986 0.6258353 2954048
-0.035531051 0.064858265 0.62532699 6497060
-0.034375161 0.064805634 0.62481952 6825248
-0.033221144 0.064753078 0.62431282 6825248
-0.032069001 0.064700618 0.62380701 6825248
-0.030926155 0.064663775 0.62345183 6890784
-0.029797411 0.06465476 0.62336487 6956321
-0.028670385 0.064648911 0.62330848 6890785
-0.027543571 0.06464307 0.62325221 6890784
-0.026416218 0.064635426 0.62317848 6890784
-0.025288466 0.064626075 0.62308836 6825248
-0.024161039 0.064616732 0.62299824 6825248
-0.023033939 0.064607389 0.62290817 6825248
-0.021907164 0.064598046 0.62281811 6825248
-0.020780714 0.064588711 0.62272805 6825248
-0.019654592 0.064579375 0.62263805 6825248
-0.018528793 0.06457004 0.62254804 6825248
-0.017403321 0.064560711 0.6224581 6825248
-0.016278174 0.064551383 0.62236816 6825248
-0.01515994 0.064570121 0.62254882 6890785
-0.014041069 0.064588919 0.62273008 6890785
-0.012921548 0.064607739 0.62291151 6890785
-0.011801372 0.06462656 0.62309301 6890785
-0.010680544 0.064645395 0.62327462 6890785
-0.0095590623 0.064664245 0.62345636 6037799
-0.0084369266 0.064683102 0.62363815 2888770
-0.0073141358 0.064701967 0.62382007 5920109
-0.0061906907 0.064720854 0.62400216 8684676
-0.0050665885 0.064739741 0.62418425 8618883
-0.0039417157 0.064756759 0.62434828 8618883
-0.0028170645 0.064792484 0.62469274 8882055
-0.0016920712 0.064862728 0.62537003 9013641
-0.00056463591 0.064933129 0.62604874 8947848
0.00056529458 0.065008879 0.62677908 8882055
0.0016979227 0.065087035 0.62753266 8882055
0.0028332775 0.065165386 0.62828803 8882055
0.003971369 0.065243922 0.62904525 8684418
0.0051122075 0.065322652 0.62980431 8355194
0.0062558027 0.065401569 0.63056523 8289658
0.0074049667 0.065505475 0.631567 8289658
0.0085606314 0.065631509 0.63278216 8289914
0.0097210128 0.065759793 0.63401902 8684675
-0.045096066 0.066787846 0.63292354 7237230
-0.043877419 0.066670887 0.63181514 8421504
-0.042660818 0.066550881 0.63067788 8421504
-0.041448597 0.066431314 0.62954479 8421504
-0.040240716 0.066312164 0.6284157 8289661
-0.039037161 0.066193447 0.62729067 8289405
-0.037867527 0.066126876 0.62665975 5985385
-0.036707271 0.06607309 0.62615007 2823491
-0.03554891 0.066019401 0.62564129 6169126
-0.034392424 0.065965794 0.62513328 6825248
-0.033237815 0.065912277 0.6246261 6825248
-0.03208508 0.065858848 0.62411976 6825248
-0.030952608 0.06584464 0.62398511 6890784
-0.029821092 0.065831468 0.6238603 6890784
-0.028692352 0.065823629 0.62378603 6956321
-0.027564667 0.065817676 0.62372959 6956321
-0.026437188 0.065811723 0.6236732 6956321
-0.025309913 0.065805778 0.62361681 6956321
-0.024182841 0.065799825 0.62356043 6956321
-0.023055974 0.065793879 0.6235041 6956321
-0.021929311 0.065787934 0.62344772 6890785
-0.02080285 0.065781988 0.62339139 6890784
-0.019675862 0.065773599 0.62331188 6890784
-0.018548843 0.065764077 0.6232217 6825248
-0.017422149 0.065754563 0.62313151 6825248
-0.016295783 0.065745056 0.62304139 6825248
-0.015175697 0.065761358 0.62319589 6890785
-0.014055668 0.065780528 0.62337756 6890785
-0.012934986 0.065799713 0.62355936 6890785
-0.01181365 0.065818906 0.62374127 6890785
-0.010691659 0.065838106 0.62392324 6890785
-0.0095690126 0.065857321 0.62410533 6234662
-0.0084457118 0.065876551 0.62428755 2954305
-0.0073217545 0.065895788 0.62446988 5590890
-0.0061971364 0.065914996 0.62465185 8684676
-0.005071809 0.065933518 0.62482738 8684676
-0.0039458489 0.065952048 0.62500298 8750469
-0.0028194364 0.065974809 0.62521869 8684676
-0.0016934525 0.066044651 0.62588054 8750469
-0.00056516187 0.066123933 0.62663192 8882055
0.00056584121 0.066203423 0.6273852 8882055
0.0016995666 0.066283092 0.62814021 8882055
0.0028360239 0.066362962 0.62889707 8882055
0.0039752237 0.066443026 0.62965578 8750212
0.0051171747 0.066523269 0.63041627 8355195
0.0062618884 0.06660372 0.63117868 8289658
0.0074137589 0.066723831 0.63231689 8289658
0.0085708164 0.066852368 0.63353497 8487039
0.0097688772 0.067232855 0.63714075 6250335
-0.043937031 0.067902684 0.6326735 8421504
-0.042734984 0.067806177 0.63177431 8421504
-0.041536346 0.067709938 0.63087761 8421504
-0.040341109 0.067613974 0.62998348 8026235
-0.039149258 0.067518286 0.62909192 5655651
-0.037954677 0.067412041 0.628102 3482186
-0.036755815 0.067291416 0.6269781 3873852
-0.035566784 0.067181706 0.62595588 5250861
-0.034409706 0.067127131 0.62544739 6825248
-0.0332545 0.067072637 0.62493968 6825248
-0.032112051 0.06704095 0.6246444 6890784
-0.030979108 0.067027524 0.62451935 6890784
-0.029846618 0.067014106 0.6243943 6890784
-0.028714584 0.067000695 0.62426937 6890784
-0.027585799 0.066994078 0.62420774 6956321
-0.026457455 0.066988021 0.62415129 6956321
-0.025329312 0.066981956 0.62409478 6956321
-0.024201376 0.066975899 0.62403834 6956321
-0.023073643 0.066969842 0.62398189 6956321
-0.021946114 0.066963784 0.62392545 6956321
-0.020818789 0.066957727 0.623869 6956321
-0.019691668 0.066951677 0.62381262 6956321
-0.018564751 0.066945612 0.62375617 6956321
-0.017438037 0.066939563 0.62369978 6956321
-0.016312072 0.066935748 0.6236642 6890784
-0.015190581 0.066951081 0.62380707 6956321
-0.0140693 0.066969864 0.62398213 6956321
-0.01294739 0.066988669 0.62415731 6956321
-0.011824849 0.067007475 0.62433255 6956321
-0.010701678 0.067026295 0.6245079 6956321
-0.009577876 0.06704513 0.62468338 6497061
-0.0084534418 0.067063972 0.62485892 3019584
-0.0073283757 0.067082822 0.62503457 5327720
-0.0062026763 0.06710168 0.62521029 8750469
-0.0050763446 0.06712056 0.62538618 8750469
-0.0039493791 0.067139447 0.62556213 8684676
-0.0028235703 0.067200974 0.62613541 8618883
-0.0016958218 0.067267597 0.62675619 8618883
-0.00056583493 0.067334361 0.62737823 8618883
0.00056639704 0.067401245 0.62800145 8750469
0.0017012137 0.067481473 0.62874895 8882055
0.0028387757 0.067562863 0.6295073 8882055
0.003979085 0.067644447 0.63026744 8750468
0.0051221522 0.06772624 0.63102949 8355450
0.0062685711 0.067814544 0.63185227 8355194
0.007422572 0.067945085 0.63306856 8487039
0.0085878689 0.068130426 0.63479549 8684676
-0.042778909 0.069016643 0.6324237 8421504
-0.041578982 0.068918586 0.63152516 8421504
-0.040382456 0.068820804 0.63062918 8421504
-0.039189324 0.068723306 0.62973577 6183790
-0.03799957 0.068626091 0.62884492 2627915
-0.036813173 0.068529136 0.62795651 3674674
-0.035630126 0.068432465 0.62707067 6693919
-0.034450408 0.068336062 0.62618726 6693919
-0.0332813 0.068254873 0.62544334 6759455
-0.03213957 0.068226106 0.62517971 6759455
-0.031005651 0.068212427 0.62505442 6890784
-0.029872186 0.068198763 0.62492919 6890784
-0.028739177 0.068185106 0.62480402 6890784
-0.027606962 0.068172298 0.62468666 6890784
-0.02647775 0.068166122 0.62463009 6956321
-0.025348742 0.068159953 0.62457353 6956321
-0.024219938 0.068153776 0.62451696 6956321
-0.023091337 0.068147607 0.6244604 6956321
-0.021962943 0.068141438 0.62440389 6956321
-0.020834753 0.068135269 0.62434739 6956321
-0.019707266 0.068130836 0.62430674 6890784
-0.018580241 0.06812755 0.62427664 6890784
-0.017453322 0.068124257 0.62424648 6890784
-0.016326515 0.068120971 0.62421638 6890784
-0.015204152 0.068137124 0.62436438 6956321
-0.01408187 0.06815625 0.62453961 6956321
-0.012958957 0.068175383 0.62471491 6956321
-0.011835416 0.068194538 0.62489045 6956321
-0.010711244 0.068213709 0.62506616 6956321
-0.0095864385 0.068232886 0.62524188 6628388
-0.0084610023 0.068252087 0.62541777 3085119
-0.0073349313 0.068271287 0.62559372 5130086
-0.0062082275 0.068290502 0.62576979 8750469
-0.0050808885 0.068309724 0.62594593 8684676
