# .PCD v0.7 - Point Cloud Data file format
VERSION 0.7
FIELDS x y z rgb
SIZE 4 4 4 4
TYPE F F F U
COUNT 1 1 1 1
WIDTH 1098
HEIGHT 1
VIEWPOINT 0 0 0 1 0 0 0
POINTS 1098
DATA ascii
-0.003767337 0.043700207 0.41770017 131586
-0.0011300163 0.043693546 0.41763723 5398
0.0011299469 0.043691475 0.41761708 15938
0.0037673775 0.043699544 0.41769418 13110
0.0064107757 0.043742936 0.41810945 1286
0.0086824968 0.043788891 0.41854987 0
0.011340939 0.04384977 0.41913292 263172
0.013630148 0.043540303 0.41979229 4670799
-0.015527917 0.045068834 0.41992238 655428
-0.014000378 0.046288602 0.41953492 721217
-0.011327333 0.046440896 0.41863358 1051682
-0.0086776521 0.046406191 0.4183211 263172
-0.0064107794 0.046383385 0.4181155 0
-0.00376915 0.046358962 0.41789532 11824
-0.0011302313 0.046337456 0.41770154 17223
0.001130017 0.046330791 0.417642 3341
0.0037675414 0.046338737 0.41771367 0
0.0064106942 0.046382166 0.41810519 0
0.0086808857 0.046423111 0.41847441 0
0.011333528 0.046466295 0.4188641 0
0.014001749 0.046166793 0.41957688 1513243
0.015528765 0.046964999 0.4199453 4078665
-0.013504324 0.048337545 0.41980413 1183520
-0.011337481 0.048748676 0.41899738 197379
-0.0086817294 0.048692837 0.4185181 1285
-0.0064140223 0.048670605 0.41832715 15938
-0.0037710965 0.048645511 0.41811135 13881
-0.0011308015 0.048621505 0.417905 771
0.0011302116 0.048601717 0.41773504 0
0.0037676862 0.048601221 0.41773131 0
0.0064104297 0.048642833 0.4180893 1028
0.008679253 0.048678581 0.41839668 4370
0.011330306 0.048719306 0.41874671 0
0.013990813 0.048777744 0.41924959 65793
0.016027283 0.049091011 0.41977215 1973540
-0.01124552 0.05099776 0.4194124 3856
-0.0086861951 0.050983813 0.41873324 20821
-0.006417844 0.051342297 0.41857633 7712
-0.0037733819 0.051316354 0.41836482 257
-0.0011314871 0.051291034 0.41815838 0
0.0011308317 0.051268116 0.41797173 514
0.003768181 0.051247451 0.41780379 11311
0.0064095552 0.051275462 0.41803285 17480
0.0086780014 0.051312674 0.41833615 8997
0.011252996 0.051279418 0.41868097 0
0.013985404 0.051027264 0.41909069 0
0.016270392 0.051080797 0.41953102 657931
0.017987626 0.05131194 0.41987464 4210250
-0.010472682 0.053499009 0.4196997 8226
-0.0086941971 0.053675923 0.41911033 3085
-0.0064216871 0.054017186 0.41882721 0
-0.0037756369 0.053989619 0.41861355 0
-0.0011320749 0.053957887 0.41836774 3342
0.0011312825 0.053928502 0.41813982 18509
0.0037696045 0.053906713 0.41797075 10282
0.0064095301 0.053914435 0.41803122 514
0.0086779632 0.05395354 0.41833439 0
0.011417075 0.053888381 0.41873029 0
0.013987609 0.053681623 0.41915688 0
0.016270747 0.053730849 0.41954136 328965
0.018302348 0.053897046 0.41985369 1578528
-0.0084875803 0.056276254 0.41957644 0
-0.0064249435 0.056311879 0.41903743 0
-0.0037769841 0.056274477 0.41875932 6427
-0.0011323937 0.056237586 0.41848484 19023
0.0011317329 0.056212042 0.41829458 5912
0.0037712401 0.056192901 0.41815218 0
0.0064101345 0.056182556 0.41807544 0
0.008678074 0.056217983 0.41833919 0
0.01133081 0.05627501 0.41876352 328965
0.013987612 0.056327946 0.41915792 1117976
0.016267294 0.056367602 0.4194532 1379378
0.018549347 0.056404784 0.41972998 2690104
0.020576848 0.056680877 0.41990533 2562122
-0.0079515204 0.058311231 0.41982719 0
-0.0064307549 0.058630876 0.41940421 4884
-0.0037780658 0.058557201 0.41887841 16708
-0.0011327222 0.058520172 0.4186134 2057
0.0011322227 0.058500741 0.41847432 0
0.0038600059 0.058597811 0.41833815 0
0.0064123697 0.058843419 0.41822693 394758
0.0086778635 0.058857899 0.41833091 986138
0.011328046 0.058527067 0.41866359 1314095
0.013982311 0.058573995 0.41899934 2886967
0.016260795 0.058614023 0.41928566 5512488
0.018540315 0.05864758 0.41952583 6693921
0.02120162 0.058682531 0.41977581 4202301
0.023355538 0.059209391 0.4199318 7499898
-0.0059820646 0.060804464 0.4197866 2314
-0.0037814712 0.061252773 0.4192256 1285
-0.0011332313 0.061191693 0.41880909 0
0.0011327893 0.061173394 0.41868398 0
0.0036993609 0.061229456 0.41855106 657932
0.0064157592 0.061516032 0.41844642 1313586
0.0086812675 0.061523616 0.41849789 3149620
0.011325984 0.061159778 0.41859102 5381159
0.013976294 0.061192978 0.41881955 6693920
0.016252244 0.061228901 0.41906571 6890784
0.01852986 0.061261553 0.41928914 6890784
0.021190444 0.061300315 0.41955429 6103076
0.023854531 0.061339866 0.41982505 4470874
0.025628755 0.062241208 0.41994464 8355713
-0.0029523219 0.06381543 0.41966844 0
-0.0011347561 0.063913763 0.41931972 131586
0.0011334107 0.063855171 0.41893637 1117974
0.0037765892 0.063825995 0.4187454 1706805
0.0064189616 0.063811943 0.41865316 4921642
0.0086860405 0.063823365 0.41872799 6497056
0.011332097 0.06383726 0.41881919 6693919
0.013976354 0.063838154 0.41882566 6759456
0.016242743 0.063837372 0.41882104 6825248
0.018519122 0.063871652 0.41904607 6890785
0.021178568 0.063913271 0.41931912 6890785
0.023841321 0.063954949 0.41959253 4659503
0.026126517 0.063990697 0.41982719 6117743
0.027900899 0.064512908 0.41993961 8684676
-0.00094678852 0.065698743 0.41985279 1118231
0.0012296056 0.066121601 0.41953117 1968696
0.0037791869 0.066140763 0.41905341 5578022
0.006422272 0.066111416 0.41886836 6628127
0.0086903321 0.066121973 0.41893533 6693919
0.011335946 0.066126592 0.41896477 6693920
0.013976415 0.066104949 0.41882789 6825248
0.016237594 0.066083364 0.41869128 6825248
0.018508414 0.066101044 0.41880378 6890785
0.021166319 0.066144101 0.41907653 6890785
0.023827024 0.066185832 0.41934109 6693922
0.026108295 0.066216372 0.41953471 3481159
0.028770851 0.066248223 0.41973662 8421506
0.030681688 0.067045167 0.41998512 8618883
0.0018936815 0.067793794 0.41992971 6300194
0.0038906385 0.068691246 0.41946316 6693919
0.0064255805 0.068791389 0.41908443 6693920
0.0086941263 0.068797156 0.41911986 6693920
0.0113367 0.068776652 0.4189955 6759712
0.013976175 0.068747967 0.41882065 6825248
0.016236721 0.06872312 0.41866943 6825248
0.01849767 0.068705447 0.4185625 6825248
0.021149484 0.068735123 0.418744 6890785
0.023804693 0.068768643 0.41894826 6824993
0.026082471 0.068796791 0.41911981 4462385
0.028743273 0.068831936 0.41933379 6118000
0.030669602 0.068533212 0.41981968 8618883
0.0040860763 0.071360514 0.41952333 6693920
0.006428407 0.071468897 0.41927087 6693920
0.0086949766 0.071450509 0.41916329 6825248
0.011335812 0.071416453 0.4189637 6825248
0.013973008 0.071375988 0.41872662 6890784
0.016229991 0.071336761 0.41849655 6890784
0.018863425 0.071303971 0.41830418 6824992
0.021507466 0.071313851 0.41836241 5052973
0.023781123 0.071343012 0.41853344 3941964
0.026058637 0.07137762 0.41873616 6183278
0.02873534 0.071459383 0.41921476 8158078
0.030992301 0.07101699 0.4197931 8421504
0.0041625928 0.073797032 0.419608 6759456
0.0064278389 0.073731966 0.41923881 6890784
0.0086917765 0.073691852 0.41901076 6890785
0.011329498 0.073642798 0.4187319 6956321
0.013963916 0.073593996 0.41845435 6890784
0.016220955 0.073560327 0.41826284 6496802
0.01885392 0.073530622 0.41809389 4005695
0.021413924 0.073666438 0.4180091 6380656
0.023769945 0.07357315 0.41833493 8092542
0.026065234 0.07366211 0.41884047 8355711
0.028752744 0.073772557 0.41946843 8421504
0.030673597 0.073465198 0.41987437 8421504
0.0042369184 0.076195821 0.4194811 6825248
0.0064242487 0.076336525 0.41900703 6890784
0.0086856568 0.076283567 0.41871655 6890784
0.011320813 0.076227859 0.41841102 6562338
0.013954517 0.076184295 0.41817176 4595254
0.016211674 0.076157279 0.41802344 4996957
0.018844359 0.076131284 0.41788039 7763067
0.021566393 0.076287717 0.41817284 8421504
0.023788268 0.076273121 0.41865686 8421504
0.026082091 0.075977787 0.41911146 8421504
0.028665161 0.076015145 0.41969755 8421504
0.0040921476 0.078789249 0.41944417 6759455
0.0064242724 0.078981914 0.41900575 6759455
0.0086877346 0.078945972 0.41881463 6168610
0.011320554 0.078870192 0.41841349 4073546
0.013946159 0.078777194 0.41792119 7631483
0.016201949 0.078749202 0.41777271 8553090
0.018847747 0.078782201 0.4179467 8421504
0.021517558 0.078897066 0.41855586 8421504
0.023812793 0.078997463 0.41908848 8421504
0.02610825 0.0787028 0.41953185 8421504
0.027945254 0.078231528 0.41984662 8421504
0.0045423447 0.08100602 0.4197036 6693919
0.0064346995 0.081381045 0.41968447 5643557
0.0087017268 0.08134377 0.4194926 3481671
0.011324655 0.081165366 0.41857362 7500153
0.014006749 0.081266925 0.41768533 8553090
0.016199935 0.080999106 0.417716 8487297
0.018481566 0.081091791 0.41819352 8421504
0.021153679 0.081213601 0.41882169 8421504
0.023833429 0.081335701 0.41945145 8421504
0.025673222 0.081260614 0.41984558 8421504
0.0090835011 0.083645307 0.41965151 8026749
0.011434965 0.083663411 0.41865993 8421504
0.013873456 0.08391992 0.41800094 8421504
0.016150406 0.083632141 0.41820687 8421504
0.018503614 0.08345437 0.41869205 8421504
0.021181123 0.083588451 0.41936454 8421504
0.0091615561 0.085786469 0.41975722 8421504
0.011347416 0.086240731 0.41938695 8421504
0.013990937 0.086593397 0.4192628 8421504
0.016337641 0.086453304 0.41931695 8421504
-0.025520446 -0.0079989452 0.42233115 8816262
-0.02424469 -0.008504835 0.42222497 8816262
-0.027814735 -0.0057153567 0.42246598 8882055
-0.026176529 -0.0063776555 0.42215857 8816262
-0.023959173 -0.0064653959 0.42166752 8750469
-0.021696273 -0.0061448542 0.42204037 9079434
-0.028417742 -0.0044950107 0.42236573 8684676
-0.02611571 -0.0039591095 0.42209998 8618883
-0.023944816 -0.0038008897 0.42141417 8553090
-0.021293474 -0.0038024238 0.42160124 8487297
-0.018715356 -0.0037016659 0.4219248 8224126
-0.016466824 -0.0033315553 0.42214763 5922400
-0.014280301 -0.0028561249 0.42222923 6316901
-0.026155585 -0.0010462834 0.42181516 8750469
-0.023940247 -0.0011400088 0.42133698 8487297
-0.021291738 -0.0011407291 0.42156497 8618883
-0.0186307 -0.0011410281 0.42157209 8224383
-0.016346201 -0.0011407756 0.42149079 7829625
-0.013691559 -0.0011413345 0.42169634 8816262
-0.0111496 -0.00092481618 0.42213097 8947848
-0.0091418764 -0.00038091454 0.42234486 8947848
-0.027802788 0.0015233436 0.42228454 8816262
-0.02622409 0.0011399334 0.42138943 8684676
-0.023920311 0.0011386692 0.42098346 8684677
-0.021251887 0.0011380642 0.42077136 8816262
-0.018589132 0.0011377693 0.42063245 8947848
-0.016314505 0.0011379006 0.42067403 8947848
-0.013663785 0.0011383306 0.42083934 8947848
-0.011020498 0.001139719 0.42135721 8947848
-0.0087503158 0.001141018 0.42183745 8947848
-0.0065822517 0.0013597897 0.42221519 8947848
-0.004952081 0.0019046466 0.42236125 8947848
-0.028389901 0.0039576292 0.42194873 8618883
-0.026197068 0.0037964499 0.42095599 8355711
-0.023949401 0.0036869394 0.42028072 8618883
-0.021217411 0.0026521645 0.42008978 8947848
-0.01856498 0.0026521431 0.42008638 8947848
-0.016293751 0.0026524747 0.42013887 8947848
-0.013263978 0.0030857779 0.4201906 8882055
-0.010996007 0.0037913071 0.42042014 8816262
-0.0087301731 0.0037952357 0.42086604 8882055
-0.0064598694 0.0037994098 0.42133513 8882055
-0.0038806854 0.0038804514 0.42187184 8882055
-0.0019044612 0.0045706131 0.42232013 8816262
-0.030095732 0.0064762109 0.42239377 8290175
-0.028526524 0.0064658341 0.42171696 8355711
-0.026181486 0.0064503266 0.42070544 8618883
-0.024626013 0.0060617565 0.4200688 8618883
-0.010481442 0.0059352615 0.42005375 8750469
-0.0087175481 0.0064433622 0.42025572 8750469
-0.0064490801 0.0064490866 0.42062864 8684676
-0.0037975733 0.0064563169 0.42110214 8750469
-0.0012362241 0.0065622316 0.42181528 8947848
0.00063485239 0.0069828057 0.42231348 9145227
-0.030593036 0.0090127764 0.42224404 8684676
-0.0285086 0.0087423362 0.42145216 8750469
-0.0261671 0.0087221172 0.42047453 8684676
-0.0082086539 0.0082086809 0.42006978 8684676
-0.0064442796 0.00871881 0.42031533 8684676
-0.0037942613 0.0087273726 0.42072913 8684676
-0.0011397906 0.0087399948 0.4213374 8684676
0.0011418108 0.0087518897 0.42191139 8684676
0.003047239 0.0091413995 0.42232203 8684676
-0.031088214 0.011100033 0.42175418 8882055
-0.028459311 0.011003792 0.42072389 8882055
-0.026654981 0.01048506 0.42019975 8947848
-0.0059361453 0.010482974 0.42011544 8750469
-0.0037909572 0.01099461 0.42036566 8684676
-0.0011388449 0.011010884 0.42098773 8684676
0.0011408409 0.011025758 0.42155617 8684676
0.003427011 0.011041663 0.42216313 8684676
-0.033151295 0.014860925 0.42249435 9079434
-0.031538617 0.0136788 0.42130354 8618883
-0.029258419 0.013543365 0.42031229 8684676
-0.0030855753 0.013262836 0.42015663 8618883
-0.0011377721 0.013655924 0.42059639 8684676
0.0011399542 0.013676169 0.42121878 8684676
0.003806212 0.013700437 0.42196646 8684676
0.0057145078 0.014476698 0.42240322 8684676
-0.033421583 0.016520519 0.42205587 8487297
-0.031525984 0.016332569 0.42113748 8421504
-0.029561711 0.016296791 0.42021585 8421504
-0.0010422028 0.016204458 0.42028165 8355714
0.0011389509 0.016321298 0.42085278 8750469
0.0038023887 0.016348245 0.42154822 8750469
0.0063772011 0.016465984 0.42212912 8816262
0.0079989899 0.017140694 0.42233351 8816262
-0.033434622 0.018507022 0.42222089 8421504
-0.031540904 0.018620387 0.42133689 8421504
-0.029574463 0.018578846 0.42039689 8421504
-0.00037890446 0.018187355 0.42011619 8289665
0.0011377761 0.018579878 0.42042744 8750469
0.0037977083 0.018606678 0.42103425 8816262
0.0064647887 0.018632993 0.42162979 8816262
0.0086614229 0.01874999 0.42212191 8750469
-0.033146478 0.021335836 0.42243296 8487297
-0.031561527 0.021294149 0.4216114 8487297
-0.029269416 0.021339931 0.4204686 8421504
0.001642013 0.020335278 0.42013219 8816262
0.0038680113 0.021158297 0.4204295 8816262
0.0064550485 0.021262571 0.42099366 8750469
0.0087485006 0.021299632 0.42172304 8618883
0.010284779 0.021331239 0.42234841 8618883
-0.033147063 0.024003008 0.42244038 8487297
-0.031282987 0.024023503 0.42158347 8421504
-0.028600115 0.023820465 0.42056125 8421504
-0.026899317 0.024626136 0.42007089 8421504
0.0045467396 0.023112208 0.42009863 8816262
0.0064481101 0.02389452 0.42053232 8684676
0.0087423651 0.023945315 0.42142743 8750469
0.010824862 0.024097012 0.42218259 8816262
-0.03314881 0.025528394 0.4224627 8421504
-0.031202139 0.026255116 0.42189214 8421504
-0.028473394 0.026195442 0.42093271 8421504
-0.026407197 0.026407076 0.42027545 8421504
0.0068975398 0.025998022 0.42020163 8750469
0.0087286271 0.026184751 0.42076817 8816262
0.01102551 0.026232086 0.42152959 8816262
0.013071489 0.026523314 0.42212853 8882055
-0.030586824 0.028302236 0.42215881 8421504
-0.028512606 0.028512521 0.42151248 8421504
-0.02611099 0.028732337 0.4206827 7039349
-0.024441099 0.029367235 0.42014551 2234960
0.0088704657 0.028657636 0.420302 8750469
0.011010303 0.028853485 0.42094865 8684676
0.0137012 0.02854263 0.42196211 8618883
-0.030099126 0.030099126 0.42244139 8421504
-0.02839666 0.031061197 0.42205063 7763322
-0.026293242 0.031384449 0.4212811 2234960
-0.024269804 0.031474836 0.42045864 655428
0.00947221 0.03068996 0.42009836 8750469
0.011002294 0.031488121 0.42063832 8618883
0.013697569 0.031198177 0.42184806 8553090
-0.027802892 0.033896755 0.42228612 8158334
-0.026235377 0.03383936 0.42157105 4801636
-0.024278404 0.03376187 0.42060685 984134
0.011210344 0.033630226 0.42031765 8750469
0.013681858 0.033822451 0.42136452 8816262
0.015804239 0.034083601 0.42224449 8816262
-0.027813498 0.035814669 0.42244717 8421504
-0.026241474 0.036128823 0.42166743 8355712
-0.02398387 0.036117397 0.4204284 3090519
-0.022353902 0.03675133 0.42008871 655428
0.011746988 0.03599878 0.42015013 8618883
0.013662837 0.036052797 0.42078209 8684676
0.016363094 0.036149859 0.4219158 8816262
0.017904602 0.036952052 0.42238307 8816262
-0.026088862 0.038520131 0.42193642 8421504
-0.023907924 0.038707834 0.42075849 7170934
-0.021540077 0.038847756 0.42022374 1313609
0.011743888 0.03788349 0.42003924 8618883
0.013653588 0.038683768 0.42050332 8618883
0.016338238 0.038754802 0.42127743 8684676
0.018481385 0.039118927 0.42201701 8816262
-0.023858646 0.041347884 0.42156217 8421504
-0.021236427 0.041334569 0.42045963 3946077
-0.018945381 0.042058557 0.4201178 655428
0.013940733 0.041147534 0.42027348 8618883
0.016323155 0.041376475 0.42088932 8684676
0.018631469 0.041444778 0.42158404 8684676
0.020660082 0.04141495 0.42224973 8750469
-0.023478888 0.043277208 0.42214787 8421504
-0.021147262 0.043587886 0.42171177 4472673
-0.018607961 0.043671366 0.42105019 655428
-0.016869146 0.043783747 0.4203105 655428
0.014778051 0.043576192 0.42013827 8487298
0.016312044 0.043624375 0.4206028 8684676
0.018618826 0.043696474 0.42129794 8684676
0.021213967 0.043845832 0.42207003 8684676
-0.020191843 0.045336403 0.42241544 1115975
-0.018635826 0.046017945 0.42167705 984390
-0.016381759 0.046385527 0.42061993 655428
-0.014778041 0.047365516 0.42013797 721219
0.016453251 0.046098784 0.42033595 8421505
0.018603453 0.046317901 0.4209505 8684676
0.021211734 0.046137709 0.42170656 8684676
0.023742413 0.046341855 0.4223204 8750469
-0.018398743 0.048597679 0.42206109 4406624
-0.016336245 0.049007684 0.4212231 1050432
-0.014280103 0.049158063 0.42034507 986398
0.016798267 0.048373789 0.42011914 6644845
0.01858237 0.048920143 0.42047408 8684676
0.02135149 0.048704319 0.42123297 8750469
0.023973247 0.04870674 0.42191184 8750469
0.025823062 0.049284521 0.42229575 8750469
-0.017901646 0.050657846 0.4223133 7631993
-0.016357305 0.051353116 0.42176563 3420986
-0.013884339 0.051286548 0.42059684 131586
0.019024337 0.05100923 0.42018858 8553091
0.021249888 0.051226169 0.42072585 8750469
0.023945853 0.051311851 0.42142949 8750469
0.026265055 0.051387504 0.42205083 8750469
0.02781041 0.051811114 0.4224003 8750469
-0.016150245 0.053561337 0.422039 4737096
-0.013669055 0.053534567 0.42097178 263172
-0.011496884 0.054073278 0.4202404 257
0.019320279 0.05341487 0.4200325 4671056
0.021227676 0.05382634 0.42028907 8158079
0.023842676 0.053682923 0.4209488 8750469
0.026238812 0.053617734 0.42162913 8750469
0.028464507 0.053786959 0.42221069 8750469
-0.01586988 0.055480808 0.42230105 7039851
-0.013612649 0.056197502 0.42157981 1907997
-0.011001971 0.056525663 0.42062721 0
-0.0094721913 0.056833237 0.42009753 0
0.021847891 0.056198206 0.42007193 7829117
0.023957223 0.056220986 0.42041638 8750469
0.026201045 0.056198407 0.42102221 8750469
0.028528703 0.056295738 0.42175007 8684676
0.03009641 0.056002107 0.42240331 8618883
-0.013409951 0.058756813 0.42212203 6776679
-0.011017278 0.05888366 0.42121226 1579032
-0.0089367861 0.058873095 0.42036274 0
0.02412126 0.058471832 0.42007503 8618883
0.026166504 0.058778923 0.4204663 8750469
0.028501825 0.058902726 0.42135242 8816262
0.030510183 0.059007693 0.42210278 8882055
-0.012569938 0.060945239 0.42233676 8421504
-0.011031344 0.061240893 0.42174885 6447714
-0.0087289689 0.061100643 0.4207828 657930
-0.0070116445 0.061209723 0.42022943 0
0.026238259 0.060906656 0.42010102 8618883
0.028723182 0.061134875 0.42054662 8816262
0.031405292 0.061136555 0.42155758 8947848
0.03350886 0.061686367 0.4221966 8882055
-0.01082343 0.063470758 0.42212382 8355711
-0.0087410435 0.063465506 0.42136586 3421236
-0.0064518261 0.063757636 0.42078266 65793
-0.0043863836 0.064168133 0.420279 0
0.026898399 0.062510364 0.42005655 8618883
0.029004322 0.063459381 0.42016649 8684676
0.031493898 0.063745625 0.42070985 8684676
0.033774942 0.063669063 0.42171144 8750469
0.035424434 0.063992433 0.42233753 8750469
-0.010285839 0.065524697 0.42239198 8421504
-0.008752686 0.065453328 0.42193142 6118749
-0.0063724518 0.066478342 0.42179585 131586
-0.0037946207 0.066398926 0.42068863 263172
-0.0012888776 0.066788338 0.42027539 1314855
0.00037880742 0.067048915 0.42000857 1442880
0.031568151 0.066263974 0.42043608 8618883
0.033895209 0.066234589 0.42140219 8618883
0.035792571 0.066253871 0.42218518 8618883
-0.0060904645 0.06889686 0.42204535 526344
-0.0038014667 0.068799965 0.42145124 1183268
-0.0011389294 0.068703495 0.4208602 2755894
0.0010424927 0.068720549 0.42038479 6037539
0.031841472 0.068610378 0.42029241 8618883
0.033799753 0.068737939 0.421074 8618883
0.036157791 0.068889253 0.42200097 8684676
-0.0057143737 0.070477277 0.42239332 1644575
-0.0036552504 0.071043812 0.42213684 3149619
-0.0011407374 0.071087323 0.42149216 6431265
0.0012067347 0.071216874 0.42062521 6759456
0.0026519678 0.071224347 0.42005861 6759456
0.03206142 0.071474768 0.42019525 8421504
0.033707276 0.071243361 0.42078212 8487297
0.03613089 0.071120009 0.42168725 8553090
0.037899941 0.071419321 0.42233235 8618883
-0.0026656792 0.073496617 0.42223045 6759456
-0.0011412243 0.073776178 0.42165133 6693919
0.001062318 0.073855676 0.42080483 6693919
0.0026528286 0.07390032 0.42019495 6693919
0.031672563 0.074010529 0.42020637 8421504
0.033864629 0.073878825 0.42093682 8421504
0.036133975 0.073788792 0.42172351 8421504
0.037898272 0.073320583 0.42231363 8421504
-0.0026660725 0.075030893 0.42229271 6431265
-0.0010470977 0.07641682 0.42205822 5512486
0.0011387938 0.076330952 0.42106056 6824992
0.0026531585 0.076183461 0.4202472 6825248
0.029931344 0.076912187 0.42008656 8421504
0.031467538 0.076204099 0.42036 8355711
0.033797424 0.076328315 0.42104545 8421504
-0.00092460815 0.078887619 0.4219676 4866401
0.0012139877 0.0787137 0.42080647 4462640
0.0026521618 0.078807056 0.42008933 6759456
0.029096821 0.078868479 0.42019188 8355711
-0.0011421671 0.08106564 0.42198405 8421504
0.001139537 0.081170753 0.42121178 3416136
0.003412029 0.081710756 0.42040861 6431264
-0.00038104644 0.082687072 0.4224911 8224126
0.0013318976 0.083733976 0.42200553 2892627
0.0037946505 0.083874881 0.42080215 3740466
0.0064458312 0.083797127 0.42041203 3680592
0.0079573616 0.083741814 0.42013559 6512752
0.0019043185 0.086456276 0.42228851 6973556
0.0038006438 0.086283885 0.42144623 4143197
0.0064526349 0.086166382 0.42087322 7829115
0.0081475861 0.086213626 0.42017913 8421504
0.0039092978 0.088608019 0.42198324 8223870
0.0064585702 0.088523947 0.4212527 8421504
0.0087289838 0.088430442 0.42080721 8421504
0.010903255 0.088459268 0.42049357 8421504
0.0045706555 0.090271585 0.42232072 8421504
0.006661661 0.090408623 0.42207098 8421504
0.0087499879 0.090545125 0.42181978 8421504
-0.026425278 -0.01263804 0.42462489 5396064
-0.024509583 -0.01263785 0.42461848 7632248
-0.030511029 -0.010595919 0.42463827 1249150
-0.028697232 -0.011096607 0.42424193 3882862
-0.026352417 -0.011076046 0.42345369 7961213
-0.023682186 -0.011078083 0.42352831 9013641
-0.021153398 -0.011007887 0.42451474 8553088
-0.019545229 -0.010347474 0.42492303 8289402
-0.032808218 -0.008297842 0.42462909 2367871
-0.030989299 -0.0087996339 0.42419156 5460354
-0.028642744 -0.008783902 0.42343685 8618885
-0.026405904 -0.0088655772 0.42278299 8816262
-0.0231118 -0.0092296358 0.42286891 8947848
-0.021161903 -0.0087099988 0.42354518 8816005
-0.019221924 -0.0086539071 0.42455673 8355196
-0.033397362 -0.0066029187 0.42440671 7566210
-0.031099651 -0.0064187185 0.42361003 8816262
-0.028705209 -0.0065803775 0.42295176 8816262
-0.02706291 -0.0072421869 0.4226256 8816262
-0.020830261 -0.0069436515 0.42300701 9079434
-0.018717138 -0.0064946171 0.42353675 8355711
-0.016559349 -0.0062854462 0.42417207 6777450
-0.014363501 -0.0059370915 0.42469001 6382950
-0.033675972 -0.0038267188 0.42429799 8421504
-0.031288952 -0.0038158586 0.42306945 8684676
-0.028705399 -0.0033224861 0.42275646 8487297
-0.027066415 -0.003049606 0.42268038 8487297
-0.017909726 -0.0049537541 0.42250395 7172209
-0.016213294 -0.0047687809 0.42298561 6317158
-0.013553956 -0.004137143 0.42332983 6251365
-0.011080485 -0.0038222473 0.42365041 7106160
-0.0088660754 -0.0037212879 0.42405894 7961211
-0.0066021015 -0.0033493557 0.42436522 9013641
-0.0044045225 -0.0028726656 0.42467114 9145227
-0.033073422 -0.00095577282 0.42393872 8421504
-0.031224346 -0.0012153117 0.42360964 8421504
-0.028633572 -0.0011452431 0.42330086 8618883
-0.027066777 -0.001906111 0.42268601 8816262
-0.010672295 -0.0019057798 0.42261258 8947848
-0.0086621549 -0.001362211 0.42283624 8947848
-0.0064890925 -0.0011455925 0.42324209 9013641
-0.0038225825 -0.0011474005 0.42388287 9079434
-0.0013012504 -0.0006891854 0.4244391 9145227
-0.032933895 0.0011492083 0.42460403 8421504
-0.030998882 0.0011482061 0.42432296 8553090
-0.028841686 0.0010358043 0.42315182 8816262
-0.006099585 0.0003812286 0.42269307 8947848
-0.0037102117 0.0010747183 0.42293894 8947848
-0.0011458664 0.0011460198 0.42365718 8816262
0.00089381775 0.0014041081 0.42460135 8750469
-0.032562345 0.0045968657 0.42475295 8882055
-0.030959928 0.0038213821 0.42378363 8816262
-0.029369965 0.0030512619 0.4229143 8882055
-0.0026678445 0.0026678445 0.42257339 8947848
-0.00099168229 0.0036623955 0.42302698 8816262
0.0011477756 0.0038239292 0.42404091 8816262
0.0031412286 0.0045199255 0.42472059 8882055
-0.033304323 0.0065076216 0.42444199 8882055
-0.03158012 0.0065829651 0.42313513 8684676
-0.00038114924 0.0057172384 0.4226051 9145227
0.0013991796 0.006231966 0.42306677 9145227
0.0038242901 0.006499534 0.42394331 9013384
0.0059997705 0.0070208148 0.42461076 8421244
-0.03394267 0.0088917715 0.42404139 8684676
-0.031912688 0.0085184164 0.42290962 8355711
0.0041964748 0.0085828006 0.42295814 8947848
0.006503935 0.0087982668 0.42415702 8487038
0.0080469595 0.0095797144 0.42486623 8289402
-0.035635062 0.011495113 0.42484862 7106159
-0.034005821 0.011080119 0.42363614 8224382
-0.032391634 0.010289107 0.42252618 8882055
0.0049547805 0.011052868 0.42259145 8684676
0.006491235 0.011072027 0.42333123 8750212
0.0083456673 0.011254782 0.42445928 8289659
-0.035635971 0.013411555 0.42485952 8355711
-0.034064066 0.013646482 0.42349577 8553090
0.0066350261 0.013574518 0.42278561 8684676
0.0087923296 0.013760339 0.42382538 8618882
0.010533428 0.014363479 0.42469198 8289659
-0.035891756 0.016606022 0.42425632 9013641
-0.034531526 0.016216071 0.42306316 8882055
0.0072404733 0.01562418 0.42252561 8816262
0.008869241 0.016307037 0.42294511 8816262
0.010998897 0.016545288 0.42416322 8553089
0.012645512 0.017243879 0.42487594 8355451
-0.037937421 0.019160276 0.42488587 8618883
-0.036302708 0.018724222 0.42368987 8553090
-0.034508545 0.018874785 0.42278212 8421504
0.0095314467 0.017919119 0.42272553 8882055
0.011072358 0.018707179 0.4233129 8882055
0.013178994 0.018865522 0.42441863 8421245
-0.037930805 0.02107287 0.42481175 8421504
-0.036333449 0.021035088 0.42405012 8421504
-0.034045346 0.021075463 0.42294499 8421504
0.011385893 0.021191433 0.42281708 8618883
0.013764006 0.021026887 0.423893 8355709
0.015961567 0.021579897 0.42474112 8223865
-0.036354076 0.023725403 0.42428979 8487297
-0.034347214 0.023661206 0.42314193 8553090
0.011820246 0.023259029 0.42277029 8750469
0.013747294 0.02367427 0.42338371 8750468
0.016389418 0.02383508 0.42438972 8223866
-0.036123089 0.026285892 0.42414638 8487297
-0.034048263 0.026418097 0.42298204 8421504
0.014361917 0.026054421 0.42275724 8882055
0.016438195 0.026376195 0.42384467 8553089
0.018000089 0.027191624 0.42463568 8487039
-0.035600141 0.028327189 0.42443228 8421504
-0.033988353 0.02864184 0.42342341 8421504
-0.031899612 0.028849358 0.42273703 8421504
0.016412104 0.028624853 0.42317802 8618883
0.018658247 0.028799843 0.42435199 8355452
-0.03381671 0.030866427 0.42400762 8421504
-0.031374145 0.031373974 0.42318738 8421504
-0.029350238 0.032018512 0.42263025 8421504
0.016407279 0.031287424 0.42305496 8553090
0.018665399 0.031133572 0.42407885 8421504
0.02030699 0.03103519 0.42482433 8026487
-0.033085041 0.033522263 0.42443416 8421504
-0.030949401 0.034005888 0.42364439 8421504
-0.028981356 0.033938617 0.42280731 8421504
0.016854664 0.03378525 0.42279992 8816262
0.018794015 0.033730626 0.4236863 8816262
0.02088996 0.033993423 0.42455381 8684419
-0.030980222 0.036334418 0.42406341 8158847
-0.028827814 0.036347706 0.42295024 8421504
0.018789735 0.036148012 0.42300615 8816262
0.021033185 0.036329042 0.42400658 8750469
0.022796616 0.036589332 0.42480749 8750469
-0.030443398 0.038485263 0.42458501 8421504
-0.028639589 0.038567659 0.42338568 8421504
-0.027080674 0.039286047 0.42290303 8421504
0.019188689 0.037995923 0.42269468 8816262
0.021000357 0.038563211 0.42334586 8882055
0.023501169 0.038733788 0.42437705 8882055
-0.028452545 0.040700968 0.42439783 8355711
-0.026415585 0.041341182 0.42334893 8421504
-0.024772098 0.042303123 0.42256072 8421504
0.021734387 0.040951952 0.42277876 8816262
0.023761814 0.041180477 0.42356262 8882055
0.025806796 0.041428186 0.42453289 8553089
-0.027973589 0.042535182 0.42487875 8421504
-0.026180785 0.043889292 0.42420742 8421504
-0.024294684 0.044137273 0.4230924 8421504
-0.022109229 0.044599473 0.4226526 8092541
0.022485243 0.043064959 0.42255697 8684676
0.024028998 0.043861806 0.42289263 8684676
0.026459368 0.04370321 0.42405069 8684675
0.028217966 0.044561189 0.42471004 8355451
-0.025665326 0.045967907 0.42472875 8421504
-0.023609512 0.04621036 0.42407465 8421504
-0.021081036 0.046262968 0.423049 7039349
0.024524303 0.04561764 0.4226681 8750469
0.026332915 0.046177037 0.4231388 8750469
0.028606441 0.046400864 0.424312 8487296
-0.022972703 0.048625305 0.42451867 8421504
-0.021003781 0.048498582 0.42341232 8355711
-0.019441972 0.049176935 0.42267814 8289919
0.026630577 0.048413973 0.42267627 8750469
0.028577577 0.048785005 0.42349547 8816262
0.030448956 0.048832908 0.42466265 8618882
-0.022600187 0.050946351 0.42471704 8421504
-0.021028653 0.05123255 0.42391416 8421504
-0.018786255 0.051589839 0.4229272 8421504
0.028890159 0.051200543 0.42286643 8816262
0.030976368 0.051243167 0.42401066 8750469
0.032556646 0.052090485 0.42467862 8552832
-0.022615118 0.05251307 0.42499763 8421504
-0.021055862 0.053978562 0.42446369 8421504
-0.018708035 0.053832147 0.42331246 8421504
-0.01715173 0.054123297 0.42260545 8421504
0.029349415 0.05298141 0.42261839 8750469
0.031191356 0.053880934 0.42315263 8750469
0.033597142 0.053888761 0.42451334 8355709
-0.020602275 0.056138944 0.42458981 8421504
-0.018724756 0.056173053 0.42369092 8421504
-0.01665186 0.056310501 0.42281115 8421504
0.031670183 0.056089777 0.42306459 8618883
0.034040138 0.056222823 0.42406824 8355710
0.035826433 0.056517445 0.42484531 8092280
-0.020304572 0.058232039 0.42477375 7829367
-0.018745733 0.058531601 0.42416713 8421504
-0.0163456 0.058683757 0.42325708 8421504
-0.014679421 0.05928959 0.42275304 8421504
0.031822298 0.058432069 0.42283475 8750469
0.03400322 0.058835793 0.42360887 8816262
0.036158048 0.058694772 0.42456007 8421502
-0.018246178 0.060352474 0.42441893 8421504
-0.016441844 0.061305575 0.42395025 8421504
-0.013964313 0.061501969 0.42302173 8421504
0.034241308 0.061084848 0.42277709 8947848
0.036302801 0.061140258 0.42369282 8750469
0.038506579 0.061567307 0.42458594 8355451
-0.015695866 0.063549444 0.42446426 8421504
-0.013750196 0.063781954 0.4234668 8421504
-0.011817308 0.06404227 0.42266527 8421504
0.036455851 0.063592799 0.42293745 8816262
0.038611684 0.063842058 0.42386949 8684418
0.040523786 0.064117633 0.4246811 8289657
-0.013159354 0.066013798 0.42378336 8421504
-0.011279015 0.066093028 0.42289403 8421504
-0.0087664537 0.06670063 0.42260197 6052956
-0.0072404165 0.067450196 0.42252228 526344
0.036976706 0.066329151 0.42266488 8618883
0.038564399 0.066055082 0.42335093 8618883
0.040854201 0.066303603 0.42432973 8289915
-0.012635114 0.068153247 0.4245266 8421504
-0.011086768 0.068432219 0.42388028 8421504
-0.0087153343 0.068644121 0.42347395 6381921
-0.0072438135 0.069006979 0.42272055 1447446
0.038530938 0.068668075 0.42298374 8684676
0.040851589 0.068733573 0.4240303 8553090
-0.010602798 0.070387147 0.42491546 8421504
-0.0088737607 0.071367763 0.42406267 7895160
-0.0065796324 0.071420819 0.42290372 1906739
-0.004574446 0.072046325 0.42265856 3412019
0.038971517 0.07115519 0.42279989 8684676
0.04090099 0.071224421 0.42381987 8553090
-0.0088037224 0.073870465 0.42437726 8355711
-0.0064945905 0.073730096 0.42357051 3616601
-0.0041951449 0.073599771 0.42282289 4921643
0.038978048 0.073760591 0.42286938 8421504
-0.0083488412 0.076058142 0.42462498 8421504
-0.0065007773 0.076093405 0.42396736 7763323
-0.0037862675 0.076215163 0.42301089 3220301
-0.0019058964 0.077379391 0.42263839 1312580
-0.0080485241 0.077802405 0.42494884 7237230
-0.0064134286 0.078393914 0.42451906 8421504
-0.0039305273 0.078868099 0.42361495 8289920
-0.0019058636 0.07852152 0.42263114 5064808
-0.005745485 0.08081983 0.42469299 8487297
-0.0038199013 0.081339478 0.42341051 8553090
-0.0035956881 0.083680637 0.42404833 8421504
-0.0012408306 0.083694145 0.42324615 8355711
0.00038113605 0.083850011 0.42259049 6776179
-0.0029376491 0.085701458 0.42484096 8421504
-0.0011477062 0.086036034 0.42397127 8421504
0.00070828915 0.086377256 0.42296717 8355711
-0.001039453 0.088199399 0.42439374 8421504
0.0012400423 0.088839568 0.42321014 8421504
0.002667632 0.089556217 0.42253974 8421504
0.0011479671 0.090361789 0.42453569 8355711
0.003745721 0.091026679 0.42370424 8355711
0.0061050262 0.091197424 0.42308182 8421504
-0.028518504 -0.015029961 0.42730004 6579562
-0.026060328 -0.015405406 0.4270176 7368569
-0.023891795 -0.015028829 0.42726785 8158074
-0.033113439 -0.013091615 0.42691791 1249154
-0.031071138 -0.013371825 0.42663178 1644414
-0.028818008 -0.013449091 0.42602775 3949668
-0.026385622 -0.013988701 0.42575398 6053733
-0.023662727 -0.013599301 0.4259235 7698038
-0.021261051 -0.013240775 0.42639485 8684673
-0.019017726 -0.013012488 0.42684746 8750209
-0.033221785 -0.011037163 0.42618236 1183357
-0.031321798 -0.011378285 0.42524609 1249151
-0.020325841 -0.0118887 0.42521867 8552574
-0.018716674 -0.011230409 0.42569801 8289402
-0.016454864 -0.010874107 0.42679188 8158329
-0.035045493 -0.0084728422 0.42700255 1249151
-0.033645216 -0.0090829665 0.42552161 1249150
-0.018216761 -0.0090126917 0.42522478 8223865
-0.01624991 -0.0089121908 0.42624035 8224122
-0.01393612 -0.0082388986 0.42686152 8421501
-0.011949554 -0.0080948593 0.42739522 8487037
-0.035834812 -0.0057801004 0.42723009 8026749
-0.034960221 -0.0065312292 0.42596355 6645365
-0.016106924 -0.0072865253 0.42521301 7829108
-0.013535192 -0.0068161073 0.42574424 6842986
-0.011146264 -0.006535016 0.42616761 6514279
-0.0089452267 -0.0064452165 0.42658582 6514279
-0.006322524 -0.0061031845 0.42672402 7632245
-0.0034676613 -0.0052657141 0.42718902 8158074
-0.03582311 -0.0034666888 0.42709062 8421504
-0.03495875 -0.0038415126 0.42594564 8355712
-0.008051578 -0.0049843099 0.42511004 6514280
-0.0063285865 -0.0047944938 0.42526886 7500660
-0.0037620433 -0.0039929799 0.4256514 8750469
-0.0012494612 -0.0033651595 0.42635113 8816260
0.00064193882 -0.0029526222 0.42699757 8487037
-0.035845365 -0.0011561764 0.42735592 8421504
-0.034551498 -0.0011516041 0.4256548 8421504
-0.00095872517 -0.001726249 0.42532325 9013641
0.001153586 -0.0011536331 0.4261466 8618624
0.0032740859 -0.00057773112 0.4270303 8552574
-0.034558598 0.0011519258 0.42574158 8421504
0.0016622589 0.00063921954 0.42529455 8553089
0.0034590156 0.0011523771 0.42607415 8355451
0.0055208956 0.0014120261 0.42705908 8421244
-0.033951659 0.003729932 0.42569447 8553090
0.0041529471 0.0035241132 0.42559221 8355709
0.0065405886 0.0038463043 0.42655981 8355452
0.0080924202 0.0038533343 0.42726648 8486781
-0.034626205 0.0063722269 0.42563257 8750469
0.0067786626 0.0062667243 0.42541766 8420987
0.0087809451 0.0062612565 0.42665377 8355194
0.010405154 0.0073221452 0.42729166 8355195
-0.035926573 0.0090297004 0.42602861 8750469
-0.034899607 0.0080537554 0.42522505 8816262
0.0089284964 0.0087358151 0.42576671 8289658
0.010948554 0.0089674192 0.42699957 8289658
-0.036467396 0.011132241 0.42561454 7895417
0.0093969898 0.010930929 0.42526418 8289402
0.011151138 0.011150189 0.42632183 8289658
0.012973656 0.01168899 0.42726514 8289659
-0.03814353 0.013870439 0.42719424 7632246
-0.036681496 0.013827194 0.42587033 7763832
0.011418971 0.013529439 0.4255693 8289658
0.01331404 0.013851685 0.42663592 8289658
-0.038313352 0.016556855 0.42693862 8882055
-0.037117593 0.016060365 0.42603064 8882055
0.011883445 0.015716814 0.42503074 8289658
0.013751773 0.016362727 0.42589051 8355194
0.015692919 0.01636643 0.42698351 8420987
-0.038596358 0.018336669 0.42651477 8750469
0.014654392 0.018643662 0.42534456 8355451
0.016534006 0.018840002 0.42631918 8355452
0.018110167 0.019265953 0.4272325 8552575
-0.03882328 0.021140404 0.4261972 8684676
0.016757386 0.020850338 0.42549011 8420988
0.018637659 0.021275783 0.42669481 8816261
-0.038513739 0.023756238 0.4256022 8224640
0.017252054 0.022619359 0.42507735 8289659
0.018762808 0.023722999 0.42612541 8092023
-0.038374234 0.026377544 0.42632955 7174523
-0.037212517 0.026854604 0.42536032 8421504
0.018986624 0.026238488 0.42575157 8289659
0.020888202 0.026470494 0.42690986 8355707
-0.038146071 0.028513435 0.42722267 7371388
-0.036713541 0.028920555 0.42592171 8421504
0.019562079 0.028000621 0.42528933 8420986
0.021129528 0.02881171 0.42594561 8420986
0.02303561 0.029044455 0.42710584 8420987
-0.036283817 0.030898267 0.42646027 8421504
-0.034899972 0.031448524 0.42522949 8421504
0.021484761 0.03107583 0.42538142 8026486
0.023461983 0.031153385 0.42644632 8223865
0.02503692 0.031970222 0.42707801 8816004
-0.034549139 0.033013165 0.42562926 8421504
0.021603055 0.032851819 0.42519438 8224123
0.023545828 0.03388482 0.42582247 8158329
0.025704509 0.033598177 0.42696375 8223865
0.024277695 0.036367878 0.4255794 8355452
0.026552925 0.036172353 0.42667401 8289657
0.028136248 0.036615495 0.4273493 8026743
-0.031075064 0.039131753 0.42536986 7371388
0.024923677 0.038343988 0.42514634 8487039
0.026495961 0.038782861 0.42575639 8223864
0.028312813 0.039098479 0.42710316 8157816
-0.030337127 0.041090026 0.42578173 7699324
-0.029282404 0.041557938 0.42533445 8421504
0.026942482 0.040912189 0.42553645 8158072
0.028860446 0.041173007 0.42665192 8420988
0.030431123 0.041987248 0.42710099 8486781
-0.030396778 0.042709395 0.42661893 6387064
-0.028709006 0.043591183 0.42583507 8421504
-0.027226694 0.044483215 0.42518336 8421504
0.028956698 0.043455586 0.42555606 8355194
0.031007987 0.043856278 0.42655221 8289658
0.032767266 0.044332184 0.42742601 8158072
-0.028459582 0.045381226 0.42641738 7829367
-0.026712639 0.046568453 0.42571536 8224125
-0.024922201 0.047160473 0.42512116 8421504
0.029519005 0.045620281 0.42506042 8223865
0.031195123 0.046330176 0.42595211 8158072
0.032997359 0.046478417 0.42707613 8158072
-0.026064605 0.048669077 0.42624372 8158332
-0.024555543 0.048727173 0.42540804 8421504
0.031543314 0.048580877 0.42547411 8289659
0.033474546 0.048863884 0.42660633 8289658
0.035068873 0.049713019 0.42728743 8355451
-0.023916474 0.050773665 0.42541191 8355711
0.033667646 0.05107655 0.42580476 8355194
0.035687413 0.051220011 0.42700088 8355451
-0.022914341 0.053382825 0.42581356 8421503
0.034611847 0.053183615 0.42545763 8289915
0.036529873 0.053831887 0.42634144 8355451
0.038151734 0.053951792 0.42728612 8421245
0.036916457 0.056256879 0.4254837 8223866
0.03870216 0.056320943 0.42655286 8487038
0.040471192 0.05743055 0.42736247 8947848
0.037194669 0.058284335 0.42515635 8223865
0.038776204 0.058739245 0.42567584 8289401
0.040937766 0.059160162 0.42686415 8618625
-0.018984154 0.061255254 0.42608213 8158332
0.039253578 0.06047846 0.42530528 8289658
0.041043848 0.061256438 0.4260965 8289658
0.042770427 0.061650924 0.42722857 8289658
-0.01809006 0.062737867 0.42675817 8421504
-0.016669076 0.063681222 0.42585582 8421504
0.041584548 0.063463844 0.42560664 8355194
0.042969543 0.063876249 0.42665184 8553089
-0.015283001 0.066654384 0.42719042 8421504
-0.014461846 0.066422664 0.42570376 8421504
0.041782308 0.06554839 0.42501631 8684676
0.043472201 0.066399306 0.42654434 8355453
-0.013581748 0.068801664 0.42617369 8421504
0.043447085 0.068821669 0.42629674 8355710
-0.012881961 0.070945702 0.42635202 7829367
-0.011236577 0.071419165 0.42540982 8421504
0.042966921 0.070944883 0.4261156 8421504
-0.01097957 0.073168322 0.42563924 8158332
-0.0095836464 0.075519137 0.42504063 7237230
-0.0072843358 0.079360925 0.42508525 7237230
-0.0063269967 0.081292085 0.42515898 7829367
-0.0057581696 0.083685555 0.42563063 7237230
-0.0049862834 0.084383421 0.42527837 8421504
-0.0040309392 0.086463183 0.42560425 8224125
-0.002944424 0.088206805 0.42583552 8355711
-0.0015394003 0.089628093 0.42650872 8355711
-0.00038467831 0.090399399 0.42651799 8355711
0.0011541966 0.09145695 0.42666528 8224124
0.0026892137 0.091817439 0.42595816 8289917
-0.033726878 -0.018220266 0.42982984 2894204
-0.028298467 -0.018219434 0.42981017 8684417
-0.026727222 -0.018205499 0.42948145 8684417
-0.035206851 -0.015862504 0.42896855 3486330
-0.033650745 -0.016246216 0.42885974 1907072
-0.031319361 -0.016240656 0.42871234 6578813
-0.02906557 -0.016466225 0.42854968 8158330
-0.026403585 -0.016873216 0.42842352 5723521
-0.023589287 -0.016371749 0.42877042 5328514
-0.021389427 -0.015642056 0.42896968 8618625
-0.019727694 -0.015085883 0.4288899 8947591
-0.035209108 -0.013542444 0.42899606 4144501
-0.033870813 -0.013810897 0.42773229 1512317
-0.03200892 -0.014269035 0.42759496 1380739
-0.020827923 -0.01427106 0.42765564 8749953
-0.018934576 -0.014040084 0.42845771 9079176
-0.017405955 -0.012764367 0.42886937 9211020
-0.035621408 -0.011228263 0.42929593 1314935
-0.034340583 -0.011575396 0.42781627 1183352
-0.015826188 -0.011580214 0.42799735 8750468
-0.01390242 -0.01042705 0.42819083 8487295
-0.035965715 -0.0088945087 0.4287838 1776245
-0.01335271 -0.0093395105 0.42790022 8355707
-0.011199784 -0.0087541994 0.42819741 8552830
-0.0088823931 -0.0081102336 0.42820701 8158072
-0.036578067 -0.0064184861 0.42871159 6382961
-0.0081004584 -0.0073289862 0.42769086 6908523
-0.0059475219 -0.0071840682 0.42824325 8553090
-0.0034812593 -0.0064474051 0.42887977 8947847
-0.0011598278 -0.0054158773 0.42888173 8881795
0.00038746232 -0.0050370102 0.42960483 9408399
-0.037606817 -0.0042646904 0.42986739 9408399
-0.036692705 -0.0034761389 0.42824841 8421504
-0.00038566079 -0.0042422689 0.42760736 8881794
0.0013128084 -0.0036306784 0.42818221 9013384
0.0033268458 -0.0030174567 0.42887902 8947333
0.0050358125 -0.0027115915 0.4295027 9013383
-0.036713149 -0.0011592362 0.42848703 8421504
0.0036283552 -0.001621142 0.42793575 8552574
0.0058882744 -0.00098877912 0.42885497 8552831
-0.036215216 0.0010036295 0.42807716 8750469
0.0068220212 0.00090070249 0.42813957 8487037
0.0083152298 0.0013529239 0.42882398 8684674
-0.035932016 0.0034786284 0.42838895 8421504
0.0090065114 0.003473711 0.42796829 8355195
0.010435505 0.004251502 0.42853802 6386805
-0.035873003 0.0073288931 0.42768544 10263708
0.0096439635 0.005014861 0.42771572 8355195
0.011101512 0.0063710371 0.42812675 8092794
0.011962079 0.008489077 0.42784321 8355195
0.013058035 0.0090398788 0.42834696 7895929
0.013770144 0.010938569 0.42806029 7961465
0.015071085 0.011979581 0.42846918 8552831
-0.0390191 0.014294126 0.42834684 8290175
0.014271627 0.012728749 0.42767262 8289659
0.015363192 0.013664419 0.42799044 8355452
-0.039239913 0.01617052 0.42834115 8618883
0.016853375 0.015952507 0.42793012 8421244
0.018161811 0.017002363 0.42845082 6779248
-0.039584655 0.018953161 0.42888668 8487297
0.019055836 0.018926663 0.42827097 8618882
0.020517092 0.019742861 0.42921966 6381921
-0.039834112 0.021657005 0.42880279 8750469
0.019681636 0.020839203 0.42788857 8947848
0.021012539 0.021527601 0.42878604 8947848
-0.03971836 0.022751294 0.42755675 6650236
0.02124504 0.023561649 0.42827049 8223866
0.023054482 0.023829136 0.42961213 8092280
0.021805275 0.025664274 0.42790943 8420987
0.023520567 0.026402146 0.4287872 8355195
-0.038209055 0.029718153 0.42792806 6387064
0.024125112 0.028756764 0.42798448 8355195
0.025357328 0.02922819 0.42923871 8486782
-0.037434004 0.031259324 0.42789206 4418160
0.026151141 0.031302895 0.42849326 9013640
0.027891144 0.031764917 0.42951056 9211020
0.027205031 0.033378936 0.42785677 8552831
0.028733537 0.033887003 0.42858782 7960951
-0.03291123 0.03600876 0.42930394 8421504
0.02917031 0.03602745 0.42837724 8026743
0.030612543 0.036037408 0.42964721 8026486
0.029477343 0.038615894 0.42816409 8158072
0.031176856 0.039002538 0.42911389 8420988
0.032936823 0.03991168 0.42963776 7302764
0.031367682 0.041211486 0.42804915 8421244
0.032873299 0.041381184 0.42880914 8026743
0.032005671 0.042802762 0.42755157 8487037
0.033430912 0.043776467 0.42802191 7763315
0.034088273 0.046050981 0.42787647 8092536
0.035714678 0.04628678 0.42886713 7039592
0.035999134 0.048571315 0.42834604 8289402
0.037825342 0.049056102 0.42941162 8158073
-0.024302127 0.052075986 0.4277041 8421504
0.03712656 0.051174022 0.42790541 8355451
0.038615517 0.051615555 0.42900866 8684675
-0.02358599 0.053745124 0.42871034 8421504
0.039275978 0.053637136 0.42873305 8882055
0.040692687 0.054644462 0.42970136 9079434
-0.022836348 0.055349115 0.42915514 8421504
0.039744664 0.055565082 0.42783991 9013641
0.041132037 0.056346003 0.42888784 9013641
0.041791998 0.058168121 0.42825538 9013641
0.042929385 0.059172198 0.42881641 9013641
0.04350283 0.060964279 0.42836738 8684419
-0.018572142 0.063842088 0.42900151 8421504
-0.017372513 0.064471327 0.42804536 8421504
0.044195883 0.063495114 0.42797062 8684676
0.045303438 0.06466388 0.42932379 8750469
-0.016626254 0.066117048 0.42870188 8421504
0.044360787 0.065191068 0.4277018 8684676
0.045407496 0.066275336 0.42847681 8355711
-0.015703302 0.068301238 0.42882556 7434609
-0.014271217 0.069813251 0.42766035 8421504
0.045510955 0.068227135 0.42835769 7631729
-0.00077261816 0.091212809 0.42853051 8224124
0.0011584332 0.092288509 0.42814356 7895159
0.00038760199 0.092636876 0.42975968 7697780
0.0034784235 0.093176246 0.4286747 7960952
-0.035487264 -0.020668408 0.43238521 3354749
-0.033877283 -0.02102712 0.43174061 8092540
-0.031497244 -0.020609541 0.43115366 8289916
-0.029982537 -0.02063733 0.43173507 9868948
-0.036006648 -0.018865982 0.43192807 2564996
-0.033789415 -0.019128192 0.43062112 5657725
-0.031467762 -0.019036546 0.43074819 8158329
-0.02890775 -0.019315815 0.43119431 8684673
-0.035984565 -0.016553324 0.43086505 1709690
-0.022893973 -0.017461505 0.43023807 1314949
-0.021362524 -0.017090254 0.43065745 7697292
-0.019429045 -0.015543238 0.43084484 9145229
-0.036173504 -0.013614454 0.43126801 1314939
-0.018261796 -0.014376307 0.43080953 9342606
-0.017111061 -0.013222128 0.43119135 9211020
-0.036957964 -0.011282519 0.43134436 1183354
-0.015921449 -0.012038168 0.43056467 9408401
-0.013608444 -0.010886854 0.43111253 9474192
-0.037762102 -0.0089543806 0.43164244 1314938
-0.036886863 -0.0093190968 0.43051451 1249150
-0.037667852 -0.0062138839 0.43056506 6052994
-0.0031054127 -0.0073759831 0.43043342 9408399
-0.0013215299 -0.0069208397 0.43107754 9276554
0.0010119108 -0.0056832982 0.43155971 9408399
0.0019391566 -0.0042661447 0.43001395 9539985
0.0036958237 -0.0040848185 0.43130642 9539985
0.0058362545 -0.002982605 0.43135309 9342606
0.0069923326 -0.0015536385 0.43070352 9079434
0.0081685241 -0.00038897735 0.43128464 9211020
0.0089378338 0.00077647693 0.43086791 9145227
0.0097183092 0.0027211264 0.43101299 8553089
-0.036918823 0.0089382418 0.43088752 10197915
-0.037631784 0.011250739 0.43015277 8750470
-0.038492367 0.012830788 0.43110105 8224382
-0.040894493 0.018694898 0.43183237 5402484
-0.0399739 0.019792901 0.43030754 8487297
-0.040937398 0.021443401 0.43228546 6650236
-0.039950464 0.020557035 0.43005526 8750469
0.02408148 0.02408148 0.43065113 8355451
0.025336705 0.024557114 0.43219173 6052954
0.02445972 0.025236219 0.43047765 8355450
0.025610059 0.026232118 0.43153644 8355195
0.02633089 0.028467329 0.43091232 8816261
0.027628966 0.029184749 0.43146539 8750469
0.028075749 0.030921878 0.43035898 7829367
0.031850204 0.036510777 0.43065941 7566192
0.031942781 0.037891448 0.43016532 8421244
0.039012715 0.048862655 0.43111798 7960953
0.040174752 0.049535859 0.43246967 8816262
-0.025219303 0.051602576 0.4301891 8421504
0.039217971 0.050478365 0.43052998 8816262
0.040239263 0.051446073 0.43148571 8882055
-0.025352439 0.052655067 0.43246013 7237230
-0.024226332 0.054022145 0.43092212 8026746
0.041525863 0.053875722 0.43130553 9013641
-0.023372095 0.056093942 0.43190783 8421504
-0.022114171 0.056255348 0.43016541 8421504
0.042057674 0.055774551 0.43044749 9079434
0.043180928 0.056795944 0.43132901 8816262
0.04351021 0.058661483 0.43073156 8882055
0.044693872 0.062181957 0.43091321 8750469
