# .PCD v0.7 - Point Cloud Data file format
VERSION 0.7
FIELDS x y z rgb
SIZE 4 4 4 4
TYPE F F F U
COUNT 1 1 1 1
WIDTH 317
HEIGHT 1
VIEWPOINT 0 0 0 1 0 0 0
POINTS 317
DATA ascii
0.12133294 0.048727311 0.21524762 3092271
0.12346242 0.048724953 0.21523717 3092271
0.11630046 0.051257633 0.21527538 3092271
0.1188177 0.051254701 0.21526307 3092271
0.12133464 0.051251769 0.2152507 3092271
0.1234642 0.051249284 0.21524025 3092271
0.11126669 0.053788614 0.21530305 3092271
0.11378454 0.053785533 0.21529071 3092271
0.11630211 0.053782452 0.21527843 3092271
0.11881939 0.053779382 0.21526614 3092271
0.12133636 0.053776283 0.21525376 3092271
0.12346594 0.053773694 0.21524334 3092271
0.1087501 0.056317016 0.21531846 3092271
0.11126827 0.056313798 0.21530607 3092271
0.11378617 0.056310561 0.21529374 3092271
0.11630375 0.056307338 0.21528141 3092271
0.11882109 0.056304116 0.21526922 3092271
0.12127999 0.056262124 0.21525712 3092271
0.12339326 0.056358006 0.21524686 3092271
0.10371421 0.058654871 0.21534602 3092271
0.10623301 0.058651499 0.21533367 3092271
0.10875153 0.058648143 0.2153213 3092271
0.11126973 0.058644783 0.21530898 3092271
0.11381386 0.058678143 0.21529651 3092271
0.11630542 0.058832306 0.21528448 3092271
0.11882277 0.058828928 0.21527229 3092271
0.12114622 0.058825832 0.21526089 3092271
0.12327584 0.058822971 0.21525046 3092271
0.098677173 0.061187632 0.21537365 3092271
0.10119656 0.061184123 0.21536145 3092271
0.1037157 0.061180621 0.21534906 3092271
0.1062345 0.061177112 0.21533667 3092271
0.10875307 0.061173599 0.21532433 3092271
0.11127131 0.061170105 0.21531202 3092271
0.11376569 0.061195053 0.21529981 3092271
0.11630708 0.061357334 0.21528755 3092271
0.11882447 0.061353821 0.21527529 3092271
0.12114794 0.061350569 0.21526398 3092271
0.1232776 0.061347604 0.21525352 3092271
0.093832672 0.063720755 0.21540049 3092271
0.096352667 0.063717097 0.21538809 3092271
0.098678574 0.063713737 0.2153767 3092271
0.10119802 0.063710079 0.21536438 3092271
0.10371718 0.063706428 0.21535218 3092271
0.10623603 0.063702777 0.21533982 3092271
0.10875463 0.063699141 0.21532747 3092271
0.1112729 0.06369549 0.21531509 3092271
0.1137909 0.063691847 0.21530274 3092271
0.11630861 0.063688196 0.21529041 3092271
0.11882603 0.063684545 0.21527803 3092271
0.12114955 0.063681185 0.21526678 3092271
0.12327921 0.063678101 0.21525635 3092271
0.091313697 0.066251002 0.21541592 3092271
0.093834028 0.06624721 0.21540362 3092271
0.096354052 0.066243403 0.21539123 3092271
0.098679975 0.066239916 0.21537979 3092271
0.10119945 0.066236116 0.21536742 3092271
0.10371865 0.066232339 0.21535514 3092271
0.10623755 0.066228539 0.21534291 3092271
0.10875617 0.066224732 0.21533057 3092271
0.1112745 0.066220954 0.21531816 3092271
0.11379252 0.066217154 0.21530584 3092271
0.11631027 0.066213369 0.21529356 3092271
0.11882773 0.066209555 0.2152811 3092271
0.12115127 0.066206083 0.21526979 3092271
0.12328099 0.066202857 0.21525945 3092271
0.086273417 0.068785578 0.21544373 3092271
0.088794351 0.068781644 0.21543133 3092271
0.091315001 0.068777673 0.21541902 3092271
0.093835339 0.068773746 0.21540664 3092271
0.096355401 0.068769798 0.21539427 3092271
0.09868139 0.068766162 0.21538284 3092271
0.10120089 0.068762235 0.21537054 3092271
0.10372012 0.068758294 0.21535815 3092271
0.10623904 0.068754353 0.21534598 3092271
0.10875771 0.068750411 0.21533363 3092271
0.11127605 0.06874647 0.21532124 3092271
0.11379414 0.068742551 0.21530889 3092271
0.11631192 0.068738602 0.21529658 3092271
0.11882942 0.068734676 0.2152842 3092271
0.12115303 0.06873104 0.21527278 3092271
0.12328275 0.068727717 0.21526247 3092271
0.08123184 0.071320787 0.2154714 3092271
0.083753385 0.071316682 0.21545902 3092271
0.086274639 0.071312606 0.21544679 3092271
0.088795625 0.071308523 0.21543443 3092271
0.091316298 0.071304433 0.21542211 3092271
0.093760803 0.071249768 0.21541004 3092271
0.096266367 0.071348235 0.21539788 3092271
0.098682776 0.071292497 0.21538594 3092271
0.10120232 0.071288407 0.21537356 3092271
0.1037216 0.071284331 0.21536124 3092271
0.10624057 0.071280248 0.21534896 3092271
0.10875925 0.071276158 0.21533667 3092271
0.11127764 0.071272083 0.21532428 3092271
0.11379577 0.071268 0.21531196 3092271
0.11631358 0.071263917 0.21529967 3092271
0.1188311 0.071259841 0.21528728 3092271
0.12115473 0.071256079 0.21527588 3092271
0.1232845 0.071252629 0.21526547 3092271
0.076188952 0.073856652 0.21549918 3092271
0.078711115 0.07385242 0.21548684 3092271
0.081232995 0.073848188 0.21547446 3092271
0.083754562 0.073843941 0.21546209 3092271
0.086275861 0.073839724 0.21544978 3092271
0.088796876 0.073835485 0.2154375 3092271
0.091317602 0.07383126 0.21542518 3092271
0.093644157 0.073827356 0.21541378 3092271
0.096164316 0.073823117 0.21540135 3092271
0.098684192 0.073818892 0.21538901 3092271
0.10120378 0.073814668 0.21537668 3092271
0.10372308 0.073810428 0.21536431 3092271
0.10624207 0.073806204 0.21535201 3092271
0.1087608 0.073801987 0.21533978 3092271
0.1112792 0.073797762 0.21532738 3092271
0.11379737 0.07379353 0.21531507 3092271
0.11631525 0.073789313 0.21530269 3092271
0.1188328 0.073785074 0.21529034 3092271
0.12115645 0.07378117 0.21527892 3092271
0.12328625 0.073777601 0.21526852 3092271
0.073667467 0.076194339 0.21551441 3092271
0.07618995 0.076189965 0.21550204 3092271
0.078712143 0.076185599 0.21548969 3092271
0.081234053 0.076181248 0.21547729 3092271
0.083755679 0.076176867 0.21546498 3092271
0.086277008 0.076172501 0.21545257 3092271
0.088798046 0.076168142 0.21544036 3092271
0.091318794 0.076163769 0.21542802 3092271
0.093645386 0.076159745 0.21541663 3092271
0.096165575 0.076155387 0.21540424 3092271
0.098685488 0.076151013 0.21539187 3092271
0.10120513 0.076146662 0.21537949 3092271
0.10372443 0.076142289 0.21536714 3092271
0.1062678 0.076307915 0.21535493 3092271
0.10876237 0.076327868 0.21534275 3092271
0.11128084 0.076323509 0.21533051 3092271
0.11379901 0.076319136 0.21531816 3092271
0.11631687 0.076314755 0.21530579 3092271
0.1188345 0.076310396 0.21529345 3092271
0.12115818 0.076306358 0.21528205 3092271
0.12328799 0.076302655 0.21527156 3092271
0.068816699 0.078731 0.21554123 3092271
0.071145676 0.078726821 0.21552984 3092271
0.073668517 0.078722306 0.21551748 3092271
0.076191045 0.078717791 0.21550508 3092271
0.078713268 0.07871329 0.21549277 3092271
0.081235223 0.078708775 0.21548037 3092271
0.083756849 0.078704245 0.21546808 3092271
0.086278237 0.07869976 0.21545565 3092271
0.088799313 0.078695238 0.2154433 3092271
0.091320097 0.07869073 0.21543109 3092271
0.09364672 0.078686573 0.21541965 3092271
0.096166961 0.078682058 0.2154073 3092271
0.098686911 0.07867755 0.21539494 3092271
0.10120653 0.078673035 0.21538268 3092271
0.10372593 0.078668557 0.21537025 3092271
0.10621805 0.07882677 0.2153582 3092271
0.1087639 0.078853823 0.21534576 3092271
0.11128242 0.078849338 0.21533355 3092271
0.11380062 0.078844801 0.21532123 3092271
0.11631853 0.078840278 0.21530883 3092271
0.11883618 0.078835785 0.21529651 3092271
0.1211599 0.078831598 0.21528509 3092271
0.12328976 0.078827791 0.21527465 3092271
0.063770585 0.081268631 0.215569 3092271
0.066294275 0.081263959 0.21555671 3092271
0.06881769 0.081259333 0.21554436 3092271
0.071146742 0.081255019 0.21553293 3092271
0.073669568 0.081250355 0.21552059 3092271
0.076192126 0.081245691 0.21550821 3092271
0.078714386 0.081241034 0.21549584 3092271
0.08123637 0.081236377 0.21548344 3092271
0.083758064 0.081231721 0.21547106 3092271
0.086279482 0.081227072 0.21545872 3092271
0.088800572 0.081222437 0.21544638 3092271
0.091321401 0.081217758 0.21543413 3092271
0.093648054 0.081213482 0.21542276 3092271
0.096168324 0.081208818 0.2154104 3092271
0.098688275 0.081204168 0.21539804 3092271
0.10120801 0.081199527 0.21538569 3092271
0.1037274 0.081194885 0.21537329 3092271
0.10624651 0.081190221 0.21536095 3092271
0.10876532 0.081185542 0.21534859 3092271
0.11128386 0.081180923 0.21533635 3092271
0.11380213 0.081176266 0.21532406 3092271
0.11632007 0.081171609 0.21531169 3092271
0.11883774 0.081166953 0.21529937 3092271
0.1211615 0.081162676 0.21528792 3092271
0.12321056 0.08094845 0.21527761 3026478
0.058723178 0.083806925 0.21559675 3092271
0.061247479 0.083802126 0.21558437 3092271
0.063771501 0.083797321 0.215572 3092271
0.066295236 0.083792508 0.21555977 3092271
0.068818666 0.083787717 0.21554743 3092271
0.07114774 0.083783284 0.21553603 3092271
0.073670603 0.083778471 0.21552357 3092271
0.076193213 0.083773673 0.21551125 3092271
0.078715511 0.083768874 0.21549891 3092271
0.081237532 0.083764054 0.21548657 3092271
0.083759256 0.083759278 0.21547425 3092271
0.086280689 0.083754472 0.21546185 3092271
0.088801831 0.083749674 0.21544951 3092271
0.091322698 0.083744869 0.21543714 3092271
0.093649402 0.083740436 0.21542588 3092271
0.096169695 0.083735645 0.21541345 3092271
0.098689727 0.083730839 0.21540113 3092271
0.10120942 0.083726056 0.21538876 3092271
0.10372888 0.083721243 0.21537641 3092271
0.10624802 0.08371646 0.2153641 3092271
0.10876688 0.083711661 0.21535167 3092271
0.11128543 0.083706863 0.21533929 3092271
0.11380374 0.08370208 0.21532714 3092271
0.11632172 0.083697267 0.21531479 3092271
0.11872777 0.08343368 0.21530268 3026478
0.12090442 0.082781993 0.21529119 2960685
0.056199368 0.086340941 0.21561225 3092271
0.058724001 0.086335987 0.21559982 3092271
0.061248347 0.08633104 0.21558745 3092271
0.06377241 0.086326085 0.21557508 3092271
0.066296168 0.08632113 0.2155627 3092271
0.06881965 0.086316176 0.2155505 3092271
0.071148746 0.086311609 0.21553911 3092271
0.073671669 0.086306676 0.2155267 3092271
0.076194316 0.086301722 0.21551439 3092271
0.078716621 0.086296782 0.21550196 3092271
0.081238694 0.08629182 0.21548963 3092271
0.083760463 0.086286888 0.21547729 3092271
0.086281925 0.086281933 0.21546486 3092271
0.088803098 0.086276993 0.21545254 3092271
0.091324002 0.086272046 0.21544015 3092271
0.093650714 0.086267486 0.21542889 3092271
0.096171059 0.086262546 0.21541655 3092271
0.098691113 0.086257599 0.21540421 3092271
0.10121087 0.086252652 0.21539181 3092271
0.10373035 0.086247712 0.21537948 3092271
0.10624953 0.08624278 0.21536709 3092271
0.10876843 0.08623784 0.21535474 3092271
0.11128703 0.086232893 0.21534239 3092271
0.11372897 0.08615157 0.21533042 3026478
0.11588397 0.085615106 0.21531916 2960685
0.051344171 0.088685423 0.21563888 3092271
0.05367516 0.088680722 0.21562745 3092271
0.056200106 0.088675641 0.21561509 3092271
0.058724795 0.088670552 0.21560267 3092271
0.061249148 0.08866547 0.21559034 3092271
0.063773245 0.088660389 0.21557793 3092271
0.066297039 0.088655293 0.21556559 3092271
0.068820551 0.088650227 0.21555327 3092271
0.071149684 0.088645533 0.21554194 3092271
0.073699735 0.088672064 0.2155295 3092271
0.076195382 0.088829838 0.21551743 3092271
0.078717753 0.088824742 0.215505 3092271
0.081239849 0.088819653 0.2154927 3092271
0.083761632 0.088814557 0.21548036 3092271
0.086283162 0.088809475 0.215468 3092271
0.088804379 0.088804394 0.21545562 3092271
0.09132532 0.088799313 0.21544322 3092271
0.093652047 0.088794596 0.21543185 3092271
0.096172422 0.0887895 0.21541962 3092271
0.098692507 0.088784419 0.21540725 3092271
0.10121231 0.08877933 0.21539484 3092271
0.10373183 0.088774249 0.2153825 3092271
0.10625105 0.08876916 0.21537019 3092271
0.1087312 0.088705868 0.21535794 3026478
0.11102992 0.088144183 0.21534604 3026478
0.11303139 0.087589622 0.21533558 2829099
0.046293527 0.09122549 0.21566673 3092271
0.048819356 0.091220282 0.21565431 3092271
0.051344916 0.091215044 0.21564195 3092271
0.053675931 0.091210209 0.21563049 3092271
0.056200914 0.091204986 0.21561825 3092271
0.058725618 0.091199741 0.21560581 3092271
0.061250035 0.091194525 0.21559341 3092271
0.063774146 0.09118928 0.21558106 3092271
0.066297986 0.09118405 0.21556869 3092271
0.068821535 0.091178827 0.21555628 3092271
0.071150705 0.091173999 0.215545 3092271
0.073649444 0.091193132 0.21553278 3092271
0.076196469 0.091358036 0.21552053 3092271
0.078718871 0.091352791 0.21550819 3092271
0.081240997 0.091347545 0.21549581 3092271
0.083762839 0.09134233 0.21548341 3092271
0.086284392 0.091337092 0.21547104 3092271
0.088805631 0.091331854 0.21545866 3092271
0.091326609 0.091326624 0.21544631 3092271
0.093653396 0.091321789 0.21543489 3092271
0.096173801 0.091316544 0.21542259 3092271
0.09869393 0.091311328 0.21541037 3092271
0.10121375 0.091306083 0.215398 3092271
0.10373331 0.091300867 0.21538565 3092271
0.10600834 0.090957835 0.21537405 3157807
0.10793141 0.090450019 0.21536402 2894892
0.043767828 0.092982344 0.21568118 3092271
0.046293985 0.09297701 0.21566884 3092271
0.04881984 0.092971675 0.21565647 3092271
0.051345419 0.092966348 0.21564411 3092271
0.05367646 0.092961423 0.21563268 3092271
0.056201465 0.092956081 0.21562028 3092271
0.058726203 0.092950761 0.2156079 3092271
0.061250634 0.092945419 0.21559556 3092271
0.063774787 0.092940092 0.21558319 3092271
0.066298641 0.092934772 0.21557085 3092271
0.068822213 0.092929445 0.21555851 3092271
0.071151406 0.092924528 0.21554708 3092271
0.073674403 0.092919193 0.21553469 3092271
0.07619714 0.092913873 0.21552233 3092271
0.078719564 0.092908539 0.21551003 3092271
0.081241719 0.092903227 0.21549766 3092271
0.083763577 0.092897892 0.21548532 3092271
0.086285137 0.092892565 0.21547294 3092271
0.088806406 0.092887245 0.21546057 3092271
0.091327406 0.092881918 0.21544826 3092271
0.093654215 0.092877008 0.21543688 3092271
0.096174635 0.092871703 0.21542454 3092271
0.098694779 0.092866369 0.21541215 3092271
0.10121465 0.092861049 0.21539982 3092271
0.10339504 0.092807859 0.21538909 3157807
