# .PCD v0.7 - Point Cloud Data file format
VERSION 0.7
FIELDS x y z rgb
SIZE 4 4 4 4
TYPE F F F U
COUNT 1 1 1 1
WIDTH 1120
HEIGHT 1
VIEWPOINT 0 0 0 1 0 0 0
POINTS 1120
DATA ascii
-0.14636222 0.011895162 0.57343239 2697287
-0.14548223 0.011907797 0.57404149 4013386
-0.14460109 0.01192052 0.57465482 4539720
-0.14371809 0.011933272 0.57526952 4408136
-0.14283553 0.011946244 0.57589489 3684426
-0.14195378 0.011959476 0.57653278 2762827
-0.14108267 0.011973807 0.5772236 3552590
-0.14022814 0.011989767 0.57799298 4013390
-0.1393754 0.012006121 0.57878137 3289678
-0.13854538 0.012024693 0.57967669 3092301
-0.13772038 0.012043987 0.58060682 3816014
-0.13691778 0.012065552 0.58164638 3881808
-0.13612504 0.012088325 0.58274418 3026256
-0.13534755 0.012112816 0.58392483 2237009
-0.13456863 0.012137563 0.58511782 2171218
-0.1338055 0.012164135 0.58639884 2237266
-0.13305941 0.012192694 0.58777559 2368337
-0.13230981 0.012221389 0.58915883 2631760
-0.13156481 0.012250974 0.59058505 3750481
-0.13090973 0.012289485 0.59244156 4737358
-0.13025053 0.012328239 0.59430981 4210767
-0.12962703 0.012371045 0.59637332 3881806
-0.12908408 0.012422318 0.59884506 3947851
-0.12860906 0.012481048 0.60167629 3684423
-0.12821727 0.012548924 0.6049484 3618881
-0.12810937 0.012645989 0.6096276 2368319
-0.19044606 0.01326226 0.58818942 2697279
-0.1881251 0.013174026 0.5842762 2434115
-0.18631177 0.013120547 0.58190435 2500170
-0.18465465 0.013077524 0.57999629 3157834
-0.18308944 0.013040558 0.5783568 3552840
-0.18161564 0.013009716 0.57698894 3092040
-0.18024801 0.012986167 0.57594454 2499657
-0.17895216 0.012967547 0.57511872 2170696
-0.17768274 0.012950637 0.57436877 2104904
-0.17642827 0.012934624 0.57365859 1973319
-0.17520308 0.012920582 0.57303578 1907270
-0.17399955 0.012907978 0.5724768 1710149
-0.17280701 0.012896045 0.57194757 1644613
-0.17163065 0.012885184 0.57146585 1644357
-0.17047305 0.012875608 0.57104117 1578821
-0.16934711 0.012868322 0.57071799 1578306
-0.16822401 0.012861162 0.57040048 1643843
-0.16710281 0.012854062 0.57008559 1578050
-0.16602182 0.012849986 0.5699048 1512511
-0.16494137 0.012845902 0.56972367 1446974
-0.16385587 0.012841369 0.56952262 1381437
-0.16280222 0.012839292 0.56943053 1446972
-0.16175592 0.01283777 0.56936306 1513022
-0.16074529 0.012839081 0.56942117 1578817
-0.15974417 0.012841171 0.56951386 1512768
-0.15876092 0.012844735 0.56967193 1512768
-0.15777871 0.012848429 0.56983578 1446973
-0.15679705 0.012852217 0.57000375 1381436
-0.15581621 0.012856124 0.57017702 1381180
-0.15484406 0.012860802 0.5703845 1381438
-0.15387614 0.012865898 0.57061052 1446975
-0.15290062 0.012870423 0.57081121 1446974
-0.1519482 0.012876965 0.57110137 1513022
-0.15101781 0.012885479 0.57147896 1512768
-0.15008286 0.012893717 0.57184428 1578562
-0.14915799 0.01290294 0.57225335 1579074
-0.14826125 0.012914742 0.57277679 1841989
-0.147366 0.012926842 0.57331342 2565446
-0.14647521 0.012939506 0.57387507 3816009
-0.14559485 0.012953279 0.5744859 4408392
-0.14471506 0.012967299 0.57510769 4539976
-0.1438366 0.012981642 0.57574385 3947594
-0.1429562 0.012996017 0.57638139 2828874
-0.14207315 0.013010362 0.57701761 2565450
-0.14119208 0.013025098 0.57767117 3816013
-0.14033614 0.013042393 0.57843816 3684175
-0.13949102 0.013060956 0.57926148 2960719
-0.13865875 0.013081013 0.58015102 3421517
-0.13783102 0.013101809 0.58107328 3947854
-0.13701603 0.013124141 0.58206373 3487055
-0.13621531 0.013148196 0.5831306 2697552
-0.13543966 0.013175064 0.58432221 2237009
-0.13466124 0.013202082 0.58552051 2302802
-0.13389578 0.013230809 0.58679456 2368593
-0.13314609 0.013261563 0.58815849 2434130
-0.13239227 0.013292396 0.589526 2697809
-0.13163941 0.013323826 0.59091991 4013649
-0.13098717 0.013366038 0.59279203 4934479
-0.13033117 0.013408558 0.59467781 4539727
-0.12968084 0.013452369 0.59662086 3816014
-0.12914145 0.01350852 0.5991112 4211017
-0.12863962 0.01356958 0.60181928 3618631
-0.12823011 0.013641501 0.60500896 3881794
-0.12807867 0.013742345 0.60948151 2565695
-0.19108959 0.01437164 0.59017694 3092285
-0.18855225 0.014260254 0.58560282 2433858
-0.18665108 0.014195997 0.58296412 2960712
-0.18496044 0.014147116 0.58095676 3487049
-0.18337509 0.014105776 0.57925916 3750472
-0.18189308 0.014071957 0.57787037 3881800
-0.18048553 0.014043543 0.57670349 2894665
-0.17916705 0.014021769 0.57580936 2236745
-0.17789541 0.014003429 0.5750562 2170695
-0.17662871 0.013985265 0.5743103 2039111
-0.17539401 0.013969435 0.57366025 1973319
-0.17418563 0.013955526 0.57308906 1841478
-0.17298745 0.013942271 0.57254475 1644612
-0.17180477 0.013930117 0.57204562 1644613
-0.1706454 0.013919716 0.5716185 1578821
-0.16951825 0.013911831 0.57129472 1578564
-0.1683929 0.013904001 0.57097316 1578562
-0.1672705 0.013896318 0.57065767 1512770
-0.16619027 0.013892066 0.57048303 1446976
-0.16511463 0.013888147 0.5703221 1446975
-0.16402791 0.013883241 0.57012063 1446975
-0.16297506 0.013881156 0.57003504 1512765
-0.16192134 0.013878971 0.56994534 1578302
-0.16090508 0.013879991 0.56998718 1644353
-0.15990153 0.013882126 0.57007486 1644098
-0.15891059 0.013885392 0.57020897 1578305
-0.1579275 0.013889389 0.57037312 1512510
-0.1569449 0.013893483 0.57054126 1446714
-0.1559632 0.01389771 0.57071483 1446716
-0.15498169 0.013902012 0.5708915 1446973
-0.15401296 0.013907525 0.57111788 1446973
-0.15304281 0.013912982 0.57134199 1447229
-0.15208957 0.013920062 0.57163274 1512767
-0.151154 0.013928867 0.5719943 1513024
-0.15021816 0.013937768 0.5723598 1578816
-0.14929339 0.013947826 0.57277286 1775940
-0.14838898 0.013959939 0.57327026 2170948
-0.14749166 0.013972894 0.57380229 3421254
-0.14659271 0.013985876 0.5743354 4342343
-0.14571427 0.014001015 0.57495707 4473927
-0.14483714 0.014016497 0.57559288 4211015
-0.14395808 0.014032015 0.57623011 3092040
-0.14307706 0.014047566 0.57686871 2368074
-0.1421911 0.014062855 0.57749659 2499403
-0.14130883 0.01407874 0.5781489 4013645
-0.14044432 0.014096643 0.57888407 3618638
-0.13960676 0.014117538 0.57974213 3355726
-0.13877389 0.014139227 0.58063281 4145229
-0.13794063 0.014161205 0.58153534 3947598
-0.13712446 0.014185289 0.58252436 3092303
-0.13631381 0.014210321 0.5835523 2565711
-0.13552794 0.014238344 0.58470309 2302801
-0.1347487 0.01426751 0.58590078 2565713
-0.13397104 0.014297304 0.58712429 2565713
-0.13322045 0.014330487 0.58848697 2697553
-0.13246638 0.014363823 0.58985597 3026513
-0.13171762 0.014398282 0.59127104 4342353
-0.13104571 0.014441772 0.59305698 5000527
-0.13039786 0.01448865 0.59498203 4539984
-0.12974578 0.014535834 0.59691966 3684175
-0.12919886 0.014595688 0.59937757 4276554
-0.1286702 0.014658631 0.60196233 3355464
-0.1282649 0.014736819 0.60517317 4013379
-0.12805699 0.014839221 0.60937834 2631486
-0.19175899 0.01549028 0.59224439 3420987
-0.18898137 0.015351428 0.58693558 2302529
-0.1870064 0.015276579 0.5840739 3420998
-0.18526831 0.015220342 0.58192378 3750217
-0.18367612 0.01517552 0.58021009 3881800
-0.18217137 0.015137449 0.57875448 4013128
-0.18072368 0.015103708 0.57746446 3816007
-0.17939274 0.015079389 0.57653469 2697287
-0.17810856 0.015058741 0.57574522 2170951
-0.17684008 0.015039185 0.57499754 2105159
-0.17558536 0.015020576 0.57428604 2104903
-0.17437211 0.015005315 0.57370257 1973574
-0.17317246 0.014991049 0.57315713 1907524
-0.17197926 0.014977173 0.57262659 1907780
-0.17081812 0.014965938 0.57219708 1775940
-0.16968971 0.014957451 0.57187259 1578820
-0.16856259 0.014948975 0.57154852 1512771
-0.16743852 0.014940668 0.57123089 1513027
-0.16635904 0.014936261 0.57106239 1446977
-0.16528738 0.014932505 0.5709188 1381438
-0.16420034 0.014927302 0.5707199 1447230
-0.1631448 0.014924919 0.57062876 1513021
-0.16208711 0.014922306 0.57052886 1513020
-0.16106518 0.014922972 0.57055432 1644609
-0.1600592 0.014925134 0.57063699 1710145
-0.15906085 0.014928042 0.57074815 1644353
-0.15807655 0.014932313 0.57091147 1578558
-0.15709303 0.014936714 0.57107973 1447227
-0.15611044 0.014941263 0.57125366 1447228
-0.15512724 0.014945813 0.57142764 1446973
-0.15415004 0.014951007 0.57162619 1513021
-0.15318525 0.014957483 0.57187378 1513276
-0.1522312 0.014965101 0.57216507 1644605
-0.15129027 0.014974122 0.57250994 1841728
-0.1503544 0.014983771 0.5728789 1776447
-0.14942943 0.014994648 0.57329476 2039616
-0.14851879 0.015007125 0.57377177 3223876
-0.14762081 0.015021065 0.57430476 4145479
-0.1467213 0.015035044 0.57483923 4473926
-0.14583716 0.015050811 0.57544202 4408135
-0.14495943 0.015067468 0.57607889 3420998
-0.14407976 0.015084163 0.5767172 2499656
-0.14319813 0.015100894 0.57735687 2236491
-0.14230922 0.015117097 0.57797635 2368075
-0.1414258 0.015134127 0.57862747 3947597
-0.14055374 0.015152633 0.57933503 4013646
-0.13972265 0.015175868 0.58022338 4013391
-0.13888922 0.015199198 0.58111537 3881806
-0.13805392 0.015222676 0.58201301 3158094
-0.13723043 0.015247826 0.58297455 2697551
-0.13641794 0.015274595 0.58399802 2434383
-0.13561477 0.015302834 0.5850777 2631505
-0.13483521 0.015334201 0.58627695 3092304
-0.13405654 0.015366164 0.58749902 3618640
-0.13329488 0.015400603 0.58881575 3487057
-0.13254055 0.015436451 0.5901863 3289680
-0.13179593 0.015474016 0.59162253 4605777
-0.13110432 0.015518472 0.59332222 5000271
-0.13045636 0.015568866 0.595249 4408144
-0.12980418 0.015619591 0.59718835 3684431
-0.12925255 0.015683364 0.5996266 4276555
-0.12872465 0.015751116 0.60221702 3289417
-0.12829971 0.01583273 0.60533738 4013379
-0.12803531 0.015935725 0.60927522 2697534
-0.18942003 0.016448237 0.58829796 2434113
-0.18736306 0.016361281 0.58518785 3223621
-0.18558009 0.016297402 0.58290309 4144967
-0.18398386 0.016249288 0.58118218 4210761
-0.18245102 0.016206251 0.57964295 3552585
-0.18098207 0.016168427 0.5782901 3684167
-0.17962937 0.01614061 0.57729518 3223879
-0.17832255 0.016116615 0.576437 2368582
-0.17705195 0.016095633 0.57568645 2236999
-0.17578498 0.016074732 0.57493895 2434375
-0.174559 0.016057355 0.57431746 3026246
-0.17335786 0.01604207 0.57377076 3487301
-0.17215905 0.016026817 0.5732252 3355458
-0.17099118 0.01601428 0.57277679 3158083
-0.16986153 0.01600519 0.57245165 2302786
-0.16873316 0.015996112 0.57212692 1644611
-0.16760688 0.015987117 0.57180524 1447490
-0.16652817 0.015982579 0.57164294 1513024
-0.16545536 0.015978554 0.57149899 1447742
-0.16437311 0.015973562 0.57132047 1579068
-0.16331251 0.015970623 0.57121533 1776188
-0.16225927 0.015968373 0.57113481 1973564
-0.16122982 0.015968449 0.57113755 2170688
-0.16021717 0.0159702 0.57120019 2170433
-0.15921788 0.015973315 0.57131159 2170689
-0.15822589 0.015977208 0.57145083 2039357
-0.15724145 0.015981918 0.57161927 1974074
-0.15625797 0.015986789 0.5717935 1974075
-0.15527388 0.015991664 0.57196784 1841979
-0.1542892 0.01599654 0.57214224 2302782
-0.15332797 0.016003931 0.57240659 2961218
-0.15237351 0.01601213 0.5726999 3355972
-0.15142788 0.01602138 0.57303071 3224388
-0.15049198 0.016031792 0.57340312 2434621
-0.1495657 0.01604338 0.57381755 2829377
-0.14864883 0.016056145 0.57427412 4079430
-0.14775018 0.016071074 0.57480806 4342598
-0.14685024 0.01608607 0.57534444 4408389
-0.14596026 0.016102377 0.57592773 3882053
-0.14508192 0.016120214 0.57656568 2631238
-0.14420165 0.01613809 0.57720506 2236489
-0.14331941 0.016156007 0.57784587 2104907
-0.14242753 0.016173091 0.57845688 2038859
-0.14154296 0.016191259 0.57910675 3421005
-0.14066935 0.016210966 0.57981157 3816013
-0.13983873 0.016235957 0.5807054 3618639
-0.13900475 0.016260935 0.58159876 3026511
-0.13816898 0.016286077 0.58249801 2697551
-0.13733521 0.016311845 0.58341968 2500431
-0.1365222 0.016340496 0.5844444 2500431
-0.13570639 0.016369253 0.585473 3421519
-0.13492206 0.016402289 0.58665454 4342351
-0.13414393 0.016436609 0.58788204 4539983
-0.1333694 0.016471919 0.58914495 4079185
-0.13261484 0.01651028 0.59051704 3618383
-0.13187432 0.016551027 0.59197444 4868944
-0.13117371 0.016597491 0.59363627 4934735
-0.13051492 0.016650051 0.59551615 4013392
-0.12986264 0.016704323 0.59745729 3750223
-0.12929519 0.016770504 0.59982437 4211019
-0.1287771 0.016844263 0.60246247 3355210
-0.12833455 0.016929239 0.60550177 3882052
-0.12802763 0.01703372 0.60923868 2829118
-0.12831704 0.017220035 0.6159026 2170941
-0.18996471 0.017559763 0.58998966 2763072
-0.18772459 0.017450456 0.586317 3355203
-0.18592444 0.017381039 0.58398467 4144967
-0.18429306 0.0173267 0.58215892 4408138
-0.18273173 0.017278358 0.58053476 3223880
-0.18125987 0.017237971 0.57917774 3618378
-0.17986985 0.017204942 0.57806802 3486790
-0.17853719 0.017177047 0.57713079 2697542
-0.17726433 0.017154614 0.57637703 2763079
-0.17599556 0.01713231 0.57562768 3487047
-0.17474626 0.017111652 0.57493359 3881796
-0.17354375 0.017095355 0.574386 4013377
-0.17234617 0.017079351 0.57384831 4013632
-0.17116806 0.017065093 0.57336926 4013377
-0.17003636 0.01705532 0.57304084 3618882
-0.16890596 0.017045554 0.57271278 2500415
-0.16777682 0.017035801 0.57238507 1645121
-0.16669762 0.017031025 0.57222462 1710401
-0.16562369 0.017026734 0.57208043 1842238
-0.16454625 0.017022027 0.57192224 2434366
-0.16348055 0.01701848 0.57180309 3289409
-0.16243203 0.017016688 0.57174289 3618881
-0.16139524 0.017016111 0.57172352 3750721
-0.16037564 0.017017351 0.57176518 3750465
-0.15937522 0.017020654 0.57187617 3816257
-0.15837552 0.017024079 0.57199121 3816512
-0.15739012 0.017029095 0.57215977 3684672
-0.15640576 0.017034292 0.57233435 2960446
-0.1554208 0.017039489 0.57250899 2368313
-0.15443873 0.017045077 0.57269675 3158079
-0.15347289 0.017052542 0.57294756 3947843
-0.15251763 0.017061293 0.57324159 3816002
-0.15156578 0.017070549 0.57355255 3092286
-0.15062983 0.017081734 0.57392836 2894910
-0.14970222 0.017094025 0.57434136 3750724
-0.14877908 0.017107002 0.57477736 4276805
-0.14787978 0.017122922 0.57531226 4408389
-0.14697944 0.017138945 0.57585061 4145222
-0.14608358 0.017155722 0.57641429 3092037
-0.14520465 0.017174743 0.57705337 2368072
-0.14432375 0.017193805 0.57769382 2039370
-0.1434409 0.017212909 0.5783357 1973579
-0.14254606 0.017230842 0.57893825 1973323
-0.1416603 0.017250147 0.57958686 2499405
-0.14078525 0.017271051 0.58028924 2762829
-0.13995482 0.017297786 0.58118749 2697296
-0.13912047 0.017324436 0.58208293 2499663
-0.13828443 0.017351277 0.58298475 2500174
-0.13744603 0.017378233 0.58389044 2829647
-0.13662672 0.017408039 0.58489186 3816015
-0.13581042 0.017438691 0.58592176 4408141
-0.13500988 0.017471867 0.58703643 4210766
-0.13423145 0.017508449 0.58826554 4013391
-0.13344973 0.017545182 0.58949977 4408401
-0.13268918 0.017585313 0.59084809 3881806
-0.13195282 0.017629324 0.59232682 4934990
-0.13124348 0.017677695 0.593952 4737360
-0.13057353 0.017732207 0.59578359 3421265
-0.12992114 0.017790031 0.5977264 4210768
-0.12934032 0.017858706 0.60003382 4408140
-0.12881979 0.017936932 0.60266215 3552842
-0.12835254 0.018023973 0.60558665 3750468
-0.12804653 0.018135345 0.60932857 2894655
-0.12808977 0.018298538 0.61481172 2236734
-0.19061407 0.018687654 0.59200644 3092029
-0.18815234 0.01855023 0.58765298 3487042
-0.18627299 0.018468995 0.58507949 4013128
-0.18460333 0.01840774 0.583139 3815754
-0.18302126 0.018354569 0.58145458 3947592
-0.18153852 0.018310802 0.58006811 3816009
-0.18011861 0.018272903 0.5788675 3618630
-0.1787715 0.018241988 0.57788819 3421254
-0.17747724 0.018216139 0.57706928 3553351
-0.17620976 0.018192748 0.57632828 4079429
-0.17495805 0.018170716 0.57563037 4144962
-0.17375554 0.018153563 0.57508695 4078914
-0.17255631 0.018136548 0.57454795 3618371
-0.1713641 0.018120071 0.57402593 3355201
-0.17022905 0.018109474 0.57369024 3487042
-0.16909726 0.018099096 0.57336146 3158080
-0.16796674 0.018088726 0.57303298 2039872
-0.16687123 0.018082023 0.5728206 2171200
-0.16579236 0.018077049 0.57266307 3026240
-0.16471784 0.01807249 0.57251865 3618881
-0.16364895 0.018068496 0.57239211 3947841
-0.16260071 0.018066747 0.57233667 3684415
-0.161561 0.018065926 0.57231069 3486781
-0.16053805 0.018066984 0.57234418 3881792
-0.15953425 0.018070221 0.57244676 4079423
-0.15853126 0.018073596 0.57255369 4013885
-0.1575391 0.018078258 0.57270133 3421501
-0.15655547 0.018083965 0.57288218 2500152
-0.15557334 0.018089922 0.57307088 2763068
-0.15459053 0.018095881 0.57325965 3618371
-0.1536181 0.018103143 0.57348967 3749953
-0.15266202 0.018112443 0.57378429 3289407
-0.15170705 0.018122002 0.57408714 2631483
-0.15076792 0.018133599 0.57445449 3289665
-0.1498384 0.018146519 0.57486379 4145477
-0.14891092 0.018159868 0.57528669 4276803
-0.1480096 0.018176617 0.57581729 4342597
-0.14710885 0.018193673 0.5763576 3487043
-0.14620748 0.018210897 0.57690322 2499396
-0.14532755 0.018231055 0.57754183 2170696
-0.14444605 0.018251305 0.57818335 2039114
-0.14356259 0.018271603 0.57882631 1973068
-0.14266479 0.018290358 0.57942045 1973068
-0.14177784 0.018310793 0.58006781 2170446
-0.14090319 0.01833313 0.58077544 2236494
-0.14006986 0.018361216 0.58166522 2368080
-0.13923641 0.018389715 0.58256799 2433871
-0.13840008 0.018418262 0.58347231 2631758
-0.13756116 0.018446898 0.58437949 3619151
-0.13673143 0.01847722 0.58534008 4276814
-0.13591465 0.018509777 0.58637148 4013392
-0.1350975 0.018542795 0.58741742 3355471
-0.13431898 0.018581677 0.58864915 3816015
-0.13353702 0.018620702 0.58988541 4539730
-0.13276377 0.018661575 0.59118026 4342607
-0.1320314 0.018708903 0.59267956 4934734
-0.13131332 0.018759048 0.59426808 4539729
-0.13063647 0.018815951 0.59607077 3421265
-0.12998052 0.018876839 0.59799963 4408399
-0.12940201 0.018950086 0.60031998 4605773
-0.12886249 0.019030325 0.60286188 4013387
-0.128388 0.019121617 0.60575396 3947590
-0.12805855 0.019236265 0.60938585 2631745
-0.12800652 0.019394927 0.61441213 2236481
-0.19126415 0.019822896 0.59402543 3092284
-0.18858616 0.019655459 0.58900791 3223617
-0.1866269 0.019561458 0.58619106 3947591
-0.18491463 0.019492425 0.58412236 3355210
-0.18332334 0.019435426 0.58241427 3749961
-0.18181802 0.019386938 0.58096123 4144967
-0.18036805 0.019343821 0.57966918 4342343
-0.17901866 0.019311052 0.57868719 4210758
-0.17769577 0.019280773 0.57777983 4211013
-0.17643812 0.019257259 0.57707518 4276803
-0.17518353 0.0192338 0.57637227 4144708
-0.17396784 0.019214358 0.57578963 3749957
-0.17276695 0.019196328 0.57524931 3223618
-0.17156832 0.019178331 0.57471001 3750466
-0.17042218 0.019166021 0.57434112 3947329
-0.16928899 0.019155024 0.57401156 3223873
-0.16815709 0.019144038 0.57368237 2565951
-0.16705167 0.01913595 0.57344002 3026753
-0.16596791 0.019130258 0.57326943 3947841
-0.16488573 0.019124677 0.57310218 3947841
-0.16381769 0.019120676 0.57298231 3750464
-0.16276836 0.019118823 0.57292676 2894905
-0.16172808 0.019118015 0.57290256 2631992
-0.16070466 0.019119203 0.57293814 3881794
-0.1596954 0.019122103 0.57302505 4079168
-0.15869084 0.019125605 0.57313001 3947583
-0.15769184 0.019129828 0.57325655 2960700
-0.15670942 0.019136135 0.5734455 2105145
-0.15572634 0.019142441 0.57363451 2236476
-0.15474263 0.019148754 0.57382369 2367804
-0.15376359 0.019155733 0.57403284 2236475
-0.15280668 0.019165583 0.57432801 2170684
-0.15185004 0.019175602 0.57462823 2763071
-0.15090612 0.019187376 0.57498103 3750468
-0.14997429 0.019200861 0.57538515 4211012
-0.1490472 0.019215144 0.57581317 4276548
-0.14813966 0.019232167 0.57632327 3947843
-0.14723848 0.019250261 0.57686549 2894658
-0.14633647 0.019268502 0.57741213 2236486
-0.14545068 0.019289158 0.57803112 2039112
-0.14456856 0.019310601 0.57867372 2104905
-0.14368321 0.019331923 0.57931262 2499658
-0.1427837 0.019351637 0.57990342 3092044
-0.14189558 0.019373197 0.58054948 2828621
-0.14102136 0.019396989 0.58126247 2499661
-0.14018509 0.019426398 0.58214372 2565455
-0.13934791 0.019456124 0.58303452 2631247
-0.13851586 0.019487023 0.58396047 3355471
-0.13767646 0.019517355 0.58486938 4276557
-0.13683629 0.01954804 0.58578897 4539983
-0.13601908 0.019582512 0.58682197 3816271
-0.13519916 0.019617135 0.58785945 3289678
-0.13440615 0.019656235 0.58903122 4013391
-0.13362403 0.019697566 0.59026974 4605520
-0.13284369 0.019739825 0.5915361 4737359
-0.13211009 0.01978977 0.59303278 4934734
-0.13138324 0.01984155 0.59458447 4276560
-0.13070624 0.019901773 0.59638911 3552593
-0.1300423 0.019965 0.59828383 4539983
-0.12946375 0.020042505 0.60060638 4605517
-0.12890522 0.020124443 0.6030618 4342603
-0.12843965 0.020222412 0.60599762 3815751
-0.12807059 0.020337392 0.60944313 2368322
-0.1279234 0.020489894 0.61401314 1841727
-0.18903422 0.020767141 0.59040737 3092033
-0.18698414 0.020658305 0.58731318 4013380
-0.18522738 0.020580821 0.58511031 3486793
-0.18362643 0.020519858 0.58337718 3289418
-0.1820984 0.020466391 0.58185709 4013385
-0.18063717 0.020419853 0.58053404 4276551
-0.17926653 0.020383073 0.5794884 4473925
-0.17792647 0.020349361 0.57852995 4473924
-0.17666708 0.020324532 0.57782406 4276549
-0.1754106 0.020299742 0.57711929 3815750
-0.17418067 0.02027775 0.57649404 2959941
-0.1729781 0.020258697 0.57595235 2696772
-0.1717778 0.020239681 0.57541174 3552835
-0.17061576 0.020224968 0.57499349 3816257
-0.16948119 0.020213353 0.57466322 2960192
-0.16834788 0.020201745 0.57433325 3092032
-0.1672325 0.020192159 0.57406074 4013379
-0.16614752 0.020186147 0.57388979 4079423
-0.16506317 0.020180136 0.57371891 3815998
-0.16398901 0.020175304 0.57358152 2960446
-0.16293968 0.020173484 0.57352978 2565691
-0.16189608 0.020172356 0.57349771 3158335
-0.16087161 0.020173609 0.57353336 4013634
-0.15985687 0.020176111 0.57360446 4079425
-0.15885134 0.020179812 0.57370967 3683904
-0.15784782 0.02018382 0.57382363 2499387
-0.15686366 0.020190371 0.5740099 1841723
-0.15587968 0.020197034 0.57419932 1775932
-0.15489504 0.020203702 0.57438886 1710397
-0.15391445 0.020210989 0.57459605 1776189
-0.15295161 0.020220721 0.57487273 2171197
-0.1519933 0.020231191 0.5751704 3289923
-0.15104403 0.020243013 0.57550651 3947843
-0.15011045 0.020257119 0.57590753 4341828
-0.14918372 0.020272354 0.57634062 4210499
-0.14826995 0.020289572 0.57683015 3289920
-0.14736836 0.020308712 0.57737434 2368322
-0.14646564 0.020327972 0.57792187 2236742
-0.145574 0.020349056 0.57852125 2302790
-0.14469129 0.020371698 0.57916498 3223626
-0.14380296 0.020393873 0.57979542 4079178
-0.14290281 0.020414688 0.58038718 4342345
-0.14201351 0.020437367 0.58103198 4276813
-0.14113972 0.020462636 0.58175033 3092043
-0.1403005 0.02049333 0.582623 2762831
-0.13945812 0.020524025 0.58349562 2960718
-0.13862932 0.020557199 0.58443874 4079950
-0.13779108 0.020589473 0.5853563 4605772
-0.13694939 0.020621723 0.58627313 4671822
-0.1361237 0.020656904 0.58727336 4013646
-0.13530336 0.020693455 0.58831251 3750222
-0.13449344 0.02073219 0.58941376 4408142
-0.133711 0.020775812 0.5906539 4737102
-0.13293107 0.02082053 0.5919252 4868686
-0.13218886 0.020871924 0.59338635 4934479
-0.13145323 0.020925207 0.5949012 4210512
-0.13077608 0.020988755 0.59670782 3749969
-0.13010414 0.021054195 0.59856832 4737103
-0.12952554 0.021135967 0.60089308 4737101
-0.12894797 0.021219287 0.60326183 4539978
-0.12849133 0.021324093 0.60624146 3552584
-0.12808263 0.021438723 0.60950041 2039107
-0.12785618 0.021586109 0.61369056 1710141
-0.18948589 0.021884285 0.59181803 2631489
-0.18734276 0.021759357 0.58843958 4013635
-0.18557529 0.021676885 0.5862093 3750217
-0.18393557 0.021608476 0.58435929 3486794
-0.18237965 0.02154918 0.58275574 3881801
-0.18091136 0.02149961 0.58141524 4079175
-0.17951506 0.021458069 0.58029181 4473926
-0.17816937 0.021422124 0.57931978 4473925
-0.17689663 0.021394579 0.57857484 4079173
-0.17563824 0.021368451 0.57786828 3420999
-0.17439638 0.021344034 0.57720798 2368069
-0.17318977 0.021323666 0.57665718 2235973
-0.1719878 0.021303626 0.57611519 2499395
-0.17081322 0.021286752 0.57565892 2697281
-0.16967379 0.021274084 0.57531631 3091777
-0.16853911 0.021261856 0.57498562 3881796
-0.16741847 0.021251261 0.5746991 4210754
-0.16632752 0.021244325 0.57451153 3881792
-0.16524194 0.021237992 0.57434028 3289660
-0.16416168 0.021232268 0.57418549 2368314
-0.16311249 0.021230513 0.57413805 2697532
-0.16206223 0.021228598 0.57408625 3684673
-0.16103891 0.02123021 0.57412982 4079170
-0.16001868 0.021232253 0.57418507 4013379
-0.15901217 0.021236151 0.57429051 2960447
-0.15800746 0.021240346 0.57440394 1973307
-0.15701818 0.021246685 0.57457536 1775931
-0.15603329 0.021253705 0.57476521 1710395
-0.15504774 0.021260727 0.57495511 1710397
-0.15406583 0.021268347 0.57516116 1908029
-0.15309682 0.021277864 0.57541853 2763328
-0.15213726 0.021288831 0.57571512 3684675
-0.15118425 0.021300873 0.57604074 4079426
-0.15024684 0.021315295 0.5764308 4210498
-0.1493196 0.021331372 0.57686555 3947587
-0.14840046 0.021348838 0.57733786 2631486
-0.14749844 0.021369033 0.57788402 2236739
-0.14659508 0.021389317 0.57843256 2565701
-0.14569755 0.021410752 0.57901222 3553097
-0.14481421 0.021434596 0.57965702 4211017
-0.1439229 0.021457594 0.58027899 4276554
-0.14302213 0.021479513 0.58087176 3816007
-0.14213164 0.021503311 0.58151531 4473932
-0.14125827 0.021530071 0.58223897 3552588
-0.1404161 0.021562023 0.58310306 2894925
-0.13956955 0.021593779 0.58396184 3750478
-0.13874049 0.021628747 0.58490747 4474187
-0.1379042 0.021663113 0.58583683 4803148
-0.13706282 0.021697203 0.58675873 4671566
-0.13622861 0.021732967 0.58772594 4605519
-0.13540772 0.021771438 0.58876628 4539725
-0.13458402 0.02181006 0.58981073 4539725
-0.13379808 0.021855462 0.59103858 4605262
-0.13302119 0.021903088 0.59232652 4868430
-0.13227271 0.021956198 0.59376276 4868942
-0.13153091 0.022011295 0.59525275 4210769
-0.13084608 0.02207691 0.59702718 4079185
-0.13016902 0.022144936 0.59886682 4934734
-0.12958033 0.022229262 0.60114723 4868685
-0.12900257 0.022316899 0.60351723 4210508
-0.1285416 0.022426408 0.60647869 3157578
-0.12810561 0.022542188 0.60960972 1907525
-0.12785406 0.022692712 0.61368036 1578557
-0.19013563 0.023030512 0.59384733 2631232
-0.18775028 0.022870431 0.58971959 3618371
-0.18592452 0.022777077 0.58731246 3750216
-0.18424641 0.022700846 0.58534682 3881802
-0.18267842 0.022637384 0.58371043 3421256
-0.18118638 0.02258265 0.58229911 3881800
-0.17976427 0.022536047 0.58109742 4408133
-0.17841606 0.022498213 0.58012187 4408133
-0.17712678 0.022467408 0.57932758 3882053
-0.17586647 0.022439936 0.57861918 2894918
-0.17461377 0.022413112 0.57792753 2170951
-0.17340197 0.022391245 0.57736367 2039109
-0.17219833 0.022370175 0.57682037 2104900
-0.1710142 0.022351399 0.57633626 2631490
-0.16986685 0.02233723 0.57597089 3618627
-0.16873077 0.022324378 0.57563949 4144961
-0.16760497 0.022312736 0.57533932 4079168
-0.1665079 0.022304796 0.57513458 3552831
-0.1654211 0.02229814 0.57496297 2565692
-0.1643379 0.022291893 0.57480186 2302522
-0.16328564 0.022289786 0.57474756 3092797
-0.16223426 0.022287773 0.57469565 4013633
-0.16120656 0.02228901 0.57472754 4013377
-0.16018082 0.022290535 0.57476687 3684418
-0.15917331 0.022294631 0.57487249 2631487
-0.15816739 0.02229901 0.57498538 2104895
-0.15717304 0.022305084 0.57514203 1973820
-0.15618721 0.022312459 0.57533216 1842489
-0.15520075 0.02231984 0.57552248 1776443
-0.15421753 0.02232779 0.57572746 2368319
-0.1532423 0.022337016 0.57596534 3487300
-0.1522819 0.022348538 0.57626247 3947842
-0.15132724 0.02236107 0.57658559 4079424
-0.15038347 0.022375396 0.57695502 4079425
-0.14945552 0.02239229 0.57739061 3420992
-0.1485312 0.02240997 0.57784653 2565441
-0.14762878 0.022431228 0.57839465 2565443
-0.14672473 0.022452539 0.57894415 3749704
-0.1458213 0.022474252 0.57950401 4539465
-0.14493735 0.022499299 0.58014989 4276552
-0.14404303 0.022523092 0.5807634 3223622
-0.14314164 0.02254612 0.58135718 2762823
-0.14225058 0.022571124 0.58200192 4276300
-0.14137703 0.022599302 0.58272851 3552843
-0.1405319 0.022632478 0.58358395 3223884
-0.13968115 0.022665244 0.58442879 4408398
-0.13884835 0.022701442 0.5853622 4671564
-0.13801751 0.022738516 0.58631814 4605775
-0.1371756 0.022774329 0.58724159 4144719
-0.13633893 0.022811573 0.58820194 4144974
-0.13551369 0.022851327 0.58922702 4210766
-0.13468808 0.02289165 0.59026676 4144973
-0.1338865 0.022936732 0.59142917 4408142
-0.13311145 0.022987116 0.59272838 4868687
-0.1323572 0.023041941 0.59414202 4868941
-0.13161306 0.023099434 0.59562451 4276817
-0.13091661 0.023166316 0.59734905 4473937
-0.13023923 0.023237705 0.59918988 5000270
-0.12962975 0.023322506 0.60137647 4605518
-0.12905195 0.023414489 0.60374826 3683917
-0.12858088 0.023527566 0.606664 2631243
-0.12815322 0.023650594 0.60983628 1841733
-0.12785195 0.023799282 0.61367023 1512766
-0.12858924 0.024145579 0.6225996 2631482
-0.19078344 0.024183817 0.59587067 2828861
-0.18819688 0.023991104 0.59112239 3025987
-0.18627506 0.023881419 0.5884198 3552584
-0.18455827 0.023796912 0.58633763 3815754
-0.18298112 0.02372954 0.58467764 3421001
-0.18146224 0.023668988 0.58318567 3815753
-0.18001722 0.02361742 0.58191508 4342342
-0.17866345 0.023577288 0.58092624 4408134
-0.17735575 0.023542797 0.58007646 3947591
-0.17609531 0.023514209 0.57937205 2565701
-0.17483616 0.023485454 0.57866353 2302023
-0.1736149 0.023461472 0.57807267 2236486
-0.17240936 0.023439338 0.57752728 2499651
-0.17121567 0.023418555 0.57701522 3355203
-0.17006034 0.023402797 0.57662696 4078914
-0.16892284 0.023389315 0.57629478 4145216
-0.16779189 0.02337658 0.57598096 3947329
-0.16668867 0.023367571 0.57575899 3092030
-0.16560064 0.023360591 0.57558703 1974074
-0.16451506 0.023353875 0.57542151 2697790
-0.16345918 0.023351312 0.57535839 3816258
-0.16240665 0.023349199 0.57530636 4013633
-0.16137385 0.023349915 0.57532394 3816002
-0.16034678 0.023351472 0.57536232 3026240
-0.15933478 0.02335526 0.57545567 2565439
-0.15832767 0.02335982 0.57556802 2828866
-0.15732819 0.023365572 0.57570976 2829376
-0.15634145 0.023373306 0.57590032 2105659
-0.15535404 0.023381043 0.57609093 2105404
-0.1543695 0.023389319 0.57629484 2829119
-0.15338902 0.023398325 0.57651675 3816259
-0.15242684 0.023410266 0.57681096 4013633
-0.15147048 0.023423271 0.57713139 4079681
-0.15052037 0.023437427 0.5774802 3750465
-0.14959165 0.023455137 0.57791656 2828862
-0.1486627 0.023473058 0.57835811 2565439
-0.14775932 0.0234953 0.57890612 3289669
-0.14685461 0.023517642 0.57945663 4145222
-0.14594816 0.023540026 0.58000815 4408390
-0.1450607 0.023565818 0.58064365 3487045
-0.14416339 0.023590373 0.58124864 2433862
-0.14326136 0.023614509 0.58184338 2499911
-0.14237012 0.023640797 0.58249104 4276555
-0.14149599 0.023670333 0.58321881 3618635
-0.1406444 0.023704113 0.58405113 3947598
-0.13979293 0.023738423 0.5848965 4539980
-0.13895638 0.023775809 0.58581764 4737358
-0.13812917 0.023815375 0.58679253 4144976
-0.13728859 0.023853229 0.58772522 3223630
-0.13645223 0.023892414 0.5886907 3421262
-0.13562198 0.023933291 0.5896979 3881807
-0.13479511 0.023975415 0.59073579 3684685
-0.1339772 0.024019817 0.59182984 4210765
-0.13320182 0.024072619 0.59313083 4934478
-0.1324418 0.024129072 0.59452182 4869195
-0.13170034 0.024189858 0.59601951 4539984
-0.13098724 0.024256898 0.59767133 4868688
-0.13030954 0.024331655 0.59951329 4737104
-0.12967919 0.024416585 0.60160589 4342351
-0.12911054 0.02451466 0.60402238 2894670
-0.12862018 0.024629395 0.60684937 2302539
-0.12820114 0.024759876 0.61006433 1710150
-0.12784985 0.024905814 0.6136601 1512767
-0.12805346 0.025163343 0.62000543 2105147
-0.19196552 0.025415154 0.59956264 3158074
-0.18864565 0.025117125 0.59253192 2368067
-0.18662693 0.024989931 0.5895313 3355207
-0.18487489 0.024897192 0.58734351 3223626
-0.18328482 0.024825322 0.58564806 3092042
-0.18174307 0.024759201 0.58408821 3487048
-0.18029113 0.024704617 0.58280051 4276551
-0.17891151 0.024659356 0.58173281 4473927
-0.17758895 0.024621477 0.58083922 3816006
-0.17632473 0.024591282 0.58012688 2565446
-0.17506365 0.02456117 0.57941651 2433862
-0.17383164 0.024534797 0.57879436 2631237
-0.17262091 0.024511125 0.57823592 3289412
-0.17141759 0.024488227 0.57769573 3947585
-0.17025919 0.024471506 0.57730126 4210750
-0.16911538 0.024456685 0.57695162 4144961
-0.16797926 0.024442801 0.5766241 3487040
-0.16687305 0.024433127 0.57639587 2499901
-0.16578057 0.024425352 0.57621247 2237246
-0.1646926 0.024418145 0.57604247 3158591
-0.16363229 0.024414975 0.57596767 4145217
-0.16257943 0.024412885 0.57591838 3947841
-0.16153935 0.024412699 0.57591397 3618625
-0.16051406 0.024414761 0.5759626 2697277
-0.15949658 0.024418043 0.57604003 2894912
-0.15848826 0.02442278 0.57615179 3618627
-0.15748613 0.024428541 0.57628769 2829117
-0.15649597 0.024436248 0.57646954 2039354
-0.15550765 0.024444347 0.57666057 2434365
-0.15452179 0.024452943 0.57686335 3487043
-0.1535404 0.02446237 0.57708573 4013378
-0.15257204 0.024474012 0.57736039 4079424
-0.15161401 0.024487486 0.57767826 4013889
-0.15065898 0.024501633 0.57801199 3421759
-0.14972928 0.024520125 0.57844824 2500154
-0.14879887 0.024538761 0.57888788 2894910
-0.14789097 0.024561398 0.57942188 4013637
-0.14698471 0.024584632 0.57997 4276805
-0.1460776 0.024608053 0.58052254 4079429
-0.14518425 0.024634151 0.58113819 3026500
-0.14428392 0.024659434 0.58173466 2236999
-0.14338128 0.024684688 0.58233041 2697800
-0.14248987 0.024712265 0.58298093 4210762
-0.14161514 0.024743164 0.5837099 3487048
-0.14075689 0.024777431 0.58451825 4474190
-0.13990489 0.02481332 0.58536494 4737099
-0.13906458 0.024851844 0.58627373 4605519
-0.1382369 0.024893235 0.58725017 3618383
-0.13740174 0.024933908 0.58820969 3026509
-0.1365657 0.024975048 0.58918023 3816014
-0.13573216 0.025017299 0.59017694 3750222
-0.13490312 0.025061052 0.59120911 3487053
-0.13408434 0.025107428 0.59230316 4276555
-0.13329232 0.025159596 0.59353381 5000525
-0.1325265 0.025217593 0.59490204 5000524
-0.13178885 0.025281943 0.59642011 5000271
-0.13106476 0.025349973 0.59802496 4342352
-0.13037992 0.02542679 0.59983712 4210514
-0.12973908 0.025513543 0.60188371 3421009
-0.12917195 0.025616379 0.60430968 2631247
-0.12866966 0.025733931 0.60708284 1973580
-0.12824909 0.02586999 0.61029255 1841735
-0.12785901 0.026014602 0.61370409 1513023
-0.12786952 0.026243964 0.61911488 2170684
-0.18909654 0.02624853 0.59394819 2039106
-0.18697906 0.026102491 0.59064364 2894406
-0.18522348 0.026005588 0.58845097 2960458
-0.18358953 0.025924748 0.5866217 2697290
-0.18203063 0.025853626 0.58501238 2763081
-0.18056585 0.025795123 0.58368856 4079175
-0.17916024 0.025744433 0.58254158 4539718
-0.17782843 0.025703816 0.58162248 4079430
-0.1765538 0.025671028 0.58088058 3223622
-0.17529175 0.025639687 0.58017141 2763078
-0.17404893 0.025610805 0.57951784 3420998
-0.172833 0.025585549 0.57894635 4144964
-0.17162658 0.025561407 0.57840008 4145216
-0.1704601 0.025542952 0.57798249 4079422
-0.16930833 0.025526488 0.57760996 4013376
-0.16816933 0.025511757 0.57727659 3355456
-0.16705951 0.025501296 0.5770399 2368316
-0.16596089 0.025492426 0.57683921 2960958
-0.16487104 0.025484798 0.57666659 3816513
-0.16380343 0.025480533 0.57657009 4079679
-0.16275257 0.025478838 0.57653171 3815999
-0.16170518 0.025477665 0.57650518 3092285
-0.16068171 0.02548027 0.57656413 3026239
-0.1596587 0.025482986 0.57662559 3487044
-0.15864918 0.025487902 0.57673681 3289409
-0.15764607 0.02549392 0.576873 2433850
-0.15665081 0.025501296 0.5770399 1973817
-0.15566157 0.025509756 0.57723135 2763325
-0.15467438 0.025518667 0.57743299 3750210
-0.15369208 0.025528515 0.57765579 4013376
-0.15271753 0.025539791 0.57791096 4079168
-0.15175782 0.025553722 0.57822621 3947840
-0.15080284 0.025568647 0.57856393 3092540
-0.14986728 0.025587097 0.5789814 2500157
-0.14893614 0.025606563 0.57942188 3224127
-0.1480242 0.025629632 0.5799439 4211014
-0.14711639 0.025653748 0.58048958 4276549
-0.14620726 0.025677977 0.58103782 3816259
-0.14530613 0.02570397 0.581626 2697538
-0.14440468 0.025730288 0.58222151 2434119
-0.14350392 0.025757113 0.58282852 3092039
-0.14261043 0.025785649 0.58347422 4013386
-0.14173499 0.025817897 0.5842039 3881546
-0.14086954 0.025852464 0.58498609 4605770
-0.14001703 0.025889942 0.58583415 4802892
-0.13917294 0.025929559 0.5867306 4408399
-0.13834479 0.025972778 0.58770853 3223631
-0.13751391 0.026016144 0.5886898 3289677
-0.13667934 0.026059486 0.58967054 4013390
-0.1358453 0.026103606 0.59066892 3618638
-0.13501129 0.026148431 0.59168321 3355214
-0.13419305 0.02619705 0.59278333 4210762
-0.13339271 0.026249969 0.59398079 4868939
-0.13261132 0.02630751 0.59528279 5000268
-0.1318775 0.026375499 0.59682125 4737103
-0.13115236 0.026446363 0.59842473 3750224
-0.13045035 0.026523102 0.60016119 3223634
-0.12980942 0.026613647 0.60221004 2828626
-0.1292334 0.026719144 0.60459721 2368336
-0.12872638 0.026840819 0.60735047 2105165
-0.12828816 0.026979055 0.61047846 2039112
-0.12786266 0.027122382 0.61372161 1446974
-0.12773187 0.027331276 0.61844844 1776190
-0.18965293 0.027400281 0.59569579 2368064
-0.18735935 0.027223153 0.59184492 2368068
-0.18557338 0.027118172 0.58956259 2762826
-0.18389526 0.027027832 0.58759856 2565451
-0.18233293 0.026953565 0.58598393 2499657
-0.18084142 0.026888957 0.58457935 3618122
-0.17940968 0.026832532 0.58335263 4342341
-0.17806897 0.026789138 0.5824092 4408134
-0.17678255 0.02675344 0.58163315 4144966
-0.17552043 0.026721021 0.58092833 3816262
-0.17426676 0.026689503 0.58024311 4079174
-0.17304716 0.026662854 0.57966375 4144707
-0.17183749 0.026637424 0.57911086 4210753
-0.17066149 0.026616929 0.57866532 4210751
-0.16950175 0.026598737 0.57826978 4079425
-0.16836134 0.02658337 0.5779357 3552576
-0.16724637 0.026571855 0.57768536 2828862
-0.16614161 0.026561825 0.57746732 3684673
-0.16505052 0.026553869 0.57729435 4145472
-0.16397624 0.026548535 0.57717836 4079679
-0.16292608 0.026547061 0.57714635 3684669
-0.16187134 0.026544819 0.57709759 3026489
-0.16084819 0.026547758 0.57716149 3552833
-0.15982117 0.026550097 0.57721233 3618372
-0.15881044 0.026555188 0.57732302 2565438
-0.15780634 0.026561463 0.57745945 2104893
-0.15680596 0.026568452 0.57761139 2170938
-0.15581578 0.026577275 0.57780319 2960701
-0.15482727 0.026586499 0.57800376 3882049
-0.15384404 0.026596768 0.57822698 4013631
-0.15286328 0.026607603 0.57846254 4079424
-0.1519019 0.026621982 0.57877517 3750464
-0.15094694 0.026637698 0.57911682 2828859
-0.15000556 0.026656041 0.57951564 2697021
-0.14907366 0.026676338 0.57995689 3684419
-0.14815769 0.026699796 0.58046687 4210758
-0.14724918 0.026724938 0.5810135 4079685
-0.14633894 0.026750129 0.58156115 3289924
-0.14542989 0.0267759 0.58212143 2368836
-0.14453077 0.02680389 0.58272994 2499911
-0.14362977 0.026831938 0.58333969 3618890
-0.14273146 0.026860902 0.58396941 3750216
-0.14185543 0.026894523 0.58470035 4144714
-0.14098196 0.026929136 0.58545285 4671306
-0.14012936 0.026968293 0.58630413 4737356
-0.13928147 0.027008954 0.58718812 4210767
-0.13845286 0.027054008 0.58816761 3224142
-0.13762021 0.027098959 0.58914489 4013389
-0.13679229 0.027145552 0.59015781 4144974
-0.13595864 0.027191728 0.59116173 3289678
-0.13512127 0.027237883 0.59216517 3092046
-0.13430193 0.027288439 0.59326428 4013388
-0.13350114 0.027343607 0.59446365 4671564
-0.13270178 0.027399965 0.59568888 4934221
-0.13196626 0.027470529 0.59722298 4078928
-0.13124008 0.027544215 0.59882498 2960464
-0.13052016 0.02762045 0.60048234 2763089
-0.12987708 0.027714357 0.60252392 2499922
-0.12927963 0.027819665 0.6048134 2368337
-0.12877956 0.027947903 0.60760134 2697037
-0.12831931 0.028087061 0.6106267 2302280
-0.12786369 0.028229645 0.61372656 1644607
-0.12766266 0.028431421 0.61811328 1710397
-0.19029975 0.028571917 0.59772742 2894653
-0.18780676 0.028358284 0.5932582 2368068
-0.18592297 0.028234718 0.59067321 2433609
-0.184202 0.028134599 0.5885787 2697035
-0.18263581 0.028057097 0.58695734 2565706
-0.18111542 0.027985765 0.58546507 2499658
-0.17966586 0.027924605 0.5841856 3486792
-0.17831683 0.027878443 0.58321989 4079174
-0.17701188 0.027838664 0.58238769 4276550
-0.17574964 0.027805168 0.58168697 3947334
-0.17448598 0.027771041 0.58097303 3552582
-0.17326377 0.027743142 0.58038938 3486788
-0.17204891 0.027716087 0.57982337 4013378
-0.17086335 0.027693447 0.57934976 4276288
-0.16970202 0.027674483 0.57895303 4210752
-0.16855375 0.027657429 0.57859623 4276290
-0.16743366 0.027644809 0.57833225 4145218
-0.16632441 0.027633835 0.57810265 4145217
-0.16523039 0.02762527 0.57792348 4145216
-0.16415374 0.027619518 0.57780313 4145215
-0.16309956 0.027617497 0.57776088 4144961
-0.16204306 0.027615055 0.57770979 3881793
-0.16101366 0.027617229 0.57775527 3552834
-0.15998586 0.027619708 0.57780713 2762815
-0.15897201 0.027624642 0.57791036 2170686
-0.15796693 0.027631178 0.5780471 1973311
-0.15696141 0.027637724 0.57818401 2236731
-0.15597031 0.027646909 0.57837617 3223872
-0.15498047 0.027656445 0.57857567 3947586
-0.15399632 0.027667135 0.57879931 4013632
-0.15301144 0.027677838 0.57902318 4079424
-0.15204625 0.027692271 0.57932514 3487294
-0.15109135 0.027708797 0.57967085 2631739
-0.15014409 0.027726956 0.58005077 2960446
-0.14921142 0.027748089 0.58049285 3881796
-0.14829139 0.027771888 0.58099073 4013381
-0.1473822 0.027798066 0.58153838 3223618
-0.14647128 0.027824292 0.58208704 2434115
-0.1455574 0.027850334 0.58263183 2236996
-0.14465752 0.027879449 0.58324093 3092040
-0.14375587 0.027908647 0.58385175 4013386
-0.1428536 0.027938159 0.58446914 3157829
-0.14197607 0.027972981 0.58519763 4408139
-0.14109446 0.028007515 0.5859201 4737098
-0.14024146 0.028048294 0.58677316 4737356
-0.13939017 0.028090034 0.58764637 4145231
-0.13855889 0.028136481 0.58861804 3816270
-0.13772479 0.028183063 0.58959258 4276813
-0.13690218 0.028232748 0.59063196 3816015
-0.13606955 0.028281122 0.59164399 2894926
-0.13523294 0.02832943 0.59265459 2763087
-0.13440946 0.028381279 0.59373927 3684174
-0.13360646 0.028438322 0.59493262 4210766
-0.13280983 0.028497657 0.59617388 3749966
-0.13205513 0.028567031 0.5976252 2959953
-0.13132794 0.028643541 0.59922582 2697296
-0.13061063 0.028723501 0.60089856 2565713
-0.12994222 0.028815638 0.60282612 2434130
-0.12934475 0.028925197 0.6051181 2894673
-0.12883486 0.029056372 0.60786229 3289422
-0.12834579 0.029194534 0.61075264 2631240
-0.12786534 0.029337071 0.61373454 1513281
-0.12761775 0.029535986 0.61789584 1842238
-0.19107147 0.029770341 0.60015136 2631227
-0.18825629 0.029498851 0.59467828 2894659
-0.18627331 0.029355394 0.59178627 2762568
-0.18451969 0.029246638 0.58959383 2762827
-0.18293643 0.02916378 0.58792347 2828874
-0.18138981 0.02908583 0.58635205 2499913
-0.17993654 0.029022021 0.58506572 2565449
-0.17856538 0.028970785 0.58403283 2894409
-0.17724873 0.028927835 0.58316696 3092039
-0.17597766 0.028891854 0.58244163 3025991
-0.17471394 0.028856656 0.58173203 2631238
-0.17348097 0.028826142 0.58111691 2499653
-0.17226087 0.02879741 0.58053768 3420997
-0.17106567 0.028772514 0.58003581 4144705
-0.16990283 0.028752787 0.57963812 4079168
-0.16874664 0.028733948 0.57925832 4013377
-0.16762137 0.028720172 0.57898062 3552575
-0.16651079 0.028708756 0.57875049 3750208
-0.16541065 0.028699009 0.57855397 4144960
-0.16433161 0.028692821 0.57842922 4013632
-0.16327068 0.028689737 0.57836705 3882048
-0.16221617 0.028687747 0.57832694 3355456
-0.16117948 0.028688906 0.57835031 2631487
-0.16015346 0.02869199 0.57841247 2170688
-0.15913391 0.02869628 0.57849896 2039105
-0.15812786 0.028703077 0.57863599 1973567
-0.15712132 0.028709874 0.57877302 2368317
-0.15612514 0.028718671 0.57895035 3421248
-0.15513393 0.028728507 0.57914865 3882047
-0.15414889 0.028739624 0.57937276 4013631
-0.15316309 0.028750751 0.57959706 4079424
-0.15219086 0.028764596 0.57987618 3421503
-0.15123604 0.028781947 0.58022594 2368570
-0.15028287 0.028799854 0.58058697 2894912
-0.14934945 0.028821822 0.58102983 3553092
-0.14842537 0.028845919 0.58151561 2960449
-0.14751546 0.028873133 0.58206421 2236480
-0.14660384 0.0289004 0.58261389 2104900
-0.14568898 0.028927414 0.58315849 2499653
-0.1447845 0.028956899 0.58375287 3618632
-0.14388217 0.028987251 0.58436477 3487303
-0.14297935 0.029017951 0.58498365 3026246
-0.14209694 0.029053276 0.5856958 4473930
-0.14120975 0.029088151 0.58639884 4671561
-0.14035363 0.029130001 0.58724248 4803147
-0.13949464 0.029171884 0.58808684 4671566
-0.1386641 0.029220402 0.58906496 4737358
-0.13782951 0.029268816 0.59004092 4342607
-0.13700661 0.02932048 0.59108245 3355215
-0.13618028 0.029372217 0.59212542 2762831
-0.13534318 0.02942243 0.59313768 2499663
-0.13451904 0.029476285 0.59422338 2894415
-0.13371158 0.029534684 0.59540069 2762830
-0.13291804 0.029597137 0.59665966 2696783
-0.13215303 0.029667009 0.59806824 2630992
-0.13141777 0.029744763 0.59963572 2565456
-0.13070148 0.029828139 0.60131651 2565457
-0.13001226 0.029919138 0.60315102 2565713
-0.12942211 0.030034667 0.60548002 3749714
-0.12887296 0.030161757 0.60804206 3881551
-0.12837707 0.030303597 0.61090147 2960201
-0.12788257 0.030448232 0.61381721 1710402
-0.12757149 0.03063944 0.61767185 2039103
-0.18870802 0.030644892 0.59610522 2763074
-0.18662497 0.030480297 0.59290349 3157574
-0.18486676 0.03036716 0.59070277 2960202
-0.18323804 0.03027411 0.58889276 3157578
-0.18167685 0.030191196 0.58727992 3092041
-0.18020894 0.030122902 0.58595145 2697289
-0.17881468 0.030066185 0.58484817 2697287
-0.1774887 0.030020343 0.58395648 2828871
-0.17620626 0.029981364 0.58319825 2499654
-0.17494249 0.029945113 0.58249307 2236230
-0.17369868 0.029911857 0.58184618 2104645
-0.17247628 0.029881908 0.5812636 2170435
-0.17126848 0.029854139 0.58072346 2631235
-0.17010415 0.029833648 0.58032489 2960449
-0.16894138 0.029813183 0.57992679 2828608
-0.1678095 0.029797949 0.57963043 2499391
-0.16669761 0.029786093 0.57939982 2565694
-0.1655913 0.029775092 0.57918584 3552578
-0.16450989 0.029768456 0.57905674 3618369
-0.16344216 0.029764228 0.57897449 3026493
-0.16238964 0.029762732 0.5789454 2236732
-0.16134565 0.02976279 0.57894653 1841982
-0.16031915 0.029766096 0.57901084 1841986
-0.15929615 0.0297701 0.57908875 1907522
-0.1582891 0.029777158 0.57922602 1907776
-0.15728158 0.029784217 0.57936335 2499902
-0.15628028 0.029792562 0.57952565 3486784
-0.15528774 0.029802699 0.57972282 3816256
-0.15430179 0.029814243 0.57994741 3882304
-0.15331505 0.029825795 0.58017212 3948097
-0.15233578 0.029838966 0.5804283 3355455
-0.151381 0.029857151 0.58078206 2302267
-0.15042698 0.029875742 0.58114368 2565696
-0.14948773 0.029897546 0.58156782 2829124
-0.14855957 0.029921891 0.58204138 2171200
-0.14764896 0.029950146 0.582591 2039105
-0.14673664 0.029978454 0.58314162 2302531
-0.1458208 0.030006444 0.58368611 3421254
-0.14491168 0.030036237 0.58426565 3750214
-0.1440087 0.030067749 0.58487862 2894917
-0.14310534 0.030099649 0.58549911 3289417
-0.14221799 0.03013541 0.58619475 4473930
-0.14132951 0.030171469 0.58689618 4671305
-0.14046599 0.03021344 0.58771259 4868938
-0.13960418 0.030256419 0.5885486 5000012
-0.13876945 0.030305972 0.58951253 4539726
-0.13793442 0.030356221 0.59048998 3618383
-0.13711119 0.030409876 0.59153366 2894671
-0.1362901 0.030464847 0.59260297 2631503
-0.13545358 0.030517211 0.59362155 2433872
-0.13463295 0.030574014 0.5947265 2302031
-0.13381685 0.030632773 0.59586948 2302030
-0.13302644 0.030698409 0.59714621 2302287
-0.13225879 0.030770412 0.5985468 2433872
-0.13150884 0.030847754 0.60005128 2565456
-0.13079338 0.030934535 0.60173935 2631248
-0.13012327 0.031033585 0.60366607 2763088
-0.12949139 0.0311435 0.60580415 4276306
-0.12891108 0.031267792 0.60822189 4342096
-0.1284041 0.031412158 0.6110301 3354955
-0.12789981 0.031559695 0.61389995 1841732
-0.12756887 0.031752951 0.61765921 2039102
-0.12825385 0.03220471 0.62644684 2697274
-0.18917522 0.031798683 0.59758103 2236481
-0.18697797 0.031609457 0.59402496 3026245
-0.18521513 0.031491909 0.59181595 3354954
-0.18354066 0.031388111 0.58986533 3223370
-0.18196943 0.031300865 0.58822572 3157833
-0.18048219 0.031227123 0.58683991 4013640
-0.17906651 0.031164968 0.58567184 3750215
-0.17772934 0.031115819 0.58474821 3750216
-0.17643546 0.031073708 0.58395684 3684166
-0.17517053 0.031036219 0.58325231 3552838
-0.17391695 0.031000303 0.58257735 3355462
-0.17269279 0.030969223 0.58199328 2960451
-0.17147379 0.030938696 0.58141959 2499650
