# .PCD v0.7 - Point Cloud Data file format
VERSION 0.7
FIELDS x y z rgb
SIZE 4 4 4 4
TYPE F F F U
COUNT 1 1 1 1
WIDTH 1118
HEIGHT 1
VIEWPOINT 0 0 0 1 0 0 0
POINTS 1118
DATA ascii
0.12340263 -0.014717745 0.41842374 25963
0.12413518 -0.014715113 0.41834894 24677
0.12487174 -0.014712984 0.41828841 21592
0.12561469 -0.014711631 0.41824993 10796
0.1263575 -0.014710276 0.41821143 4627
0.12710018 -0.014708923 0.41817296 1542
0.12784272 -0.01470757 0.41813448 0
0.12858512 -0.014706217 0.41809601 0
0.1293274 -0.014704864 0.41805756 0
0.13011415 -0.014708556 0.41816252 0
0.13090159 -0.014712282 0.41826844 0
0.13168941 -0.01471601 0.41837442 0
0.13247764 -0.014719738 0.41848043 0
0.13326629 -0.01472347 0.41858652 0
0.13406137 -0.014727868 0.41871157 0
0.13486053 -0.014732663 0.41884786 0
0.13566022 -0.01473746 0.41898426 0
0.13646041 -0.01474226 0.41912073 65793
0.13726114 -0.014747065 0.41925731 65793
0.13806239 -0.014751872 0.41939399 131586
0.13886416 -0.014756681 0.41953072 328965
0.13966529 -0.014761372 0.41966408 789516
0.14045642 -0.014764962 0.41976613 1381653
0.14124794 -0.014768552 0.4198682 1776411
0.14203985 -0.014772144 0.41997033 1644322
0.14283215 -0.014775739 0.42007253 1643320
0.14361772 -0.014778604 0.42015398 3485529
0.14440154 -0.01478126 0.42022949 8224128
0.14518565 -0.014783918 0.42030504 8618883
0.14598306 -0.014787894 0.42041808 8750469
0.14682427 -0.014796244 0.42065549 8816262
0.14766644 -0.014804604 0.42089316 8816262
0.14850956 -0.014812973 0.4211311 8816262
0.14935362 -0.014821352 0.42136931 8816262
0.15019865 -0.014829741 0.42160779 8816262
0.15104464 -0.014838139 0.42184654 8816262
0.15189159 -0.014846546 0.42208555 8816262
0.15273948 -0.014854962 0.42232484 8816262
0.15360829 -0.014865319 0.42261928 8684676
0.15451148 -0.014878883 0.4230049 8618883
0.15541629 -0.014892471 0.42339119 8618883
0.15632278 -0.014906083 0.42377821 8684675
0.1573143 -0.014927634 0.42439088 8421502
0.1583128 -0.014949634 0.42501634 8289915
0.15931423 -0.0149717 0.42564365 8355451
0.16031864 -0.014993831 0.42627284 8355707
0.16132602 -0.015016026 0.42690384 8355708
0.16239734 -0.015043935 0.4276973 8882054
0.16385816 -0.015107491 0.42950419 9079434
0.16533138 -0.015171586 0.43132639 9079434
-0.037047569 -0.013571882 0.40670359 7172217
-0.036125969 -0.013501625 0.40459824 3094092
-0.035360381 -0.013487981 0.40418938 3290945
-0.034609567 -0.013479516 0.4039357 4079939
-0.033864141 -0.01347283 0.40373534 4342852
-0.033117637 -0.013465412 0.40351307 4276800
-0.03237883 -0.013460862 0.40337673 3486777
-0.031643599 -0.013457622 0.40327963 2762547
-0.03091095 -0.013455355 0.40321168 2038835
-0.030181613 -0.013454454 0.40318468 1381429
-0.029450452 -0.013452675 0.4031314 1052471
-0.028722666 -0.013452388 0.40312278 986421
-0.027996343 -0.013452788 0.40313476 854835
-0.027268723 -0.01345257 0.40312824 789046
-0.0265416 -0.013452592 0.40312889 723259
-0.025805868 -0.013448128 0.40299514 854336
-0.025070626 -0.013443669 0.40286151 723263
-0.024335871 -0.013439212 0.40272793 526139
-0.023606235 -0.013437396 0.40267351 460600
-0.022871064 -0.013432212 0.40251818 329267
-0.022136459 -0.013427033 0.40236297 394805
-0.02140242 -0.013421857 0.40220785 460599
-0.020668948 -0.013416685 0.40205288 394806
-0.019939927 -0.013414133 0.40197641 460343
-0.019212373 -0.013412411 0.40192482 526136
-0.018485006 -0.01341069 0.40187323 658231
-0.017757824 -0.013408968 0.40182164 724023
-0.01703083 -0.013407248 0.40177009 986937
-0.016307576 -0.013408451 0.40180615 1710397
-0.015583665 -0.0134092 0.40182859 2236991
-0.014859746 -0.013410015 0.401853 2170940
-0.014135739 -0.013410829 0.4018774 1709623
-0.013411643 -0.013411643 0.40190178 1842237
-0.012688311 -0.013413358 0.40195316 1776702
-0.011966215 -0.013416667 0.40205231 987452
-0.011243764 -0.013419976 0.40215153 657979
-0.010520956 -0.01342329 0.4022508 591420
-0.009797792 -0.013426604 0.4023501 657212
-0.0090755206 -0.013431771 0.40250495 657469
-0.0083543016 -0.01343953 0.40273744 526141
-0.0076333126 -0.01344917 0.40302634 460861
-0.0069112875 -0.013458823 0.4033156 395326
-0.0061882255 -0.013468491 0.40360531 460863
-0.005464124 -0.013478172 0.40389544 591936
-0.0047389804 -0.013487868 0.40418598 592193
-0.0040127933 -0.013497577 0.40447694 921156
-0.0032867454 -0.013512176 0.40491441 1184072
-0.00255963 -0.013529472 0.40543273 1644623
-0.0018307043 -0.013547212 0.40596431 2105425
-0.0010998646 -0.013564997 0.4064973 2828883
-0.00036710352 -0.01358283 0.40703169 3618643
0.00036759808 -0.013601129 0.40758005 4277074
0.0011045208 -0.013622423 0.40821815 4408911
0.0018443954 -0.013648526 0.40900037 4342863
0.0025872176 -0.013675293 0.4098025 4474446
0.0033329595 -0.013702167 0.41060781 4474190
0.0040825135 -0.013732092 0.41150454 4276815
0.0048362357 -0.01376467 0.41248083 4342096
0.0055936486 -0.013797667 0.41346961 4605264
0.0063547422 -0.01383091 0.41446579 4737360
0.0071239942 -0.013873041 0.41572833 4671310
0.0079130875 -0.013942108 0.41779801 4737101
0.0087127555 -0.014016172 0.42001748 4144973
0.0095584234 -0.014146467 0.42392197 3421256
0.099412687 -0.014424586 0.43225628 8421504
0.099886887 -0.014380603 0.43093824 8421504
0.10036928 -0.014338469 0.42967564 8421504
0.10094514 -0.014310231 0.42882946 8421504
0.10151875 -0.014282105 0.42798662 8421504
0.10200215 -0.01424181 0.42677909 8355711
0.10231493 -0.014178474 0.42488113 8421504
0.10300135 -0.014167472 0.42455143 8421504
0.1036867 -0.014156486 0.42422223 8421504
0.10437098 -0.014145518 0.42389354 8421504
0.1050542 -0.014134565 0.42356533 8421504
0.10573637 -0.014123631 0.42323765 8421504
0.10641748 -0.014112713 0.42291048 8421504
0.1071102 -0.014103479 0.42263377 8421504
0.10780338 -0.014094436 0.42236277 7039851
0.10849568 -0.014085405 0.42209214 4210752
0.10918709 -0.014076384 0.42182183 1776411
0.1098776 -0.014067374 0.42155185 855309
0.11056724 -0.014058379 0.42128226 65793
0.111256 -0.014049393 0.421013 0
0.11194388 -0.014040418 0.42074406 0
0.11263087 -0.014031456 0.42047548 0
0.113317 -0.014022505 0.42020726 0
0.11400225 -0.014013565 0.41993937 0
0.11468662 -0.014004637 0.4196718 0
0.11537012 -0.01399572 0.4194046 0
0.11606099 -0.013987807 0.41916746 0
0.1168004 -0.013985808 0.41910759 0
0.11754055 -0.013983925 0.41905114 0
0.11827777 -0.013981718 0.41898501 0
0.11901223 -0.013979214 0.41891 0
0.11974643 -0.013976713 0.41883501 0
0.12048036 -0.013974211 0.41876006 0
0.12121403 -0.013971711 0.41868514 7712
0.12194744 -0.013969212 0.41861024 20051
0.12268059 -0.013966714 0.41853538 25963
0.12341347 -0.013964215 0.41846052 23392
0.1241461 -0.013961719 0.41838571 16451
0.12488917 -0.013960421 0.41834682 6426
0.12563223 -0.013959137 0.41830832 3085
0.12637514 -0.013957852 0.41826981 0
0.12711793 -0.013956567 0.41823134 0
0.12786056 -0.013955283 0.41819283 0
0.12860307 -0.013953999 0.41815436 0
0.12934543 -0.013952714 0.41811588 0
0.13011388 -0.013954244 0.41816169 0
0.13090132 -0.013957778 0.41826761 0
0.13168916 -0.013961314 0.41837358 0
0.13247737 -0.013964851 0.41847959 0
0.13326918 -0.013968724 0.41859561 0
0.13406785 -0.01397327 0.41873184 0
0.13486706 -0.013977818 0.41886815 65793
0.13566679 -0.013982371 0.41900459 65793
0.13646704 -0.013986927 0.41914108 131586
0.1372678 -0.013991484 0.41927767 328965
0.13806494 -0.013995623 0.41940171 855309
0.13885519 -0.013999024 0.41950363 1447446
0.13964583 -0.014002427 0.41960558 1776411
0.14043683 -0.01400583 0.41970757 1578531
0.14122824 -0.014009236 0.41980964 1182771
0.14202003 -0.014012643 0.41991174 852801
0.14280881 -0.014015718 0.42000389 852293
0.14359222 -0.014018238 0.42007938 1642060
0.14437591 -0.014020757 0.42015487 5525611
0.14515987 -0.014023277 0.42023039 8618883
0.14594412 -0.014025798 0.42030594 8618883
0.14675467 -0.014030809 0.42045608 8750469
0.14759639 -0.014038731 0.42069352 8816262
0.14843906 -0.014046663 0.42093122 8816262
0.14928271 -0.014054606 0.42116922 8816262
0.15012729 -0.014062556 0.42140746 8816262
0.15097284 -0.014070516 0.421646 8816262
0.15181933 -0.014078484 0.42188478 8816262
0.15268013 -0.014087693 0.42216071 8684676
0.15358149 -0.014100533 0.42254549 8618883
0.15448447 -0.014113395 0.42293096 8618883
0.15538912 -0.014126283 0.42331713 8618883
0.1562954 -0.014139192 0.423704 8553090
0.15720335 -0.014152126 0.42409158 8355710
0.15813778 -0.014167308 0.42454651 8158072
0.15913787 -0.014188196 0.42517245 8355451
0.1601409 -0.014209145 0.42580023 8355452
0.16114691 -0.014230156 0.42642987 8420988
0.16215588 -0.014251229 0.42706135 8552575
0.16340578 -0.014293177 0.42831838 9013641
0.164873 -0.01435365 0.43013054 9079434
0.16635267 -0.014414634 0.43195805 7763574
-0.037651453 -0.012794184 0.40530708 4474965
-0.036868062 -0.012776061 0.404733 2238263
-0.036108162 -0.012765512 0.4043988 4211783
-0.035355698 -0.012757211 0.40413585 4408647
-0.034606025 -0.012749587 0.40389434 4408389
-0.033864755 -0.012744801 0.4037427 3684156
-0.033125065 -0.012740409 0.40360358 2894647
-0.032386534 -0.012736278 0.40347269 2236213
-0.03165105 -0.012733182 0.40337461 1512500
-0.030916192 -0.012730196 0.40328005 1052214
-0.030186025 -0.012729047 0.40324363 920886
-0.029454591 -0.012727292 0.40318805 855094
-0.028721677 -0.012724794 0.40310889 723509
-0.02799378 -0.012724445 0.40309787 789306
-0.027258741 -0.012720746 0.40298066 789310
-0.026520809 -0.012715457 0.40281311 723262
-0.025785783 -0.012711301 0.40268147 591677
-0.025051236 -0.012707149 0.40254992 591674
-0.024314813 -0.012701767 0.40237945 394548
-0.023579454 -0.012696629 0.40221667 394548
-0.022845173 -0.012691762 0.40206251 394550
-0.02211141 -0.012686875 0.40190765 394807
-0.02137821 -0.012681989 0.40175289 395062
-0.020645577 -0.012677109 0.40159827 460598
-0.019917671 -0.012674882 0.40152773 723765
-0.019190932 -0.012673257 0.40147626 1382202
-0.018464379 -0.012671633 0.4014248 1382458
-0.017738011 -0.012670008 0.40137333 855604
-0.017011169 -0.012667892 0.4013063 789561
-0.01628569 -0.012666647 0.40126687 921401
-0.015561935 -0.01266669 0.40126824 1776700
-0.014839022 -0.012667459 0.40129256 2434368
-0.014116023 -0.012668226 0.40131688 1710651
-0.013392937 -0.012668994 0.40134123 986680
-0.012669832 -0.012669832 0.40136778 592186
-0.011948786 -0.012672954 0.40146667 460858
-0.011227382 -0.012676077 0.40156558 460604
-0.010505623 -0.012679201 0.40166456 723261
-0.0097849695 -0.01268422 0.40182355 788799
-0.0090653719 -0.012691521 0.40205485 460607
-0.0083449455 -0.012698831 0.40228641 395326
-0.007624194 -0.012706989 0.40254489 460862
-0.0069030258 -0.012716101 0.40283349 723264
-0.0061808228 -0.012725224 0.40312251 854338
-0.0054575829 -0.01273436 0.40341195 920389
-0.0047333036 -0.012743509 0.40370178 1052487
-0.0040090661 -0.012756119 0.40410125 1315914
-0.0032836688 -0.012769823 0.40453538 1775948
-0.0025570351 -0.012785176 0.40502173 2236496
-0.001828652 -0.012800564 0.40550923 2763089
-0.0010985135 -0.01281599 0.40599793 3684433
-0.00036661301 -0.012831455 0.40648782 4276815
0.00036705588 -0.012846956 0.40697888 4473933
0.0011028432 -0.012866504 0.40759814 4474187
0.0018416645 -0.012891651 0.40839478 4605772
0.0025833796 -0.012916897 0.40919456 4671565
0.0033280053 -0.012942242 0.40999746 4605517
0.0040758741 -0.01296869 0.4108353 4210510
0.004828352 -0.012999409 0.41180843 3486800
0.0055844029 -0.013030273 0.41278619 3486803
0.0063441861 -0.01306156 0.41377732 3749970
0.0071099792 -0.01309733 0.41491047 4078929
0.0078889132 -0.013148188 0.41652161 4539728
0.0086852973 -0.013216757 0.41869381 4605516
0.0095074456 -0.013310424 0.42166108 3947848
0.010390736 -0.013469473 0.42669961 2834250
0.099545337 -0.013663085 0.43283305 8421504
0.10008723 -0.013630557 0.43180257 8421504
0.10066649 -0.01360358 0.43094799 8421504
0.10124347 -0.013576712 0.43009681 8421504
0.10181818 -0.013549948 0.42924896 8421504
0.10238017 -0.01352191 0.42836073 8421504
0.10234053 -0.013415425 0.42498741 8421504
0.10302709 -0.013405012 0.42465752 8421504
0.10371258 -0.013394615 0.42432815 8421504
0.10439701 -0.013384233 0.42399928 8421504
0.1050804 -0.013373869 0.42367095 8421504
0.10576271 -0.01336352 0.42334309 8421504
0.10645712 -0.013354836 0.42306802 8421504
0.10715143 -0.013346264 0.42279646 8421504
0.10784486 -0.013337703 0.42252526 8224125
0.10853738 -0.013329152 0.42225438 5987163
0.10922903 -0.013320614 0.42198387 3026478
0.10991979 -0.013312086 0.42171371 1447446
0.11060967 -0.013303569 0.42144391 460551
0.11129867 -0.013295062 0.42117444 65793
0.11198677 -0.013286566 0.42090529 0
0.11267401 -0.013278081 0.4206365 0
0.11336037 -0.013269608 0.42036808 0
0.11404584 -0.013261145 0.42009997 0
0.11473045 -0.013252693 0.41983223 0
0.11541419 -0.013244252 0.41956481 0
0.11609706 -0.01323582 0.41929772 0
0.11681835 -0.013231853 0.41917202 0
0.11755341 -0.013229483 0.41909695 0
0.11828819 -0.013227114 0.4190219 0
0.11902271 -0.013224746 0.41894689 0
0.11975697 -0.013222379 0.41887191 2056
0.12049097 -0.013220012 0.41879693 12339
0.12122471 -0.013217648 0.418722 23650
0.12195817 -0.013215282 0.41864708 25449
0.12269138 -0.013212918 0.41857219 21850
0.12342433 -0.013210555 0.41849732 12338
0.12416332 -0.013208864 0.41844377 4884
0.12490661 -0.013207648 0.41840523 1543
0.12564977 -0.013206433 0.41836673 0
0.1263928 -0.013205217 0.41832823 0
0.12713566 -0.013204002 0.41828972 0
0.12787841 -0.013202786 0.41825122 0
0.12862103 -0.013201571 0.41821274 0
0.12936349 -0.013200356 0.41817424 0
0.13011363 -0.013199934 0.41816086 0
0.13090105 -0.013203277 0.41826677 0
0.13168889 -0.013206623 0.41837275 0
0.13247743 -0.01321 0.41847974 0
0.13327563 -0.013214298 0.41861591 65793
0.13407436 -0.013218598 0.41875213 65793
0.1348736 -0.013222902 0.41888848 131586
0.13567336 -0.013227208 0.41902488 394758
0.13646658 -0.013230831 0.41913965 855309
0.13725594 -0.013234043 0.41924143 1447446
0.1380457 -0.013237258 0.41934326 1776411
0.13883583 -0.013240474 0.41944516 1578532
0.13962635 -0.013243692 0.41954708 1182516
0.14041726 -0.013246912 0.41964906 787265
0.14120854 -0.013250131 0.41975108 1049156
0.14200021 -0.013253354 0.41985315 2033726
0.14278346 -0.013255759 0.41992936 2624315
0.14356671 -0.013258141 0.42000479 1772100
0.14435026 -0.013260523 0.42008027 2498132
0.14513409 -0.013262906 0.42015576 7631740
0.14591819 -0.01326529 0.42023128 8618883
0.14670257 -0.013267674 0.42030683 8684676
0.14752643 -0.013273586 0.42049408 8816262
0.14836867 -0.013281083 0.42073157 8816262
0.14921185 -0.013288587 0.42096931 8816262
0.15005599 -0.013296101 0.42120734 8816262
0.15090109 -0.013303624 0.42144564 8816262
0.15175398 -0.013311752 0.42170316 8684676
0.1526535 -0.013323871 0.42208707 8618883
0.15355466 -0.013336012 0.4224717 8618883
0.15445746 -0.013348176 0.42285705 8618883
0.15536192 -0.013360362 0.42324308 8618883
0.15626803 -0.01337257 0.42362982 8618883
0.15717581 -0.013384801 0.42401728 8553089
0.15808523 -0.013397054 0.42440543 8158330
0.15899633 -0.013409329 0.42479429 8158072
0.15996355 -0.013426198 0.42532867 8355451
0.16096817 -0.013446028 0.4259569 8355452
0.16197577 -0.01346592 0.42658702 8355452
0.16304311 -0.013490564 0.42736775 8816261
0.16441715 -0.013540235 0.42894128 9079434
0.16589078 -0.013597606 0.43075871 9079434
-0.039216746 -0.012094884 0.40637544 4869725
-0.038387235 -0.012064559 0.40535656 2633532
-0.037622053 -0.012053667 0.40499058 3883079
-0.036858693 -0.012042939 0.40463012 4606283
-0.036107946 -0.012035982 0.40439638 4474184
-0.035361078 -0.012030058 0.40419734 4144707
-0.034617826 -0.01202514 0.40403211 3355195
-0.033875763 -0.012020432 0.40387392 2433843
-0.033134654 -0.012015864 0.40372044 1709877
-0.032394305 -0.012011372 0.40356949 1052214
-0.03165856 -0.012008419 0.40347031 854837
-0.030923177 -0.012005468 0.40337116 789300
-0.030186974 -0.01200205 0.4032563 789303
-0.029451298 -0.011998677 0.40314296 657721
-0.028717276 -0.011995824 0.40304711 591931
-0.027977683 -0.011990435 0.40286607 657726
-0.027236927 -0.011984248 0.40265816 657468
-0.026497731 -0.011978426 0.40246257 526136
-0.025760043 -0.011972979 0.40227953 460597
-0.025023026 -0.011967535 0.40209663 460341
-0.024286682 -0.011962096 0.40191391 460343
-0.02355252 -0.011957434 0.40175724 394551
-0.022819187 -0.011952908 0.40160519 395063
-0.02208641 -0.011948386 0.40145326 395318
-0.021354057 -0.011943794 0.40129897 723766
-0.020622259 -0.011939202 0.40114468 1381176
-0.019895466 -0.011937279 0.40108007 1644855
-0.019169539 -0.011935751 0.40102872 1974330
-0.01844313 -0.011933791 0.40096286 1974329
-0.017716601 -0.011931589 0.40088889 1118518
-0.016990339 -0.011929387 0.40081492 921145
-0.016265847 -0.011928287 0.40077797 921144
-0.015542494 -0.01192796 0.40076697 1119033
-0.01481918 -0.011927632 0.40075594 1316153
-0.014096363 -0.011927691 0.40075794 789560
-0.013374282 -0.011928414 0.4007822 526393
-0.012652114 -0.011929137 0.40080649 460351
-0.011931405 -0.011931405 0.40088272 526144
-0.011211047 -0.011934341 0.40098134 789312
-0.01049202 -0.011939196 0.40114447 657728
-0.009774046 -0.011946056 0.40137497 460608
-0.0090552466 -0.011952925 0.40160576 526401
-0.0083356192 -0.011959801 0.40183681 592192
-0.0076151639 -0.011966686 0.40206811 789057
-0.006894784 -0.011975151 0.40235254 920387
-0.0061734379 -0.011983733 0.40264085 986182
-0.0054510576 -0.011992326 0.4029296 1183817
-0.0047288858 -0.012004095 0.40332502 1381450
-0.0040055932 -0.01201678 0.40375119 1710158
-0.00328077 -0.01202949 0.40417826 1973070
-0.0025546409 -0.012043307 0.40464249 2367567
-0.0018269379 -0.01205779 0.4051291 3289169
-0.0010974825 -0.012072307 0.40561688 4079181
-0.00036626848 -0.01208686 0.40610582 4408137
0.00036671053 -0.012101447 0.40659595 4473676
0.0011015336 -0.01211687 0.40711415 4473935
0.0018391346 -0.012138288 0.40783378 4671310
0.0025795528 -0.012160748 0.40858841 4605773
0.003323066 -0.012184575 0.40938896 4802895
0.0040694978 -0.012208494 0.41019261 4144975
0.0048204935 -0.012236638 0.41113821 3223888
0.0055752927 -0.012265643 0.41211277 2631506
0.0063336785 -0.012294788 0.41309199 2631763
0.0070960191 -0.012324665 0.41409582 3092049
0.0078714183 -0.012369372 0.41559795 3815762
0.0086587062 -0.012423362 0.41741192 4144720
0.0094626294 -0.012490671 0.41967347 4145227
0.010308378 -0.012599129 0.42331755 4079174
0.10038508 -0.012889912 0.43308756 8421504
0.10096548 -0.012864327 0.43222791 8421504
0.10154358 -0.012838842 0.43137166 8421504
0.10211939 -0.012813459 0.43051881 8421504
0.10269292 -0.012788176 0.42966929 8421504
0.10257937 -0.012678349 0.42597926 8355711
0.10305284 -0.012642169 0.42476365 8421504
0.10373849 -0.012632362 0.42443413 8421504
0.10442307 -0.012622569 0.42410508 8421504
0.10510659 -0.012612791 0.42377657 8421504
0.10580269 -0.012604653 0.42350313 8421504
0.10649814 -0.012596554 0.42323104 8421504
0.1071927 -0.012588466 0.42295927 8421504
0.10788636 -0.012580388 0.42268786 8421504
0.10857913 -0.01257232 0.42241678 7697781
0.10927101 -0.012564262 0.42214605 4868682
0.10996201 -0.012556216 0.42187569 1973790
0.11065213 -0.012548179 0.42160568 1052688
0.11134136 -0.012540153 0.421336 197379
0.1120297 -0.012532136 0.42106664 65793
0.11271718 -0.012524131 0.42079768 0
0.11340383 -0.012516142 0.42052925 0
0.11409 -0.012508207 0.42026263 0
0.11477531 -0.012500281 0.41999635 0
0.11545975 -0.012492366 0.41973042 0
0.11613964 -0.012484065 0.4194515 0
0.11683274 -0.012477283 0.41922364 0
0.11756376 -0.012474611 0.41913387 0
0.11829861 -0.012472378 0.41905883 0
0.1190332 -0.012470145 0.41898379 4884
0.11976752 -0.012467911 0.41890877 17223
0.12050158 -0.01246568 0.41883379 25963
0.12123537 -0.01246345 0.41875884 24163
0.1219689 -0.012461219 0.41868392 19022
0.12270218 -0.01245899 0.41860902 7712
0.12343714 -0.012456959 0.41854078 3342
0.12418067 -0.012455812 0.41850221 257
0.12492406 -0.012454664 0.41846368 0
0.12566732 -0.012453519 0.41842517 0
0.12641044 -0.012452371 0.41838664 0
0.12715343 -0.012451226 0.41834813 0
0.12789628 -0.012450079 0.41830963 0
0.12863898 -0.012448934 0.41827112 0
0.12938155 -0.012447787 0.41823262 0
0.13012399 -0.012446643 0.41819414 0
0.1309008 -0.012448779 0.41826594 0
0.13168862 -0.012451933 0.41837189 65793
0.13248384 -0.012455746 0.41850001 65793
0.13328208 -0.012459799 0.41863617 131586
0.13408086 -0.012463854 0.41877243 394758
0.1348702 -0.012466994 0.41887793 921102
0.1356587 -0.012470019 0.41897959 1513239
0.13644758 -0.012473047 0.4190813 1776412
0.13723682 -0.012476075 0.41918305 1578277
0.13802646 -0.012479105 0.41928485 1116981
0.13881648 -0.012482136 0.41938668 787266
0.13960688 -0.012485169 0.41948858 1049156
0.14039767 -0.012488203 0.41959053 2099517
0.14118886 -0.012491239 0.41969255 3412022
0.14197528 -0.012493826 0.41977945 4921645
0.14275813 -0.01249607 0.41985485 5774887
0.14354125 -0.012498314 0.41993025 3740212
0.14432465 -0.01250056 0.42000571 1969991
0.14510831 -0.012502805 0.42008117 4472419
0.14589228 -0.012505053 0.42015666 8618883
0.14667653 -0.012507301 0.42023221 8618883
0.14746106 -0.012509549 0.42030776 8684676
0.14829831 -0.012516226 0.42053208 8816262
0.14914106 -0.012523295 0.4207696 8816262
0.14998478 -0.012530373 0.42100742 8816262
0.15082982 -0.012537492 0.42124659 8684676
0.15172753 -0.012548894 0.42162967 8618883
0.15262687 -0.012560316 0.42201346 8618883
0.15352786 -0.01257176 0.42239797 8618883
0.15443048 -0.012583225 0.42278317 8618883
0.15533476 -0.01259471 0.42316908 8618883
0.15624069 -0.012606217 0.42355567 8618883
0.15714827 -0.012617745 0.42394298 8553090
0.15805751 -0.012629293 0.42433101 8421503
0.15896842 -0.012640862 0.42471972 8026743
0.159881 -0.012652453 0.42510918 8026486
0.16079526 -0.012664066 0.42549935 8158073
0.16179606 -0.012682351 0.42611372 8355452
0.16280524 -0.012701118 0.42674428 8487039
0.16396438 -0.012731351 0.42776006 9013641
0.16543145 -0.012785101 0.429566 9079434
-0.040943716 -0.011434731 0.40898177 7171962
-0.039930917 -0.011356499 0.40618366 2304315
-0.039147418 -0.011341776 0.40565705 3028030
-0.038379651 -0.011331135 0.40527648 4145992
-0.037616391 -0.011321438 0.40492964 4671818
-0.036862437 -0.011314213 0.40467125 4408389
-0.036118753 -0.011309912 0.40451741 3684415
-0.035375275 -0.011305501 0.40435961 2960440
-0.034630857 -0.011300595 0.40418419 2104885
-0.033888195 -0.011296065 0.40402213 1381175
-0.033145405 -0.011291292 0.40385142 1052473
-0.032402407 -0.011286233 0.40367046 789303
-0.031666476 -0.011283457 0.40357122 723511
-0.030922346 -0.011277562 0.40336034 723512
-0.030180342 -0.011272176 0.40316772 592443
-0.029445106 -0.011269115 0.40305823 592188
-0.028696278 -0.011260565 0.40275243 657467
-0.027952123 -0.011253453 0.40249804 591419
-0.027211865 -0.011247571 0.40228766 526137
-0.026470421 -0.011240864 0.40204778 394804
-0.025730249 -0.011234334 0.40181422 329268
-0.024994096 -0.011229232 0.40163174 460600
-0.024258686 -0.011224168 0.40145063 526391
-0.023525646 -0.011219923 0.40129882 460854
-0.022793161 -0.011215682 0.40114713 527158
-0.022061229 -0.011211445 0.40099555 1316154
-0.021329852 -0.01120721 0.4008441 1579064
-0.020598993 -0.01120296 0.40069211 1644854
-0.019872643 -0.011200944 0.40061998 1710133
-0.01914647 -0.011198879 0.40054613 2368319
-0.018420568 -0.011196815 0.40047231 1973820
-0.017694931 -0.011194753 0.40039852 1315641
-0.016969562 -0.011192689 0.40032473 855098
-0.016246052 -0.011191725 0.40029025 657977
-0.015523579 -0.011191417 0.40027925 789305
-0.014801146 -0.011191111 0.40026829 723002
-0.014078753 -0.011190804 0.40025729 525883
-0.0133564 -0.011190496 0.40024632 526652
-0.012634515 -0.01119057 0.40024894 395069
-0.011914075 -0.01119201 0.40030044 723774
-0.011196685 -0.011196685 0.40046766 789568
-0.010480328 -0.011203108 0.40069741 591935
-0.0097631468 -0.011209539 0.40092739 592191
-0.0090451427 -0.011215977 0.40115768 657727
-0.0083263135 -0.011222422 0.4013882 723775
-0.0076066572 -0.011228875 0.40161899 855105
-0.0068865614 -0.011235968 0.40187269 1052486
-0.0061660707 -0.011244011 0.40216035 1315402
-0.005445946 -0.011254955 0.40255177 1513035
-0.0047247973 -0.011266825 0.4029763 1644363
-0.0040021259 -0.011278719 0.40340173 1710158
-0.0032779274 -0.011290639 0.40382805 1841742
-0.0025522511 -0.011302826 0.40426397 2828879
-0.0018252267 -0.011316406 0.40474966 4079700
-0.0010964533 -0.011330018 0.40523651 4342862
-0.00036592461 -0.011343663 0.40572456 4474187
0.00036636583 -0.011357341 0.40621376 4408143
0.0011005157 -0.011371995 0.40673792 4473936
0.0018369779 -0.011389263 0.40735552 4539983
0.0025763833 -0.011409697 0.40808639 4211022
0.0033184467 -0.011430205 0.40881988 4408143
0.0040634554 -0.011451555 0.40958351 4276815
0.0048126611 -0.011476346 0.41047019 3487311
0.0055662123 -0.011503506 0.41144159 2368593
0.0063233385 -0.011530793 0.41241759 2302547
0.007084066 -0.011558213 0.4133983 2631506
0.0078559378 -0.01159686 0.41478059 2960721
0.008635385 -0.011638997 0.41628766 3223633
0.0094317989 -0.01169543 0.41830608 3881553
0.010252877 -0.011771822 0.42103836 4013384
0.011119849 -0.011886735 0.42514843 2966091
0.1006847 -0.012144848 0.43438023 6118749
0.10126624 -0.01212067 0.43351546 8421504
0.10184546 -0.012096587 0.43265411 8421504
0.10242238 -0.012072599 0.43179616 8421504
0.10299701 -0.012048707 0.43094161 8421504
0.10295882 -0.011954021 0.42755499 8421504
0.1030786 -0.011878946 0.42486984 8421503
0.1037644 -0.011869728 0.42454013 8421504
0.10444944 -0.011860559 0.42421219 8421504
0.10514692 -0.011852926 0.42393917 8421504
0.1058435 -0.011845302 0.42366648 8421504
0.1065392 -0.011837688 0.42339417 8421504
0.10723399 -0.011830084 0.4231222 8421504
0.10792789 -0.01182249 0.42285058 8421504
0.1086209 -0.011814904 0.42257929 8289918
0.10931302 -0.01180733 0.42230836 6513507
0.11000457 -0.011799799 0.422039 3815994
0.11069538 -0.011792291 0.42177048 1710618
0.11138531 -0.011784794 0.42150232 921102
0.11207435 -0.011777305 0.42123446 131586
0.11276253 -0.011769827 0.42096698 65793
0.11344983 -0.011762356 0.42069981 0
0.11413625 -0.011754896 0.42043298 0
0.11482159 -0.011747424 0.42016572 0
0.11549982 -0.011739326 0.41987607 0
0.11618701 -0.011732239 0.41962263 0
0.11688038 -0.011725863 0.41939458 0
0.11757412 -0.011719607 0.4191708 257
0.11830903 -0.011717508 0.41909572 9511
0.11904368 -0.011715409 0.41902068 21593
0.11977807 -0.011713312 0.41894567 25963
0.12051218 -0.011711215 0.41887066 22878
0.12124605 -0.011709119 0.4187957 14909
0.12197964 -0.011707024 0.41872075 6169
0.12271298 -0.01170493 0.41864586 1800
0.12345438 -0.011703627 0.41859925 0
0.12419801 -0.011702549 0.41856068 0
0.12494151 -0.011701471 0.41852215 0
0.12568487 -0.011700394 0.41848361 0
0.1264281 -0.011699316 0.41844508 0
0.12717117 -0.011698239 0.41840655 0
0.12791413 -0.011697163 0.41836804 0
0.12865694 -0.011696085 0.41832951 0
0.12939961 -0.011695009 0.418291 0
0.13014215 -0.011693933 0.41825253 0
0.13090053 -0.011694284 0.4182651 65793
0.1316925 -0.011697614 0.41838419 131586
0.13248861 -0.011701273 0.41851506 394758
0.13327584 -0.01170411 0.41861653 921102
0.13406345 -0.011706949 0.41871807 1513239
0.13485144 -0.011709789 0.41881964 1776412
0.13563982 -0.01171263 0.41892126 1512741
0.13642858 -0.011715473 0.41902295 1116726
0.13721772 -0.011718317 0.41912466 787010
0.13800724 -0.011721162 0.41922644 1114691
0.13879713 -0.011724009 0.41932824 2165053
0.13958742 -0.011726857 0.41943011 3477557
0.1403781 -0.011729706 0.41953203 4921644
0.14116769 -0.011732435 0.41962963 5972006
0.1419501 -0.011734542 0.41970497 6365732
0.1427328 -0.011736649 0.41978034 6693922
0.14351577 -0.011738757 0.41985574 5709352
0.14429902 -0.011740865 0.41993114 2559293
0.14508256 -0.011742975 0.4200066 2168399
0.14586638 -0.011745085 0.42008206 6578804
0.14665048 -0.011747196 0.42015758 8618883
0.14743486 -0.011749308 0.4202331 8618883
0.14822803 -0.011752095 0.42033279 8684676
0.14907035 -0.01175873 0.42057011 8816262
0.14991361 -0.011765372 0.42080766 8684676
0.15080357 -0.011775593 0.42117324 8618883
0.15170109 -0.011786301 0.4215562 8618883
0.15260026 -0.011797028 0.42193988 8618883
0.15350106 -0.011807774 0.42232424 8618883
0.15440351 -0.01181854 0.42270932 8618883
0.15530761 -0.011829326 0.42309508 8618883
0.15621334 -0.011840131 0.42348155 8618883
0.15712073 -0.011850956 0.42386872 8618883
0.15802979 -0.0118618 0.42425659 8553090
0.15894052 -0.011872666 0.42464522 8224123
0.15985292 -0.01188355 0.42503452 8026486
0.16076699 -0.011894455 0.42542455 8026486
0.16168274 -0.011905381 0.42581528 8026486
0.16262455 -0.011918111 0.42627063 8158072
0.16371754 -0.011941751 0.42711613 8947848
0.16497466 -0.011977083 0.42837986 9013641
0.16644873 -0.012027764 0.43019253 7763574
-0.041507449 -0.010652354 0.40727454 4804703
-0.040697329 -0.010632635 0.40652063 2765123
-0.03992163 -0.010621351 0.40608922 3751235
-0.039141834 -0.010608534 0.40559918 4606027
-0.038379904 -0.010600165 0.40527916 4539975
-0.037626971 -0.010594002 0.40504354 4013633
-0.036878157 -0.010588778 0.40484384 3026231
-0.036133949 -0.010584692 0.40468761 2368054
-0.0353886 -0.010580097 0.40451193 1709880
-0.034644071 -0.010575558 0.40433839 1117753
-0.033898447 -0.010570483 0.40414435 986168
-0.033154547 -0.010565734 0.40396279 854840
-0.032411315 -0.01056099 0.40378141 788793
-0.031662874 -0.01055429 0.40352526 723258
-0.030917646 -0.010548374 0.40329903 657465
-0.030172318 -0.010542136 0.40306053 657467
-0.029422473 -0.010533972 0.40274841 723258
-0.028674604 -0.010526121 0.40244824 657975
-0.027927494 -0.010518147 0.40214336 526134
-0.027185101 -0.010511572 0.40189201 460599
-0.026444165 -0.010505216 0.401649 329526
-0.025704125 -0.010498867 0.40140626 329269
-0.024965232 -0.010492634 0.40116793 526645
-0.02423103 -0.010488058 0.40099296 592436
-0.023498835 -0.010484096 0.40084147 789813
-0.022767195 -0.010480138 0.40069014 855346
-0.022036312 -0.01047628 0.40054265 1842745
-0.021305978 -0.01047243 0.40039545 2369596
-0.020576486 -0.010468739 0.40025434 2303292
-0.019849051 -0.010465863 0.4001444 1644343
-0.019123072 -0.010463567 0.40005663 1709883
-0.018398058 -0.010461641 0.39998296 1513276
-0.017673312 -0.010459716 0.39990935 789816
-0.016948834 -0.010457791 0.39983577 592443
-0.016226307 -0.010456953 0.39980373 526651
-0.015504712 -0.010456666 0.39979276 657468
-0.014783157 -0.01045638 0.39978179 591676
-0.014061643 -0.010456094 0.39977086 460606
-0.013340167 -0.010455807 0.39975989 395070
-0.01261885 -0.010455619 0.39975271 460862
-0.011899441 -0.010457085 0.39980876 526140
-0.011184649 -0.010463058 0.40003714 657469
-0.010468974 -0.010468974 0.40026331 657725
-0.0097524887 -0.010474895 0.40048972 723517
-0.0090351934 -0.010480824 0.40071639 789566
-0.008317085 -0.010486759 0.40094331 789822
-0.0075981701 -0.010492711 0.40117088 1052739
-0.0068784859 -0.010498742 0.40140143 1446985
-0.0061602616 -0.010508682 0.40178147 1644364
-0.0054412466 -0.010519743 0.40220439 1709900
-0.0047207158 -0.010530828 0.40262818 1906765
-0.0039986651 -0.010541935 0.40305287 1841484
-0.0032750897 -0.010553067 0.40347847 2039115
-0.0025499845 -0.010564221 0.40390494 3355216
-0.0018235189 -0.010576409 0.40437093 4276812
-0.0010954262 -0.01058912 0.40485689 4408394
-0.00036558139 -0.01060186 0.40534401 4539726
0.00036602563 -0.010614743 0.40583655 4276561
0.0010994996 -0.010628496 0.40636238 4342351
0.0018348768 -0.010642285 0.40688959 4473934
0.00257336 -0.010661063 0.4076075 3947599
0.0033145456 -0.010680202 0.40833929 3816271
0.0040583974 -0.010699412 0.40907371 4276560
0.00480555 -0.010720073 0.40986368 3618893
0.0055580102 -0.010745486 0.4108353 2763343
0.0063141217 -0.010771149 0.41181645 2170961
0.0070738527 -0.010796933 0.41280228 2368338
0.0078402609 -0.010827026 0.41395286 2565969
0.0086183744 -0.010866646 0.41546762 2697553
0.0094029484 -0.010907421 0.41702658 2960466
0.010211897 -0.010968333 0.41935548 3750224
0.011056139 -0.011056139 0.42271259 4013384
0.1015688 -0.011372568 0.4348107 7237230
0.10214914 -0.011349904 0.4339442 8421504
0.10272717 -0.011327331 0.43308112 8421504
0.10330291 -0.011304847 0.4322215 8421504
0.10334109 -0.011224313 0.42914242 8421504
0.10315444 -0.011120738 0.42518243 8355711
0.10379117 -0.011106804 0.42464966 8421504
0.10448979 -0.011099648 0.42437607 8421504
0.10518752 -0.011092502 0.42410284 8421504
0.10588447 -0.011085378 0.42383048 8421504
0.10658084 -0.011078295 0.42355967 8421504
0.10727631 -0.011071221 0.42328921 8421504
0.1079709 -0.011064156 0.42301908 8421504
0.1086646 -0.0110571 0.42274931 8421504
0.10935742 -0.011050053 0.4224799 8421504
0.11004936 -0.011043015 0.42221081 7171437
0.11074042 -0.011035986 0.42194209 4671303
0.11143059 -0.011028967 0.42167369 2039583
0.11211989 -0.011021955 0.42140561 1184274
0.11280831 -0.011014953 0.4211379 328965
0.11349586 -0.01100796 0.42087054 65793
0.11418016 -0.011000746 0.42059472 0
0.11485951 -0.010993155 0.42030448 0
0.11554006 -0.010985777 0.4200224 0
0.11623444 -0.0109798 0.4197939 0
0.11692806 -0.010973832 0.41956568 257
0.11762093 -0.010967868 0.41933769 11054
0.11831945 -0.010962505 0.41913265 24678
0.11905416 -0.010960542 0.41905758 24934
0.1197886 -0.010958579 0.41898254 21336
0.1205228 -0.010956618 0.41890755 10539
0.12125672 -0.010954657 0.41883257 4627
0.12199038 -0.010952696 0.41875762 515
0.12272777 -0.010951092 0.41869631 0
0.12347164 -0.010950084 0.41865775 0
0.12421537 -0.010949075 0.41861919 0
0.12495897 -0.010948067 0.41858062 0
0.12570243 -0.010947058 0.41854206 0
0.12644576 -0.01094605 0.41850352 0
0.12718894 -0.010945043 0.41846499 0
0.127932 -0.010944035 0.41842645 0
0.12867491 -0.010943027 0.41838795 0
0.12941769 -0.01094202 0.41834942 65793
0.13016032 -0.010941013 0.41831091 131586
0.13090411 -0.010940113 0.41827652 394758
0.13168345 -0.010942178 0.41835546 986895
0.13247018 -0.010944829 0.41845685 1513239
0.1332573 -0.010947483 0.4185583 1776156
0.1340448 -0.010950138 0.41865981 1512486
0.13483267 -0.010952794 0.41876134 1116726
0.13562092 -0.010955451 0.41886294 787011
0.13640958 -0.01095811 0.41896459 1180483
0.1371986 -0.01096077 0.41906628 2230589
0.137988 -0.010963431 0.41916803 3477813
0.13877781 -0.010966093 0.41926983 4987436
0.13956797 -0.010968757 0.41937166 5972006
0.14035854 -0.010971421 0.41947356 6365732
0.14114267 -0.010973559 0.41955525 6693922
0.14192493 -0.010975529 0.41963056 6890784
0.14270747 -0.010977498 0.41970587 6890784
0.1434903 -0.010979469 0.41978124 6890784
0.14427342 -0.010981441 0.41985664 4724782
0.14505681 -0.010983414 0.41993207 2100548
0.14584048 -0.010985387 0.4200075 3485275
0.14662443 -0.010987361 0.42008296 8224128
0.14740868 -0.010989336 0.42015848 8618883
0.1481932 -0.010991312 0.42023399 8618883
0.14899969 -0.010994888 0.42037076 8684676
0.1498816 -0.011003966 0.42071784 8684676
0.15077733 -0.01101396 0.42109996 8684676
0.15167467 -0.011023974 0.4214828 8684676
0.15257366 -0.011034005 0.42186633 8684676
0.15347427 -0.011044054 0.42225054 8684676
0.15437654 -0.011054122 0.42263547 8816262
0.15528044 -0.011064209 0.42302111 8816262
0.15618226 -0.011074048 0.4233973 8816262
0.15708297 -0.011083714 0.42376685 8816262
0.15798526 -0.011093396 0.42413703 8882055
0.15888911 -0.011103095 0.42450786 8750468
0.15979457 -0.011112811 0.42487934 8355708
0.16070159 -0.011122544 0.42525145 8289658
0.1616102 -0.011132294 0.42562425 8289658
0.16252041 -0.011142061 0.42599767 8223865
0.16348168 -0.011155221 0.4265008 8618625
0.16463888 -0.011181563 0.42750797 8947848
0.16598846 -0.011220665 0.42900294 9079434
-0.043123659 -0.0099516138 0.40866685 4869467
-0.042286396 -0.009928111 0.4077017 2765377
-0.041485295 -0.0099124154 0.40705717 4145735
-0.040698517 -0.0098996395 0.40653253 4540232
-0.039921701 -0.0098888623 0.40608993 4539720
-0.039152522 -0.0098796077 0.40570992 4407877
-0.038399313 -0.0098741082 0.40548408 3815742
-0.03764962 -0.0098693185 0.40528736 3157561
-0.036900047 -0.0098643694 0.40508413 1907767
-0.036149535 -0.009858964 0.40486217 1118265
-0.035404455 -0.0098548485 0.40469316 986426
-0.034655783 -0.0098495381 0.40447509 920378
-0.033904366 -0.0098432032 0.40421495 920121
-0.03315936 -0.0098384917 0.40402147 788536
-0.032404222 -0.0098304935 0.40369302 657463
-0.031650301 -0.0098225074 0.40336508 591927
-0.030903177 -0.0098163038 0.4031103 591672
-0.030148342 -0.0098072924 0.40274024 591415
-0.029394891 -0.0097982967 0.40237084 526133
-0.028647123 -0.0097907893 0.40206254 526389
-0.027899992 -0.0097831134 0.40174735 394806
-0.027154973 -0.0097757904 0.40144661 394808
-0.026415361 -0.0097700655 0.4012115 460342
-0.025676616 -0.0097643463 0.40097666 657719
-0.024938732 -0.0097586345 0.40074208 1315897
-0.024203818 -0.0097537776 0.40054265 1908538
-0.023472687 -0.009750193 0.40039545 1776699
-0.022742094 -0.009746612 0.40024838 1514038
-0.022012038 -0.009743033 0.40010142 1711668
-0.021282516 -0.0097394567 0.39995456 2566717
-0.020554353 -0.0097362725 0.39982378 2499901
-0.019827705 -0.0097336005 0.39971405 1710140
-0.019101456 -0.0097309304 0.39960441 1249338
-0.018375605 -0.0097282622 0.39949483 855353
-0.017651748 -0.0097264731 0.39942139 592444
-0.016928157 -0.009724685 0.39934796 461373
-0.016206607 -0.0097239651 0.39931837 526396
-0.01548589 -0.0097236987 0.39930743 591678
-0.014765212 -0.0097234324 0.39929652 591678
-0.014045384 -0.0097237276 0.39930862 591935
-0.013326473 -0.0097247232 0.39934951 395583
-0.012607413 -0.0097257188 0.3993904 592190
-0.011888097 -0.0097266249 0.39942759 789053
-0.011173489 -0.0097317481 0.399638 854332
-0.010458602 -0.0097373193 0.39986676 788795
-0.0097428216 -0.0097428216 0.40009272 854845
-0.0090262322 -0.0097483303 0.40031895 1052224
-0.0083088316 -0.0097538456 0.40054545 1184066
-0.0075906189 -0.0097593674 0.40077218 1381190
-0.0068734279 -0.0097675025 0.40110627 1578057
-0.0061554969 -0.0097763781 0.40147072 1709642
-0.0054365546 -0.0097857984 0.40185758 1709899
-0.0047166413 -0.0097961007 0.40228066 1710412
-0.0039952099 -0.0098064253 0.40270463 1776460
-0.003272257 -0.0098167714 0.40312949 2565962
-0.0025477766 -0.0098271379 0.40355521 4013649
-0.0018218142 -0.0098377969 0.40399292 4408140
-0.0010944009 -0.0098496079 0.40447795 4605514
-0.00036523878 -0.0098614478 0.40496415 4473935
0.00036568844 -0.0098735876 0.40546268 4078929
0.0010984854 -0.0098863691 0.40598756 4342352
0.0018331821 -0.0098991832 0.40651378 4408398
0.0025703439 -0.0099141831 0.40712976 3815760
0.0033106613 -0.0099319844 0.40786076 3486798
0.0040539782 -0.0099506741 0.40862828 4013391
0.0048001246 -0.0099694896 0.40940094 3816270
0.0055506756 -0.0099912155 0.41029313 3092302
0.0063057686 -0.010015044 0.41127166 2236496
0.0070644729 -0.010038988 0.4122549 2236754
0.0078272633 -0.010063625 0.41326663 2368593
0.0086006522 -0.010096418 0.41461331 2565713
0.0093833404 -0.010134007 0.41615692 2565969
0.010177157 -0.010177157 0.41792887 2960465
0.010997541 -0.010239091 0.4204722 3947597
0.011865177 -0.010334186 0.42437735 2768461
0.10245464 -0.010598755 0.435242 7237230
0.10303379 -0.010577613 0.43437377 8421504
0.10361063 -0.010556554 0.43350899 8421504
0.1037262 -0.010489167 0.43074167 8421504
0.1035353 -0.010392019 0.42675227 8355711
0.10383254 -0.010344938 0.4248189 8421504
0.10453184 -0.010338314 0.42454684 8421504
0.10523024 -0.010331696 0.4242751 8421504
0.10592776 -0.010325088 0.42400375 8421504
0.10662438 -0.010318488 0.4237327 8421504
0.10732011 -0.010311897 0.42346203 8421504
0.10801496 -0.010305314 0.4231917 8421504
0.10870892 -0.010298739 0.42292172 8421504
0.10940199 -0.010292173 0.42265207 8421504
0.11009418 -0.010285616 0.42238277 8421504
0.11078548 -0.010279066 0.42211381 7829367
0.11147591 -0.010272525 0.4218452 5395026
0.11216547 -0.010265992 0.42157692 2763306
0.11285414 -0.010259467 0.42130896 1513239
0.11353741 -0.010252542 0.42102459 394758
0.1142179 -0.010245459 0.42073375 65793
0.11489746 -0.010238388 0.42044333 0
0.11558726 -0.010232315 0.42019397 0
0.1162819 -0.010226747 0.4199653 0
0.11697578 -0.010221184 0.41973689 514
0.1176689 -0.010215628 0.4195087 17223
0.11836126 -0.010210077 0.41928077 23135
0.11906465 -0.010205542 0.4190945 16966
0.11979916 -0.010203714 0.41901946 6941
0.1205334 -0.010201886 0.41894442 3085
0.12126739 -0.010200061 0.41886944 0
0.12200111 -0.010198236 0.41879448 0
0.12274491 -0.01019727 0.41875482 0
0.1234889 -0.010196331 0.41871625 0
0.12423272 -0.01019539 0.41867766 0
0.12497643 -0.010194452 0.41863909 0
0.12571999 -0.010193513 0.41860053 0
0.12646341 -0.010192574 0.418562 0
0.1272067 -0.010191635 0.41852343 0
0.12794986 -0.010190696 0.4184849 0
0.12869269 -0.010189744 0.41844577 65793
0.12943536 -0.010188789 0.41840658 197379
0.1301779 -0.010187836 0.41836742 657930
0.13092783 -0.010187468 0.41835231 1381653
0.13169135 -0.010188156 0.41838056 1710619
0.13245498 -0.010188844 0.41840881 1446694
0.13323876 -0.010191067 0.4185001 1050935
0.13402614 -0.010193538 0.41860157 787011
0.1348139 -0.01019601 0.41870308 1180483
0.13560206 -0.010198483 0.41880465 2296380
0.13639058 -0.010200958 0.41890627 3543349
0.13717949 -0.010203433 0.41900793 5052972
0.13796878 -0.010205911 0.41910964 6037542
0.13875847 -0.010208389 0.41921142 6365732
0.13954853 -0.010210868 0.41931322 6693921
0.1403358 -0.010213117 0.41940561 6890784
0.14111765 -0.01021495 0.41948086 6890784
0.14189976 -0.010216783 0.41955614 6890784
0.14268216 -0.010218617 0.41963145 6890784
0.14346486 -0.010220451 0.41970679 6890784
0.14424782 -0.010222286 0.41978213 6234404
0.14503106 -0.010224123 0.41985753 3149623
0.1458146 -0.010225959 0.41993296 1970250
0.14659841 -0.010227796 0.42000839 5525611
0.14738251 -0.010229634 0.42008388 8618883
0.14816904 -0.010231622 0.42016548 8618883
0.14895596 -0.010233616 0.42024738 8618883
0.14977208 -0.010237586 0.42041039 8816262
0.15066087 -0.010246458 0.42077473 9013641
0.15155122 -0.010255345 0.42113972 9013641
0.1524431 -0.010264248 0.4215053 9013641
0.15333652 -0.010273166 0.42187154 9013641
0.15423152 -0.010282101 0.42223844 9013641
0.15512805 -0.01029105 0.42260593 9013641
0.15602615 -0.010300015 0.42297411 9013641
0.15692583 -0.010308996 0.42334288 9013641
0.15782706 -0.010317992 0.42371234 9013641
0.15872988 -0.010327005 0.42408243 8947848
0.15963428 -0.010336032 0.42445317 8750468
0.16054025 -0.010345076 0.42482454 8421244
0.16145776 -0.010354773 0.42522275 8289658
0.16239554 -0.010365672 0.42567036 8355194
0.16333528 -0.010376594 0.42611885 8289658
0.16440354 -0.01039554 0.42689687 8618625
0.16556191 -0.010419981 0.42790052 9013641
-0.043905664 -0.0092238793 0.40908474 2829882
-0.043080475 -0.0092052296 0.4082576 3422531
-0.042278077 -0.0091908863 0.40762147 4211530
-0.041490227 -0.0091792541 0.40710557 4671561
-0.040710658 -0.0091690673 0.40665379 4671046
-0.039941497 -0.009160893 0.40629128 4079169
-0.039180066 -0.009154221 0.40599534 3684156
-0.038422763 -0.0091482773 0.40573174 2828856
-0.03767132 -0.0091435239 0.40552095 1775928
-0.036919869 -0.0091385823 0.40530175 1118266
-0.036167543 -0.0091332179 0.40506387 920634
-0.035417311 -0.0091281729 0.40484008 854843
-0.034663543 -0.0091219852 0.40456566 723257
-0.033907443 -0.0091149043 0.40425164 591414
-0.033146128 -0.0091060791 0.40386024 657464
-0.032390181 -0.0090983659 0.40351814 460598
-0.031635065 -0.0090905353 0.40317085 394806
-0.030876331 -0.0090812733 0.40276009 460342
-0.030120851 -0.009072545 0.40237299 525621
-0.029367946 -0.0090641808 0.40200201 525877
-0.028618598 -0.0090565179 0.40166217 394293
-0.027871532 -0.0090491995 0.40133756 525624
-0.027126353 -0.0090421177 0.40102351 657209
-0.026385393 -0.009036094 0.40075633 920632
-0.025647502 -0.0090308106 0.40052202 1446967
-0.024912514 -0.0090262732 0.40032077 2170942
-0.024178645 -0.009021882 0.40012604 1711414
-0.023446841 -0.009018016 0.39995456 1842746
-0.022717061 -0.0090147071 0.39980781 2171710
-0.021987816 -0.0090113999 0.39966115 1908022
-0.021259107 -0.0090080956 0.39951462 1908025
-0.020532265 -0.0090053789 0.39939412 1249846
-0.019806404 -0.00900291 0.39928463 854841
-0.019080941 -0.0090004439 0.39917523 723260
-0.018355876 -0.0089979777 0.39906588 525628
-0.017631207 -0.0089955144 0.3989566 460348
-0.01690753 -0.0089933667 0.39886138 526141
-0.016186958 -0.0089927539 0.3988342 591936
-0.015468753 -0.0089934608 0.39886555 591936
-0.014750785 -0.0089943809 0.39890635 591680
-0.014032668 -0.0089953002 0.39894712 657729
-0.013314406 -0.0089962203 0.39898792 526655
-0.01259599 -0.0089971358 0.39902851 592444
-0.01187727 -0.0089979321 0.39906386 920637
-0.011162133 -0.0090017207 0.39923185 986172
-0.010448157 -0.009007032 0.39946741 1051966
-0.0097331731 -0.0090121981 0.39969653 1183809
-0.0090172887 -0.0090172887 0.39992231 1380932
-0.0083005941 -0.0090223849 0.40014833 1446981
-0.0075853276 -0.0090301521 0.40049282 1578568
-0.0068690265 -0.0090381932 0.40084943 1709641
-0.0061514769 -0.0090462891 0.40120852 1775433
-0.0054328004 -0.0090546673 0.40158007 1775434
-0.0047127912 -0.0090630595 0.4019523 1710667
-0.0039917612 -0.0090721846 0.40235698 1777226
-0.0032694291 -0.0090817474 0.4027811 3092811
-0.0025455726 -0.0090913307 0.40320611 4276811
-0.0018201867 -0.0091009336 0.40363201 4408393
-0.0010933775 -0.0091114789 0.40409973 4671053
-0.00036489687 -0.009122422 0.40458503 4342097
0.00036535188 -0.0091337971 0.40508953 3881553
0.0010974731 -0.0091456091 0.40561342 4276816
0.0018314905 -0.0091574527 0.40613869 4211022
0.0025674116 -0.0091693271 0.40666533 3684175
0.0033071199 -0.0091864448 0.40742448 3354958
0.0040496341 -0.0092037143 0.4081904 3684430
0.0047949455 -0.009221049 0.40895921 3947855
0.0055442955 -0.0092404922 0.40982154 3223885
0.0062974379 -0.0092609385 0.41072834 2499919
0.0070551173 -0.009283049 0.41170895 2170706
0.0078168102 -0.0093057267 0.41271472 2302546
0.0085826972 -0.0093290191 0.41374776 2434129
0.0093634743 -0.0093634743 0.41527587 2565713
0.010150613 -0.0093987156 0.41683885 2631505
0.01096003 -0.009448302 0.41903803 3816015
0.011800429 -0.0095164748 0.42206153 3487050
0.10334224 -0.0098234061 0.43567413 8421504
0.10392019 -0.0098037915 0.4348042 8421504
0.10411419 -0.0097485194 0.43235287 8421504
0.10372169 -0.0096395621 0.42752054 8421504
0.10397571 -0.0095918551 0.4254047 8421504
0.10457464 -0.0095764324 0.42472067 8421504
0.10527331 -0.0095703015 0.42444876 8421504
0.10597108 -0.0095641771 0.42417714 8421504
0.10666797 -0.0095580611 0.42390591 8421504
0.10736395 -0.0095519526 0.42363501 8421504
0.10805905 -0.0095458524 0.42336443 8421504
0.10875326 -0.0095397597 0.42309424 8421504
0.10944659 -0.0095336754 0.42282438 8421504
0.11013903 -0.0095275976 0.42255485 8421504
0.1108306 -0.0095215291 0.42228568 8421504
0.11152127 -0.0095154671 0.42201683 8158332
0.11221077 -0.0095093865 0.42174718 5921370
0.11289335 -0.0095028067 0.42145535 2763306
0.11357498 -0.0094962362 0.42116392 1184274
0.11425567 -0.0094896732 0.42087287 197379
0.11493886 -0.0094834035 0.42059481 65793
0.11563451 -0.0094782384 0.42036572 0
0.11632939 -0.009473078 0.42013684 0
0.11702354 -0.009467924 0.41990826 0
0.11771692 -0.0094627747 0.41967988 7198
0.11840954 -0.009457631 0.41945177 15166
0.11910141 -0.0094524929 0.4192239 5655
0.11980971 -0.0094487155 0.41905636 1542
0.12054402 -0.0094470233 0.41898131 0
0.12127806 -0.009445332 0.4189063 0
0.12201786 -0.0094441073 0.41885197 0
0.12276208 -0.0094432365 0.41881338 0
0.12350615 -0.0094423667 0.41877478 0
0.12425009 -0.0094414968 0.41873619 0
0.12499389 -0.009440626 0.4186976 0
0.1257375 -0.0094397524 0.41865885 0
0.12648083 -0.0094388686 0.41861963 0
0.12722403 -0.0094379839 0.41858041 65793
0.12796707 -0.0094371 0.41854122 65793
0.12871 -0.0094362171 0.41850203 328965
0.12945276 -0.0094353333 0.41846284 1052688
0.13019541 -0.0094344495 0.41842365 1644825
0.13095155 -0.0094345501 0.41842812 1644319
0.13171521 -0.0094351871 0.41845638 1183024
0.13247897 -0.0094358241 0.41848463 787264
0.13324285 -0.0094364621 0.41851291 1049154
0.1340075 -0.0094371485 0.41854334 2296379
0.13479516 -0.0094394367 0.41864485 3609140
0.13558319 -0.0094417259 0.41874638 5118507
0.1363716 -0.009444017 0.41884798 6037542
0.13716039 -0.009446308 0.4189496 6365731
0.13794957 -0.0094486009 0.41905129 6693921
0.13873914 -0.0094508948 0.41915303 6890784
0.13952908 -0.0094531896 0.41925481 6890784
0.14031091 -0.0094549134 0.41933125 6890784
0.14109263 -0.0094566103 0.4194065 6890784
0.14187461 -0.0094583072 0.41948175 6890784
0.14265686 -0.009460004 0.41955703 6890784
