# .PCD v0.7 - Point Cloud Data file format
VERSION 0.7
FIELDS x y z rgb
SIZE 4 4 4 4
TYPE F F F U
COUNT 1 1 1 1
WIDTH 1112
HEIGHT 1
VIEWPOINT 0 0 0 1 0 0 0
POINTS 1112
DATA ascii
0.09894748 -0.038389459 0.59950572 1513533
0.10002104 -0.038386453 0.59945875 1513532
0.10109442 -0.038383447 0.59941179 1513532
0.10216765 -0.03838044 0.59936488 1513531
0.10324048 -0.038377352 0.59931666 1447739
0.1043092 -0.038372815 0.59924579 1447739
0.10537765 -0.038368274 0.59917486 1447739
0.10644586 -0.03836374 0.59910405 1513530
0.10751401 -0.038359269 0.59903425 1513786
0.10858625 -0.038356338 0.59898847 1579322
0.10965833 -0.038353406 0.5989427 1579322
0.11073025 -0.038350474 0.59889692 1579322
0.11180545 -0.038348727 0.59886962 1579322
0.11288185 -0.038347423 0.59884924 1579323
0.11395818 -0.038346115 0.59882885 1579323
0.11502644 -0.038342148 0.59876686 1513787
0.11608928 -0.03833646 0.59867805 1579323
0.11716134 -0.038333897 0.598638 1579579
0.11823869 -0.038333096 0.59862548 1645371
0.11935154 -0.038343709 0.59879124 1776956
0.12045012 -0.038349591 0.59888309 1974076
0.12153465 -0.038350932 0.59890407 2171453
0.12263937 -0.038358569 0.59902334 3092540
0.087980397 -0.037243236 0.59846395 3026498
0.089031607 -0.037231401 0.59827375 2368577
0.09008719 -0.037221652 0.59811711 2039616
0.091150478 -0.037215285 0.59801477 1842495
0.092214897 -0.037209518 0.59792215 1710654
0.093283236 -0.037205454 0.59785682 1579326
0.094351359 -0.037201393 0.59779155 1513533
0.095413499 -0.037195094 0.59769034 1447741
0.096475087 -0.03718872 0.59758794 1447484
0.097536303 -0.03718235 0.59748554 1447484
0.098597154 -0.037175976 0.59738314 1447484
0.09965764 -0.037169605 0.5972808 1447740
0.10072061 -0.037164293 0.59719539 1447739
0.10178573 -0.037159871 0.59712434 1447739
0.1028506 -0.037155453 0.59705335 1447739
0.1039152 -0.037151031 0.5969823 1447739
0.10497956 -0.037146613 0.59691131 1447994
0.10604366 -0.037142195 0.59684032 1513530
0.10711148 -0.037139155 0.59679145 1513530
0.10817622 -0.037135117 0.5967266 1513786
0.10924428 -0.037132293 0.59668118 1579322
0.11031218 -0.037129465 0.59663576 1579322
0.11137991 -0.037126638 0.59659034 1579578
0.11244749 -0.03712381 0.59654492 1579578
0.11351497 -0.037121013 0.59649992 1579578
0.11458267 -0.037118331 0.59645683 1579578
0.11565021 -0.037115648 0.59641373 1645115
0.11672205 -0.037114386 0.59639347 1645115
0.11779539 -0.037113614 0.59638107 1645115
0.11886867 -0.037112843 0.59636867 1710907
0.11994191 -0.037112072 0.59635627 1776700
0.12103833 -0.03711842 0.59645826 1908540
0.12211566 -0.037118856 0.59646529 2171453
0.12319252 -0.037119143 0.59646988 2434621
0.1242749 -0.037121076 0.59650093 2566462
0.12538116 -0.037130043 0.59664506 3224380
0.08556056 -0.036053821 0.59664524 3223871
0.086585827 -0.03603261 0.59629422 2434368
0.087637328 -0.036022704 0.59613031 2237247
0.088695668 -0.036015816 0.59601629 2039871
0.08975336 -0.036008831 0.59590071 1842494
0.090810612 -0.036001842 0.59578502 1645117
0.091867462 -0.035994854 0.59566939 1513533
0.092927828 -0.035989389 0.59557897 1513277
0.093991056 -0.035985146 0.59550875 1447484
0.095054045 -0.03598091 0.59543866 1381948
0.096116789 -0.035976674 0.59536856 1381948
0.097179547 -0.035972539 0.59530014 1381947
0.09824267 -0.035968628 0.59523541 1447483
0.099305563 -0.035964716 0.59517068 1447739
0.10036822 -0.035960805 0.59510595 1447739
0.10143065 -0.035956897 0.59504128 1447739
0.10248833 -0.035951406 0.59495038 1447994
0.10354886 -0.035947014 0.59487772 1513530
0.10460947 -0.035942744 0.59480703 1513786
0.10566981 -0.035938464 0.59473622 1579322
0.1067299 -0.035934187 0.59466547 1579322
0.10778974 -0.035929915 0.59459472 1579322
0.10884932 -0.035925638 0.59452397 1579578
0.10990865 -0.035921361 0.59445322 1645114
0.11096835 -0.035917293 0.59438586 1645114
0.11203244 -0.035914704 0.59434301 1645114
0.11309637 -0.035912119 0.59430021 1645114
0.11416015 -0.03590953 0.59425741 1645114
0.11522378 -0.035906944 0.59421462 1645370
0.11628725 -0.035904359 0.59417182 1645114
0.11735188 -0.035902172 0.59413564 1645114
0.11842174 -0.035901614 0.5941264 1645115
0.11949158 -0.035901055 0.59411716 1645115
0.12056136 -0.035900496 0.59410787 1710907
0.12163066 -0.035899799 0.59409636 1842491
0.1226997 -0.035899039 0.59408379 1974074
0.12377308 -0.03589955 0.59409225 2105658
0.12484646 -0.035900056 0.59410059 2171961
0.1259255 -0.035902161 0.59413546 2237752
0.12701161 -0.035906237 0.59420288 2369337
0.08415997 -0.0348433 0.59435457 2303289
0.085205168 -0.034832302 0.59416693 2105658
0.086260848 -0.034825809 0.59405619 1974330
0.087316141 -0.03481932 0.5939455 1908538
0.088368826 -0.034811962 0.59381998 1842491
0.089420512 -0.034804393 0.59369087 1710651
0.090480715 -0.034800276 0.59362066 1579068
0.091540672 -0.034796163 0.5935505 1513276
0.092600681 -0.034792162 0.59348226 1447740
0.093660511 -0.034788188 0.59341449 1447484
0.094719805 -0.034784108 0.59334487 1381948
0.095778815 -0.034780018 0.59327507 1381947
0.096837573 -0.034775924 0.59320527 1381947
0.097896084 -0.034771834 0.59313548 1447739
0.098954178 -0.034767684 0.59306473 1447739
0.10001219 -0.034763597 0.59299499 1447739
0.10106998 -0.034759514 0.59292537 1513531
0.10212743 -0.034755405 0.59285527 1513530
0.10318463 -0.0347513 0.59278524 1579322
0.10424157 -0.034747191 0.59271514 1579322
0.10529827 -0.034743086 0.59264511 1579322
0.10635474 -0.034738984 0.59257513 1645114
0.10741093 -0.034734879 0.5925051 1645114
0.10846687 -0.034730773 0.59243506 1645114
0.10952253 -0.034726657 0.59236485 1645114
0.11057793 -0.034722541 0.59229463 1645370
0.11163308 -0.034718424 0.59222442 1645370
0.11268799 -0.034714311 0.59215426 1645370
0.11374265 -0.034710199 0.59208411 1710906
0.11480048 -0.034707122 0.59203166 1710906
0.11586009 -0.034704633 0.59198922 1645370
0.11691953 -0.034702145 0.59194672 1645370
0.11797882 -0.034699652 0.59190422 1645370
0.11904276 -0.034698561 0.59188563 1710906
0.12010854 -0.034698024 0.59187645 1711162
0.12117416 -0.034697447 0.59186661 1776698
0.12223722 -0.034696154 0.59184456 1776954
0.12330021 -0.034694865 0.59182256 1842746
0.12436311 -0.034693573 0.59180051 1908538
0.12542805 -0.034692865 0.59178847 1974074
0.12649699 -0.034693263 0.59179527 1974075
0.1275655 -0.034693547 0.59180009 1908283
0.12863907 -0.034695186 0.59182805 2039611
0.082819991 -0.033662319 0.59243834 2435131
0.083871111 -0.03365529 0.5923146 2237753
0.084920958 -0.033647925 0.59218502 1974584
0.08596646 -0.033639047 0.5920288 2369083
0.087017894 -0.033632681 0.59191674 1974073
0.088070713 -0.033627 0.59181672 1842490
0.089123182 -0.033621319 0.59171677 1776699
0.090175286 -0.033615641 0.59161681 1645115
0.091227032 -0.03360996 0.59151685 1579324
0.092278443 -0.033604287 0.59141701 1513531
0.09333133 -0.03359928 0.59132886 1513275
0.094386891 -0.033595331 0.59125942 1447739
0.095442198 -0.033591386 0.59118998 1447739
0.096497253 -0.033587441 0.59112054 1447739
0.097552061 -0.033583496 0.5910511 1447994
0.098606624 -0.033579554 0.59098172 1513530
0.09966094 -0.033575613 0.59091234 1513530
0.100715 -0.033571668 0.5908429 1579066
0.10176881 -0.033567723 0.59077352 1579322
0.10282238 -0.033563782 0.59070414 1579322
0.1038757 -0.03355984 0.59063476 1644858
0.10492878 -0.033555906 0.5905655 1645114
0.10598166 -0.033551984 0.59049648 1645114
0.10703428 -0.033548057 0.5904274 1710650
0.10808666 -0.033544134 0.59035838 1710650
0.10913879 -0.033540215 0.59028935 1710906
0.11019067 -0.033536293 0.59022033 1710906
0.11124223 -0.033532348 0.59015089 1710906
0.11229353 -0.033528402 0.59008145 1711162
0.11334459 -0.033524454 0.59001201 1776698
0.1143954 -0.033520512 0.58994263 1776698
0.11544592 -0.033516556 0.58987302 1776698
0.11649619 -0.033512603 0.5898034 1776698
0.11754709 -0.033508901 0.58973825 1776698
0.11860238 -0.033506501 0.58969605 1776698
0.1196591 -0.033504549 0.58966166 1776954
0.12072087 -0.033504032 0.58965254 1776954
0.12178017 -0.03350284 0.58963162 1776954
0.1228392 -0.033501603 0.5896098 1776954
0.12389815 -0.033500358 0.58958793 1776699
0.12495702 -0.033499114 0.58956605 1776699
0.12600842 -0.033495907 0.58950961 1842235
0.12705928 -0.033492614 0.58945161 1842235
0.12811279 -0.033490065 0.58940679 1842236
0.12916958 -0.033488411 0.58937764 1842236
0.13025583 -0.033494357 0.58948231 2829115
0.081459478 -0.032477308 0.59032321 2632510
0.0825103 -0.032471795 0.59022301 2434877
0.083558641 -0.032465462 0.59010786 2303291
0.084613107 -0.032461632 0.5900383 2171706
0.085667334 -0.03245781 0.5899688 2105914
0.086721241 -0.032453962 0.58989888 2039866
0.087772101 -0.032449082 0.58981013 1908283
0.08882264 -0.032444198 0.58972138 1842491
0.089872852 -0.032439314 0.58963263 1776699
0.090922758 -0.032434434 0.58954394 1710651
0.091972344 -0.032429557 0.58945525 1644859
0.093021624 -0.032424681 0.58936661 1579323
0.094070576 -0.032419804 0.58927798 1579067
0.095119223 -0.032414932 0.58918941 1579066
0.096166082 -0.032409564 0.58909184 1579066
0.097212337 -0.032404114 0.58899277 1644602
0.098261885 -0.032399867 0.58891559 1644858
0.099312559 -0.032396074 0.58884668 1644858
0.10036297 -0.032392282 0.58877772 1644858
0.10141314 -0.03238849 0.58870882 1645114
0.10246307 -0.032384701 0.58863991 1645114
0.10351274 -0.032380909 0.58857101 1645114
0.10456216 -0.032377116 0.58850211 1710650
0.10561135 -0.032373331 0.58843327 1710650
0.1066603 -0.032369543 0.58836442 1710906
0.107709 -0.032365758 0.58829564 1710906
0.10875744 -0.032361969 0.5882268 1710906
0.10980565 -0.032358188 0.58815801 1776442
0.1108536 -0.032354403 0.58808923 1776698
0.11190132 -0.032350618 0.58802044 1776698
0.11294879 -0.032346837 0.58795172 1776698
0.11399602 -0.032343056 0.587883 1776698
0.115043 -0.032339275 0.58781427 1776954
0.11608974 -0.032335497 0.58774561 1776954
0.11713622 -0.032331716 0.58767688 1842490
0.11818247 -0.032327939 0.58760822 1842490
0.11922847 -0.032324165 0.58753961 1842490
0.12027424 -0.032320391 0.58747101 1842490
0.1213241 -0.032317773 0.58742344 1842490
0.122375 -0.032315478 0.58738172 1842490
0.12342577 -0.032313187 0.58734006 1776698
0.1244764 -0.032310896 0.58729839 1776699
0.12552686 -0.032308601 0.58725673 1842235
0.12657718 -0.03230631 0.58721507 1842235
0.12762734 -0.032304019 0.5871734 1842491
0.12867738 -0.032301728 0.5871318 1974075
0.12974416 -0.032303646 0.58716667 2040122
0.13081649 -0.032306906 0.58722591 2500921
0.080188476 -0.031331919 0.58880931 3289917
0.081164613 -0.031298772 0.58818638 2566206
0.082216032 -0.031295136 0.58811802 2368829
0.08326716 -0.031291481 0.58804935 2237243
0.084317975 -0.031287801 0.58798021 2105915
0.085368544 -0.031284124 0.58791113 2039867
0.086418867 -0.031280451 0.58784205 1974075
0.087468952 -0.031276777 0.58777303 1973819
0.088516325 -0.031272236 0.58768767 1908027
0.089562975 -0.031267546 0.58759958 1842235
0.090609305 -0.03126286 0.58751148 1776443
0.091655329 -0.031258173 0.58742344 1710650
0.092701033 -0.031253491 0.58733541 1645114
0.093746416 -0.031248806 0.58724737 1644858
0.094791494 -0.031244123 0.5871594 1644858
0.095836282 -0.031239452 0.5870716 1644858
0.096881151 -0.031234907 0.58698618 1644858
0.097925708 -0.031230362 0.58690077 1710394
0.098969974 -0.031225819 0.58681542 1710650
0.10001393 -0.031221282 0.58673012 1710650
0.10106 -0.031217488 0.58665884 1710650
0.10210631 -0.031213846 0.58659041 1710906
0.10315237 -0.031210206 0.58652198 1710906
0.1041982 -0.031206567 0.58645362 1710906
0.10524378 -0.031202929 0.58638525 1710906
0.10628911 -0.031199291 0.58631688 1710906
0.10733421 -0.031195657 0.58624858 1710906
0.10837905 -0.03119202 0.58618021 1776442
0.10942365 -0.031188384 0.5861119 1776698
0.11046802 -0.031184753 0.58604366 1776698
0.11151213 -0.031181118 0.58597535 1776698
0.11255601 -0.031177487 0.5859071 1776698
0.11359964 -0.031173855 0.58583885 1776698
0.11464302 -0.031170223 0.58577061 1776954
0.11568617 -0.031166594 0.58570242 1842490
0.11672795 -0.031162664 0.58562857 1842490
0.11776802 -0.031158354 0.58554757 1842490
0.11880781 -0.031154048 0.58546662 1842746
0.11984731 -0.031149741 0.58538568 1842746
0.12088651 -0.031145433 0.58530474 1842490
0.12193162 -0.031142708 0.58525354 1842490
0.12297714 -0.031140134 0.58520514 1842490
0.12402249 -0.031137561 0.5851568 1842491
0.12506348 -0.031133946 0.58508885 1842491
0.12610386 -0.031130241 0.58501923 1842491
0.12714836 -0.031127606 0.5849697 1908538
0.12819909 -0.031126527 0.58494943 2040122
0.12924974 -0.031125449 0.58492917 2171705
0.13031359 -0.031127539 0.58496845 2369337
0.13135427 -0.031124104 0.5849039 2829625
0.07986477 -0.030147627 0.5864324 2631740
0.080882542 -0.030132711 0.58614224 2631998
0.08193019 -0.030129166 0.58607328 2434621
0.08297772 -0.030125668 0.58600527 2237500
0.084024914 -0.030122139 0.58593661 2105915
0.085071862 -0.030118609 0.58586794 2039866
0.086118557 -0.030115079 0.58579928 1974074
0.08716502 -0.030111553 0.58573067 1908282
0.088211231 -0.030108025 0.58566207 1908026
0.089255229 -0.030103834 0.58558053 1842234
0.090298004 -0.030099336 0.58549303 1842234
0.091340609 -0.030094882 0.58540642 1776442
0.092383169 -0.030090516 0.58532149 1710906
0.093425423 -0.030086154 0.58523661 1710906
0.094467379 -0.03008179 0.58515173 1710650
0.09550903 -0.030077429 0.58506691 1710906
0.096550368 -0.030073067 0.58498204 1710906
0.097591422 -0.030068709 0.58489728 1710906
0.098632164 -0.030064348 0.58481246 1710906
0.099672616 -0.030059995 0.58472776 1710906
0.10071275 -0.030055637 0.58464301 1710906
0.10175259 -0.030051284 0.58455831 1710906
0.10279454 -0.030047633 0.58448732 1710906
0.10383677 -0.030044144 0.58441943 1710906
0.10487878 -0.030040653 0.58435154 1710906
0.10592052 -0.030037163 0.58428365 1776698
0.10696203 -0.030033672 0.58421576 1776698
0.1080033 -0.030030185 0.58414793 1776698
0.10904433 -0.030026698 0.5840801 1776698
0.11008511 -0.030023212 0.58401227 1776698
0.11112565 -0.030019725 0.58394444 1776698
0.11216595 -0.030016242 0.58387667 1842234
0.11320367 -0.030012134 0.5837968 1842490
0.11424097 -0.030007996 0.58371627 1842490
0.11527798 -0.030003859 0.58363581 1842490
0.11631471 -0.029999722 0.58355534 1842490
0.11735116 -0.029995589 0.58347493 1842746
0.11838732 -0.029991455 0.58339453 1842746
0.1194232 -0.029987324 0.58331418 1842746
0.1204588 -0.029983195 0.58323383 1842746
0.12149447 -0.029979154 0.58315527 1842746
0.12253627 -0.029976685 0.58310723 1842746
0.12357791 -0.029974215 0.58305919 1842746
0.12461936 -0.029971747 0.58301115 1842490
0.12566064 -0.029969277 0.58296311 1842490
0.12670177 -0.029966809 0.58291513 1842746
0.12774192 -0.029964153 0.58286345 1908539
0.12877804 -0.029960604 0.58279443 2105659
0.12981845 -0.029958105 0.58274579 2237499
0.13087922 -0.029960304 0.58278859 2435131
0.13193542 -0.02996143 0.58281046 2961211
0.079587929 -0.028988982 0.58439964 2303289
0.08060237 -0.02897471 0.58411193 2434620
0.081646457 -0.028971324 0.58404368 2368827
0.082690291 -0.028967936 0.58397537 2237243
0.083733894 -0.028964553 0.58390719 2105658
0.084777266 -0.028961176 0.58383912 2039866
0.085820392 -0.028957801 0.58377105 1974074
0.086863272 -0.028954424 0.58370298 1908282
0.087905914 -0.028951051 0.58363497 1908026
0.088947862 -0.028947528 0.58356398 1842490
0.089987904 -0.028943479 0.58348233 1842234
0.091027655 -0.028939428 0.58340067 1776698
0.092067115 -0.02893538 0.58331907 1776442
0.093106285 -0.028931333 0.58323747 1710906
0.094145171 -0.028927287 0.58315593 1710906
0.09518376 -0.028923243 0.58307439 1710906
0.096221849 -0.028919136 0.5829916 1710906
0.097259402 -0.028914958 0.58290738 1776442
0.09829665 -0.02891078 0.58282316 1776442
0.099333607 -0.028906606 0.582739 1776442
0.10037026 -0.02890243 0.58265483 1776698
0.10140662 -0.02889826 0.58257073 1776698
0.10244267 -0.028894087 0.58248663 1776698
0.10347842 -0.028889915 0.58240253 1776698
0.10451628 -0.028886408 0.58233184 1776698
0.10555447 -0.028883064 0.58226442 1776698
0.10659243 -0.028879723 0.58219707 1776698
0.10763014 -0.028876379 0.58212966 1776698
0.10866652 -0.028872745 0.5820564 1776698
0.10970136 -0.028868778 0.58197641 1842491
0.11073591 -0.02886481 0.58189642 1842491
0.11177017 -0.028860843 0.58181643 1842491
0.11280416 -0.028856877 0.58173651 1842491
0.11383785 -0.028852912 0.58165658 1842491
0.11487126 -0.028848948 0.58157665 1842490
0.1159044 -0.028844986 0.58149678 1842490
0.11693724 -0.028841024 0.5814169 1842746
0.11796981 -0.028837064 0.58133709 1842746
0.11900209 -0.028833106 0.58125728 1842746
0.12003408 -0.028829146 0.58117747 1842746
0.1210658 -0.02882519 0.58109772 1842746
0.12209854 -0.028821545 0.58102423 1842746
0.1231365 -0.028819179 0.58097655 1842746
0.12417427 -0.028816814 0.58092886 1842490
0.12521188 -0.02881445 0.58088118 1842491
0.12624931 -0.028812084 0.58083349 1842491
0.1272869 -0.028809791 0.5807873 1842491
0.12832621 -0.028807923 0.58074963 1908283
0.12936537 -0.028806055 0.58071196 1974076
0.13041639 -0.028806832 0.58072764 2105660
0.1314715 -0.028808497 0.58076119 2303036
0.13261397 -0.028829124 0.581177 3092540
0.079315118 -0.027839081 0.58239645 2105910
0.080332294 -0.027827526 0.58215469 2369080
0.08136449 -0.027821407 0.58202666 2303289
0.082404852 -0.027818197 0.58195955 2237497
0.083445005 -0.027815001 0.58189267 2171449
0.084484808 -0.027811769 0.58182508 2040121
0.085524373 -0.02780854 0.58175749 1974073
0.086563699 -0.027805308 0.58168989 1973818
0.087602772 -0.027802078 0.5816223 1908026
0.088641062 -0.027798675 0.58155113 1842489
0.089677565 -0.027794801 0.58147007 1842233
0.090713777 -0.027790926 0.58138901 1842233
0.091749698 -0.02778705 0.58130795 1776697
0.092785336 -0.02778318 0.58122694 1776697
0.093820676 -0.027779307 0.58114594 1776698
0.094855733 -0.027775435 0.58106494 1776698
0.0958905 -0.027771566 0.580984 1776698
0.096924976 -0.027767697 0.58090305 1776698
0.097959161 -0.027763827 0.58082211 1776698
0.09899307 -0.027759962 0.58074123 1776698
0.10002669 -0.027756097 0.5806604 1776698
0.10106001 -0.027752232 0.58057952 1776698
0.10209305 -0.027748369 0.5804987 1776698
0.10312581 -0.027744507 0.58041793 1776698
0.10415834 -0.027740663 0.58033752 1776698
0.10519121 -0.027736986 0.58026057 1776698
0.10622326 -0.027733168 0.5801807 1776698
0.10725494 -0.027729327 0.58010036 1776698
0.10828634 -0.027725486 0.58002001 1842235
0.10931744 -0.027721649 0.57993972 1842491
0.11034826 -0.02771781 0.57985944 1842491
0.11137881 -0.027713975 0.57977921 1842491
0.11240905 -0.027710138 0.57969892 1842491
0.11343902 -0.027706306 0.57961875 1842491
0.1144687 -0.027702471 0.57953852 1842491
0.1154981 -0.027698638 0.57945836 1842491
0.11652721 -0.027694806 0.57937819 1842491
0.11755604 -0.027690977 0.57929808 1842746
0.11858458 -0.027687147 0.57921797 1842746
0.11961284 -0.027683321 0.57913792 1842490
0.12064081 -0.027679492 0.57905781 1842490
0.1216685 -0.02767567 0.57897782 1842491
0.12269893 -0.027672525 0.57891208 1842491
0.12373518 -0.027670737 0.57887465 1842491
0.12477129 -0.027668947 0.57883722 1842491
0.12580727 -0.027667159 0.57879978 1842491
0.12684312 -0.027665371 0.57876241 1842235
0.12787883 -0.027663583 0.57872498 1776699
0.12891442 -0.027661797 0.57868761 1776700
0.12994984 -0.027660007 0.57865018 1842492
0.13099852 -0.027661044 0.57867187 1908284
0.1320408 -0.02766072 0.57866508 1974078
0.079070389 -0.026705893 0.58059943 2434870
0.080065913 -0.026688637 0.58022428 2500664
0.081084453 -0.0266794 0.58002347 2434617
0.08212132 -0.026676351 0.57995719 2303289
0.083157964 -0.026673308 0.57989103 2171450
0.084194355 -0.026670262 0.57982481 2039866
0.085230395 -0.026667178 0.57975775 1974074
0.086266175 -0.026664091 0.57969064 1908282
0.087301716 -0.026661005 0.57962352 1908026
0.088336371 -0.026657723 0.57955217 1842490
0.089369357 -0.026654018 0.57947165 1842489
0.090402044 -0.026650315 0.57939112 1842233
0.091434456 -0.026646614 0.57931066 1842233
0.092466578 -0.026642911 0.57923019 1842233
0.093498409 -0.02663921 0.57914972 1842233
0.094529957 -0.026635513 0.57906932 1842233
0.095561214 -0.026631813 0.57898891 1842489
0.09659218 -0.026628116 0.5789085 1842489
0.097622871 -0.026624419 0.57882816 1842489
0.098653272 -0.026620723 0.57874781 1842489
0.099683516 -0.026617063 0.57866824 1842490
0.100714 -0.026613543 0.5785917 1842490
0.10174422 -0.026610026 0.57851523 1842490
0.10277416 -0.026606508 0.57843876 1842491
0.10380383 -0.026602991 0.57836229 1842490
0.10483323 -0.026599476 0.57828587 1842491
0.10586236 -0.026595961 0.57820946 1842491
0.10689114 -0.02659243 0.57813269 1842491
0.10791908 -0.026588758 0.57805288 1842491
0.10894675 -0.026585091 0.57797313 1842491
0.10997412 -0.026581423 0.57789338 1842491
0.11100122 -0.026577758 0.57781368 1842491
0.11202803 -0.026574092 0.57773399 1842491
0.11305456 -0.026570426 0.5776543 1842491
0.11408081 -0.026566762 0.57757467 1842491
0.11510677 -0.026563101 0.57749504 1842491
0.11613244 -0.026559437 0.57741541 1842491
0.11715784 -0.026555777 0.57733583 1842491
0.11818295 -0.026552116 0.57725626 1842491
0.11920967 -0.026548879 0.57718587 1842491
0.12023738 -0.026545916 0.57712144 1842491
0.12126486 -0.026542952 0.577057 1842491
0.1222921 -0.026539989 0.57699257 1842491
0.12331911 -0.026537023 0.57692814 1842491
0.124349 -0.026534725 0.57687813 1842491
0.12538081 -0.026532872 0.57683784 1842491
0.1264125 -0.026531018 0.57679754 1776700
0.12744403 -0.026529163 0.57675725 1776700
0.12847541 -0.026527314 0.57671702 1776700
0.1295059 -0.026525304 0.57667333 1776444
0.1305311 -0.026522255 0.57660705 1776700
0.13155699 -0.026519394 0.57654482 1842492
0.079023577 -0.025643412 0.58025569 2171955
0.079803087 -0.02555785 0.57831961 2566200
0.080820732 -0.025549779 0.57813698 2434617
0.081845984 -0.025544288 0.5780127 2237242
0.082872853 -0.025539432 0.57790285 2105402
0.083905742 -0.02553653 0.57783717 1974074
0.084938385 -0.025533624 0.57777143 1908026
0.0859707 -0.025530692 0.57770509 1908026
0.087002732 -0.025527747 0.57763845 1908026
0.088033773 -0.025524585 0.57756686 1908026
0.08906325 -0.025521049 0.57748687 1908026
0.090092458 -0.025517516 0.57740694 1908026
0.091121376 -0.025513984 0.57732701 1908025
0.092150003 -0.025510453 0.57724708 1842489
0.093178339 -0.025506919 0.57716715 1842489
0.0942064 -0.02550339 0.57708728 1842489
0.095234357 -0.02549991 0.57700855 1908026
0.096262477 -0.02549655 0.57693249 1908026
0.09729033 -0.025493188 0.57685643 1842490
0.098317906 -0.025489828 0.57678038 1842490
0.099345215 -0.025486467 0.57670438 1842490
0.10037225 -0.025483109 0.57662839 1842490
0.10139901 -0.025479751 0.57655239 1842490
0.10242551 -0.025476396 0.57647645 1842490
0.10345173 -0.02547304 0.57640052 1842490
0.10447768 -0.025469683 0.57632458 1842490
0.10550337 -0.02546633 0.57624871 1842490
0.10652878 -0.025462978 0.57617283 1842490
0.10755392 -0.025459623 0.57609695 1842491
0.10857855 -0.025456216 0.57601982 1842491
0.1096025 -0.025452714 0.57594061 1842491
0.11062618 -0.025449216 0.57586145 1842491
0.11164958 -0.025445718 0.5757823 1842491
0.11267269 -0.02544222 0.57570314 1842491
0.11369552 -0.025438724 0.57562405 1842491
0.11471807 -0.02543523 0.57554495 1842491
0.11574299 -0.025432317 0.57547903 1842491
0.11676804 -0.025429484 0.57541496 1842491
0.11779287 -0.025426656 0.57535094 1842491
0.11881746 -0.025423823 0.57528687 1842491
0.11984183 -0.025420994 0.57522285 1842491
0.12086597 -0.025418166 0.57515883 1842491
0.12188987 -0.025415337 0.57509482 1842491
0.12291357 -0.025412509 0.57503086 1842491
0.12393702 -0.025409682 0.57496685 1842491
0.12496024 -0.025406854 0.57490289 1842235
0.12598775 -0.025404938 0.5748595 1776700
0.12701584 -0.02540317 0.57481951 1776700
0.12804224 -0.025401091 0.57477248 1776700
0.12906422 -0.02539818 0.57470661 1776700
0.13008597 -0.025395269 0.57464075 1842493
0.13112275 -0.025395317 0.57464182 1908285
0.079199255 -0.024982316 0.58935165 1118517
0.078964226 -0.02457827 0.57981992 2040114
0.079564057 -0.024441248 0.57658744 2237492
0.080561221 -0.024428239 0.57628059 2171194
0.081585974 -0.024423826 0.57617646 2039610
0.082608491 -0.024418861 0.57605934 1908027
0.083630584 -0.024413897 0.57594222 1842235
0.084652267 -0.024408937 0.57582521 1842235
0.085677154 -0.024405008 0.57573253 1842490
0.086705782 -0.024402225 0.5756669 1842490
0.087733239 -0.024399184 0.57559514 1842490
0.088759243 -0.024395816 0.57551569 1908026
0.08978498 -0.02439245 0.57543629 1908026
0.090810649 -0.024389146 0.57535833 1908026
0.091836408 -0.02438594 0.57528269 1908026
0.092861898 -0.024382733 0.57520705 1842490
0.09388712 -0.024379529 0.57513148 1842489
0.094912075 -0.024376325 0.5750559 1842490
0.09593676 -0.024373122 0.57498032 1908026
0.09696117 -0.024369922 0.5749048 1908026
0.09798532 -0.02436672 0.57482928 1908026
0.099009193 -0.024363518 0.57475376 1908026
0.1000328 -0.02436032 0.5746783 1908026
0.10105614 -0.024357121 0.57460284 1908026
0.10207921 -0.024353921 0.57452738 1842490
0.10310201 -0.024350727 0.57445198 1842490
0.10412455 -0.024347531 0.57437658 1842490
0.1051468 -0.024344334 0.57430118 1842490
0.1061688 -0.02434114 0.57422584 1842490
0.10719053 -0.024337947 0.5741505 1842491
0.10821199 -0.024334753 0.57407516 1842491
0.10923317 -0.024331558 0.57399982 1842491
0.11025367 -0.024328275 0.57392234 1842491
0.11127411 -0.024325037 0.57384598 1842491
0.11229675 -0.024322337 0.57378227 1842491
0.11331917 -0.024319639 0.57371861 1842491
0.11434135 -0.024316939 0.57365489 1842491
0.11536331 -0.02431424 0.57359123 1842491
0.11638504 -0.024311541 0.57352757 1842235
0.11740655 -0.024308845 0.57346398 1776699
0.11842782 -0.024306146 0.57340032 1842235
0.11944888 -0.024303451 0.57333672 1842492
0.1204697 -0.024300754 0.57327312 1842492
0.12149029 -0.024298059 0.57320952 1842491
0.12251056 -0.024295343 0.57314545 1842491
0.12353032 -0.024292573 0.57308012 1842236
0.12454986 -0.024289807 0.57301486 1776700
0.12556916 -0.024287041 0.57294959 1776700
0.12659158 -0.024284916 0.57289946 1842236
0.12761 -0.024282066 0.57283223 1842492
0.12862818 -0.024279216 0.57276499 1908284
0.12964614 -0.024276368 0.57269782 1974077
0.13070406 -0.024280991 0.57280689 2039870
0.13243864 -0.024410261 0.57585645 2961210
0.078583665 -0.024056224 0.59272689 2170935
0.078836486 -0.023809677 0.58665216 1184308
0.078972012 -0.023534706 0.57987708 2039602
0.079654172 -0.023427697 0.57724047 2500657
0.080363594 -0.023331366 0.57486695 2237236
0.08131855 -0.023307865 0.57428789 2105658
0.082335211 -0.023302417 0.57415366 1973818
0.083355762 -0.023298193 0.57404959 1842235
0.084376149 -0.023294028 0.57394695 1776699
0.085396171 -0.023289865 0.57384437 1776699
0.086415872 -0.023285713 0.57374209 1776698
0.087437585 -0.023282196 0.57365543 1842490
0.088459961 -0.023278939 0.57357514 1842490
0.089482948 -0.023275912 0.57350057 1842490
0.090505652 -0.023272883 0.57342595 1908026
0.09152811 -0.023269858 0.57335144 1908026
0.092550293 -0.023266833 0.57327688 1908026
0.093572207 -0.023263808 0.57320237 1908026
0.09459386 -0.023260785 0.57312787 1908026
0.095615238 -0.02325776 0.57305336 1908026
0.096636362 -0.023254739 0.57297891 1908026
0.097657219 -0.023251718 0.57290447 1908026
0.098677814 -0.023248699 0.57283008 1908026
0.099698126 -0.023245677 0.57275563 1908026
0.10071819 -0.023242658 0.57268125 1908026
0.10173799 -0.023239642 0.57260692 1908026
0.10275752 -0.023236625 0.57253259 1842490
0.10377678 -0.023233609 0.57245827 1842490
0.10479578 -0.023230592 0.57238394 1842490
0.10581452 -0.023227578 0.57230967 1842491
0.106833 -0.023224564 0.57223541 1842491
0.1078512 -0.023221549 0.57216114 1842491
0.10886875 -0.023218453 0.57208484 1842491
0.10988557 -0.023215262 0.57200623 1842491
0.11090213 -0.023212073 0.57192767 1842491
0.11191933 -0.023209076 0.57185382 1842491
0.11293799 -0.023206437 0.57178879 1842491
0.11395644 -0.023203801 0.57172382 1842235
0.11497466 -0.023201164 0.57165885 1776700
0.11599264 -0.023198526 0.57159388 1776700
0.11701038 -0.023195891 0.57152891 1776699
0.11802789 -0.023193253 0.57146394 1776700
0.11904518 -0.023190619 0.57139903 1776700
0.12006223 -0.023187984 0.57133412 1842236
0.12107905 -0.02318535 0.57126921 1842236
0.12209565 -0.023182718 0.57120436 1842236
0.12311207 -0.023180095 0.57113975 1842236
0.12413508 -0.023178749 0.57110655 1842236
0.12515797 -0.0231774 0.57107335 1842493
0.12618145 -0.023176186 0.57104343 1908285
0.12720546 -0.023175083 0.57101625 1973821
0.12822734 -0.023173615 0.57098007 2039870
0.12924947 -0.023172215 0.57094556 2171710
0.13036139 -0.023186808 0.57130516 2698304
0.078149028 -0.02285992 0.58944857 657716
0.07862331 -0.02268995 0.58506584 1052468
0.079118907 -0.02253055 0.58095568 1776179
0.079647288 -0.022384532 0.57719058 2434610
0.080403134 -0.022305386 0.57514977 2764085
0.081152827 -0.02222657 0.57311749 2171955
0.082083948 -0.022198804 0.57240152 2171448
0.083080612 -0.022189232 0.5721547 2039865
0.084097922 -0.022185341 0.57205439 1908282
0.085115097 -0.022181511 0.57195562 1842490
0.086132839 -0.022177916 0.57186294 1842491
0.087151669 -0.022174684 0.57177961 1842490
0.088171668 -0.022171823 0.57170582 1842490
0.08919058 -0.022168757 0.57162678 1908026
0.090208873 -0.02216561 0.5715456 1908282
0.091226876 -0.02216246 0.57146442 1908026
0.092244588 -0.022159314 0.5713833 1908026
0.093262278 -0.022156231 0.57130378 1908026
0.094280578 -0.022153361 0.57122976 1908026
0.095298626 -0.02215049 0.57115579 1908026
0.096316405 -0.022147622 0.57108182 1908026
0.097333916 -0.022144753 0.57100785 1908026
0.098351173 -0.022141887 0.57093394 1908026
0.099368162 -0.02213902 0.57086003 1908026
0.10038489 -0.022136156 0.57078612 1908026
0.10140136 -0.022133291 0.57071227 1908026
0.10241756 -0.022130426 0.57063842 1908027
0.10343349 -0.022127563 0.57056457 1842491
0.10444917 -0.0221247 0.57049078 1842491
0.10546459 -0.022121839 0.57041699 1842491
0.10647941 -0.022118913 0.57034153 1842491
0.10749348 -0.022115882 0.57026339 1842491
0.10850726 -0.022112854 0.5701853 1842491
0.10952076 -0.022109825 0.57010722 1842491
0.110534 -0.0221068 0.5700292 1842491
0.11154696 -0.022103773 0.56995118 1842235
0.11255962 -0.022100748 0.56987315 1842236
0.11357202 -0.022097725 0.56979519 1776700
0.11458627 -0.02209511 0.56972778 1776444
0.11560085 -0.022092607 0.56966323 1776444
0.11661521 -0.022090105 0.56959873 1776444
0.11762933 -0.022087604 0.56953424 1776188
0.11864323 -0.022085104 0.56946975 1776444
0.11965689 -0.022082603 0.56940526 1776444
0.12067347 -0.022080677 0.56935561 1776444
0.12169342 -0.022079397 0.56932259 1776444
0.12271325 -0.022078115 0.56928957 1776701
0.12373297 -0.022076838 0.5692566 1842237
0.12475257 -0.022075556 0.56922358 1908029
0.12577307 -0.022074457 0.56919521 1973822
0.12679377 -0.022073409 0.56916821 2105662
0.12784356 -0.022077402 0.56927115 2303039
0.12889348 -0.022081355 0.56937307 2500411
0.13043673 -0.022169091 0.57163537 3356737
0.07732743 -0.021864997 0.59129643 328756
0.077842422 -0.021711152 0.58713597 460341
0.078484774 -0.021596482 0.58403492 723763
0.079123192 -0.021483781 0.58098716 1381427
0.079701483 -0.021357913 0.57758331 2104883
0.080420822 -0.021272605 0.57527632 2697781
0.081175141 -0.021198604 0.57327509 2632497
0.081978381 -0.021139078 0.57166535 2500660
0.082850531 -0.021098584 0.57057023 2237494
0.083830215 -0.021086128 0.5702334 2105657
0.084837101 -0.021080734 0.57008755 2039866
0.085852094 -0.02107746 0.56999898 1974074
0.086867496 -0.021074362 0.56991524 1908283
0.087884218 -0.021071654 0.56984198 1908283
0.088900663 -0.021068944 0.56976867 1908283
0.089916497 -0.02106615 0.56969315 1973819
0.090931237 -0.021063168 0.5696125 1973819
0.091945693 -0.021060186 0.56953186 1973819
0.092959858 -0.021057205 0.56945127 1973819
0.093973741 -0.021054227 0.56937069 1973819
0.09498734 -0.021051249 0.56929016 1908282
0.096000649 -0.02104827 0.56920964 1908282
0.097013667 -0.021045294 0.56912911 1908282
0.098026693 -0.021042379 0.56905031 1908282
0.099040367 -0.021039665 0.56897688 1908026
0.10005379 -0.021036951 0.56890351 1908027
0.10106695 -0.021034237 0.56883013 1908027
0.10207984 -0.021031525 0.56875676 1908027
0.10309246 -0.021028811 0.56868339 1908027
0.10410461 -0.021026054 0.56860882 1842491
0.10511591 -0.021023182 0.56853116 1842491
0.10612694 -0.021020312 0.56845355 1842492
0.10713769 -0.021017443 0.56837595 1842492
0.10814818 -0.021014575 0.5682984 1842492
0.10915837 -0.021011705 0.56822079 1842492
0.11016831 -0.02100884 0.56814331 1842491
0.11117795 -0.021005973 0.56806576 1842491
0.11218733 -0.021003107 0.56798828 1842236
0.11319643 -0.021000242 0.56791079 1776700
0.11420526 -0.020997379 0.56783336 1776444
0.1152138 -0.020994516 0.56775594 1776444
0.1162227 -0.020991765 0.56768155 1710908
0.11723346 -0.020989396 0.56761748 1710652
0.11825005 -0.020988105 0.56758255 1710652
0.11926697 -0.020986892 0.56754977 1710653
0.12028376 -0.020985678 0.56751692 1776445
0.12130044 -0.020984465 0.56748414 1776445
0.12231702 -0.020983253 0.56745136 1776701
0.12333346 -0.02098204 0.56741858 1776701
0.1243503 -0.020980915 0.56738812 1842494
0.1254012 -0.020985508 0.56751233 1908287
0.12645236 -0.020990068 0.56763566 2039871
0.12750897 -0.020995453 0.56778127 2237754
0.12883949 -0.021045497 0.56913459 2764601
0.13035652 -0.02112497 0.57128382 3093313
0.13361956 -0.021483928 0.58099115 1644860
0.076776065 -0.020938927 0.59529126 2105400
0.076991931 -0.020708175 0.58873099 394549
0.07762526 -0.020594457 0.58549798 394548
0.078335479 -0.020503916 0.58292395 526389
0.079072908 -0.020422803 0.5806179 921141
0.079759382 -0.020330824 0.57800293 1381170
0.080480494 -0.020249931 0.57570314 2236724
0.081223704 -0.020176589 0.57361805 2698036
0.081988961 -0.020110499 0.57173914 2632498
0.082813181 -0.020060334 0.57031298 2040106
0.083675541 -0.020020528 0.56918126 2501176
0.084611468 -0.019999074 0.56857133 2369080
0.085587353 -0.019987466 0.5682413 2105914
0.086586691 -0.019981544 0.56807297 2105658
0.087598622 -0.019978633 0.56799018 2039867
0.088611811 -0.019976072 0.56791741 2105403
0.08962474 -0.019973513 0.56784463 2105658
0.090637401 -0.019970953 0.56777185 2105658
0.091648728 -0.019968158 0.5676924 2105658
0.092659667 -0.019965343 0.56761235 2105659
0.093670309 -0.019962525 0.56753224 2039867
0.094680682 -0.019959711 0.56745225 1974075
0.095690757 -0.019956896 0.5673722 1974075
0.096700549 -0.019954082 0.56729221 1973819
0.097710066 -0.019951271 0.56721228 1908282
0.098719299 -0.019948458 0.56713235 1908283
0.099728249 -0.019945649 0.56705248 1908283
0.10073698 -0.019942855 0.56697303 1973819
0.10174545 -0.019940063 0.56689364 1974075
0.10275507 -0.019937551 0.56682223 1974076
0.10376395 -0.019934945 0.56674814 1974076
0.10477256 -0.019932341 0.56667411 1974076
0.1057809 -0.019929735 0.56660002 1974076
0.10678899 -0.019927131 0.566526 1908540
0.10779681 -0.019924529 0.56645203 1908284
0.10880436 -0.019921925 0.566378 1908284
0.10981166 -0.019919323 0.56630403 1908284
0.11081869 -0.019916724 0.56623012 1908284
0.11182545 -0.019914122 0.56615615 1842492
0.11283196 -0.019911522 0.56608224 1842492
0.11383821 -0.019908924 0.56600839 1842236
0.11484418 -0.019906325 0.56593448 1776700
0.11585315 -0.019904286 0.56587648 1776444
0.11687489 -0.019904457 0.56588137 1776444
0.11789428 -0.019904228 0.56587487 1776701
0.11890928 -0.019903271 0.56584764 1842237
0.11992417 -0.019902309 0.56582034 1908286
0.12093899 -0.019901352 0.5657931 1974078
0.12195368 -0.019900391 0.5657658 2039870
0.12297906 -0.019901175 0.56578809 2039870
0.12401878 -0.019904248 0.56587547 1974333
0.12506376 -0.01990811 0.5659852 2040380
0.12619415 -0.019925393 0.56647658 2632767
0.12746586 -0.019964531 0.56758928 3356994
0.12883748 -0.020018572 0.56912565 3685444
0.13059883 -0.020131836 0.57234573 2500672
0.13306361 -0.020350907 0.57857388 1381695
0.13580649 -0.020608768 0.58590484 2105403
0.07616736 -0.019707639 0.59057158 328755
0.07676401 -0.019588059 0.58698815 328755
0.077470839 -0.019499462 0.58433324 394804
0.078220561 -0.019423896 0.5820688 460598
0.07898441 -0.019353796 0.57996809 658234
0.079760678 -0.019288529 0.57801229 789300
0.08051613 -0.01921998 0.57595807 1315379
0.081300229 -0.019159926 0.57415849 2039605
0.08206179 -0.01909614 0.57224703 2960695
0.08284571 -0.019039078 0.57053703 2829365
0.083679408 -0.018994711 0.56920755 2961465
0.084549122 -0.0189595 0.56815237 2961977
0.08543738 -0.018929241 0.5672456 2566968
0.086380363 -0.018911676 0.56671929 2237752
0.087353148 -0.018900974 0.56639856 2237242
0.088340022 -0.018893531 0.56617552 2237243
0.089347653 -0.018890647 0.56608909 2237498
0.090354621 -0.018887689 0.56600046 2237498
0.091360345 -0.018884541 0.56590611 2237498
0.092365772 -0.018881401 0.56581199 2171706
0.093370877 -0.018878266 0.56571805 2105914
0.094376877 -0.018875375 0.56563145 2105659
0.095383845 -0.01887274 0.56555247 2039867
0.096390523 -0.018870102 0.56547344 2039867
0.097396925 -0.018867467 0.56539446 1974075
0.098403037 -0.018864831 0.56531549 2039867
0.099408872 -0.018862195 0.56523651 2039868
0.10041443 -0.018859563 0.56515759 2105660
0.10142012 -0.018857006 0.565081 2105660
0.10242703 -0.018854728 0.56501269 2171452
0.1034337 -0.018852448 0.56494439 2171453
0.10444012 -0.018850168 0.56487608 2171709
0.10544629 -0.018847888 0.56480777 2171453
0.10645147 -0.018845476 0.56473547 2105917
0.10745615 -0.018843021 0.56466192 2105661
0.10846058 -0.01884057 0.56458843 2039869
0.10946473 -0.018838117 0.56451494 2039613
0.11046863 -0.018835664 0.56444144 1973821
0.11147226 -0.018833213 0.56436795 1908285
0.11247563 -0.018830761 0.56429452 1908285
0.11347874 -0.01882831 0.56422108 1908285
0.11448248 -0.018826008 0.56415206 1908285
0.1155011 -0.01882617 0.56415695 1908285
0.11651974 -0.018826334 0.56416184 1973821
0.1175384 -0.018826498 0.56416672 2039870
0.11855707 -0.01882666 0.56417161 2171454
0.11957087 -0.018826051 0.56415337 2237502
0.12058472 -0.018825462 0.56413573 2434623
0.12161554 -0.018827511 0.56419712 2500671
0.12264659 -0.01882956 0.56425852 2435134
0.12369885 -0.018834805 0.56441569 1908791
0.12489514 -0.018861715 0.56522208 3093567
0.1261432 -0.018895946 0.56624788 3948873
0.1274635 -0.018940361 0.56757885 3487811
0.1289977 -0.019015597 0.5698334 2697792
0.13094237 -0.019149676 0.57385129 2039362
0.13273297 -0.019259294 0.57713622 1250111
0.13480265 -0.019407386 0.58157402 657979
0.075580359 -0.018761082 0.59433252 2105400
0.075934194 -0.018585293 0.58876371 328500
0.076594502 -0.018488329 0.58569199 328755
0.07732325 -0.018410299 0.58322006 460340
0.078099348 -0.018345485 0.5811668 460597
0.078907952 -0.018289922 0.57940668 460855
0.079720065 -0.018236615 0.57771796 591670
0.080541767 -0.01818685 0.57614148 723252
0.081336819 -0.018132411 0.57441688 723252
0.08213976 -0.01808108 0.57279074 1710135
0.082930043 -0.01802827 0.57111782 2697529
0.083731145 -0.01797908 0.56955951 3355709
0.084565967 -0.017938234 0.56826556 3487549
0.085436448 -0.017905843 0.5672394 3553856
0.086329766 -0.017878946 0.56638736 2501170
0.087222219 -0.017852502 0.56554961 2237747
0.088143706 -0.017832542 0.56491733 2303031
0.089110442 -0.017822089 0.56458616 2303546
0.090086736 -0.017813761 0.56432235 2303290
0.091085099 -0.017809937 0.56420118 2434874
0.0920837 -0.017806241 0.56408411 2369338
0.093085743 -0.017803285 0.56399047 2303547
0.094087504 -0.017800339 0.56389713 2303035
0.095088929 -0.017797394 0.56380385 2302780
0.096090026 -0.017794449 0.56371057 2237244
0.097090796 -0.017791506 0.56361735 2237244
0.098091222 -0.017788563 0.56352413 2303036
0.099091537 -0.017785661 0.56343216 2303293
0.10009393 -0.017783185 0.56335378 2368829
0.10109693 -0.017780866 0.56328028 2434621
0.10210066 -0.017778721 0.56321234 2434877
0.10310415 -0.017776579 0.56314445 2434878
0.10410742 -0.017774437 0.56307662 2500670
0.10511043 -0.017772295 0.56300873 2500671
0.1061132 -0.017770153 0.5629409 2434878
0.10711573 -0.017768012 0.56287307 2368830
0.10811803 -0.017765872 0.56280529 2237246
0.10911998 -0.017763719 0.56273705 2171453
0.11012077 -0.017761413 0.56266403 2105405
0.11112128 -0.017759109 0.56259102 2039869
0.11212153 -0.017756803 0.562518 2039614
0.11312153 -0.017754501 0.56244504 2039870
0.11413567 -0.017754437 0.56244302 2105406
0.11515119 -0.017754588 0.56244785 2171198
0.11616675 -0.017754743 0.56245273 2171454
0.11718314 -0.017755022 0.56246156 2303039
0.11820193 -0.017755654 0.56248158 2369087
0.11922653 -0.017757142 0.56252873 2500672
0.12026151 -0.017760137 0.56262362 2501185
0.12129652 -0.017763088 0.56271708 2435137
0.12241282 -0.017777795 0.56318301 2895938
0.12360178 -0.017802726 0.56397277 3685447
0.12484934 -0.017835621 0.56501484 4211787
0.12616022 -0.017876953 0.56632423 3948104
0.12761401 -0.017937712 0.56824899 2632000
0.12915587 -0.018009784 0.57053214 2236738
0.13087869 -0.018105747 0.57357216 1512770
0.13244142 -0.018178234 0.57586849 986940
0.13425644 -0.01828395 0.57921749 591931
0.1366052 -0.018460162 0.58479971 1250107
0.075226262 -0.017606147 0.59154809 394549
0.07575769 -0.017482543 0.58739513 328756
0.076455489 -0.017400214 0.584629 328755
0.077198595 -0.017330296 0.5822798 460084
0.078008749 -0.017277105 0.58049262 329010
0.078831434 -0.017228063 0.57884485 460595
0.079669528 -0.017183624 0.57735175 394806
0.080495514 -0.017137755 0.57581061 723508
0.081365883 -0.017102383 0.57462215 526133
0.082169883 -0.017054128 0.57300079 657462
0.083017699 -0.017016049 0.57172143 1249078
0.083833903 -0.016972508 0.5702585 2170938
0.084656 -0.0169312 0.5688706 3223871
0.085487843 -0.016892808 0.56758064 3947843
0.086342059 -0.016859692 0.566468 3487549
0.087238155 -0.016835432 0.56565291 3159098
0.088135786 -0.016812028 0.56486654 2764601
0.089037932 -0.01679001 0.56412673 2764348
0.089961998 -0.016772576 0.563541 2961728
0.090893783 -0.016756954 0.56301612 2895937
0.091853321 -0.016746739 0.56267285 2238270
0.092841499 -0.016741909 0.56251061 2566717
0.093835659 -0.016738253 0.56238776 2500924
0.094831504 -0.016734971 0.5622775 2500669
0.095826305 -0.016731577 0.56216347 2566205
0.096820712 -0.016728185 0.56204951 2566462
0.097816415 -0.016725086 0.56194538 2698047
0.098813765 -0.016722329 0.56185275 2829632
0.099810787 -0.016719572 0.56176013 2895424
0.10080589 -0.016716555 0.56165874 2895424
0.10179952 -0.016713353 0.56155115 2895424
0.10279275 -0.016710153 0.56144363 2895168
0.10378724 -0.016707215 0.56134492 2895424
0.10478613 -0.016705034 0.56127167 2895424
0.10578476 -0.016702857 0.56119847 2829632
0.10678314 -0.016700679 0.56112534 2698047
0.10778123 -0.016698502 0.56105214 2566207
0.10877908 -0.016696325 0.56097901 2368831
0.10977668 -0.016694149 0.56090593 2237246
0.110774 -0.016691973 0.5608328 2171198
0.11177317 -0.016690113 0.56077027 2171453
0.11278813 -0.016690619 0.56078732 2236991
0.11380567 -0.016691497 0.56081682 2303039
0.1148233 -0.016692374 0.56084627 2368831
0.11584105 -0.016693251 0.56087577 2434623
0.11685891 -0.01669413 0.56090528 2435135
0.11790359 -0.016698793 0.56106192 2500928
0.1189623 -0.016705343 0.56128204 2830147
0.12006229 -0.016717535 0.56169164 2567232
0.12120089 -0.01673485 0.56227344 3356483
0.12237765 -0.016757105 0.56302118 4540492
0.123616 -0.016787358 0.56403762 4540750
0.12493972 -0.016828615 0.56542385 3355973
0.12635784 -0.016881816 0.56721133 2697281
0.12777573 -0.016934132 0.56896913 2170691
0.12919717 -0.016986081 0.57071453 1578562
0.13078162 -0.017058473 0.57314682 986688
0.13225104 -0.01711484 0.5750407 1052732
0.13387634 -0.017190346 0.57757765 592187
0.13585792 -0.017310083 0.58160067 460604
0.075009681 -0.016491491 0.589845 394293
0.075618714 -0.016392868 0.5863176 328756
0.076335236 -0.016319947 0.58370948 328756
0.077111781 -0.016261667 0.58162498 328754
0.077924423 -0.016212463 0.57986516 329010
0.078753412 -0.016167918 0.57827193 460339
0.079611838 -0.016130503 0.57693368 329012
0.080458686 -0.016091738 0.57554716 526132
0.081334777 -0.016059732 0.57440245 460599
0.082200147 -0.016026445 0.57321185 526134
0.08305607 -0.015992163 0.57198572 722999
0.083915494 -0.015959388 0.57081348 920630
0.084760971 -0.015924789 0.56957597 1183801
0.085610583 -0.015891785 0.56839556 2368062
0.086466506 -0.01586072 0.56728446 3158081
0.087304853 -0.015827196 0.5660854 4211014
0.088185437 -0.015802015 0.56518477 4079685
0.089077957 -0.015779525 0.56438035 3816514
0.089974396 -0.015758228 0.56361866 3816515
0.090886191 -0.015740067 0.56296909 3817030
0.091809995 -0.015724363 0.56240743 3751494
0.092736408 -0.015709447 0.56187391 2896707
0.093680926 -0.015697885 0.56146038 2501698
0.094644576 -0.015689742 0.56116915 2567233
0.095621943 -0.015684023 0.56096458 2698818
0.096605718 -0.015679462 0.56080145 2763840
0.097588897 -0.0156749 0.56063831 2961732
0.098572254 -0.015670462 0.56047952 3225160
0.099562727 -0.015667232 0.56036401 3290951
0.10055266 -0.015663981 0.56024778 3224900
0.1015421 -0.015660722 0.56013119 3159107
0.10253112 -0.015657462 0.56001461 3093314
0.10352001 -0.015654244 0.55989951 3093058
0.10450859 -0.015651045 0.55978507 3027266
0.10549676 -0.015647845 0.55967063 2961217
0.10648837 -0.01564521 0.55957639 2698048
0.10748633 -0.01564355 0.55951703 2500672
0.10849275 -0.01564314 0.55950236 2435136
0.10949857 -0.015642652 0.5594849 2369088
0.11050723 -0.015642578 0.55948222 2237247
0.11152223 -0.01564339 0.5595113 2171454
0.11251195 -0.015640674 0.55941415 2237501
0.11352988 -0.015641894 0.55945778 2566206
0.11456269 -0.015645126 0.55957335 2698305
0.11563121 -0.015653133 0.55985975 2699068
0.11672876 -0.015664898 0.56028056 3093822
0.11781889 -0.015675476 0.56065887 3685700
0.1189383 -0.015689734 0.56116885 4277578
0.12009701 -0.015708892 0.56185406 4211527
0.12128242 -0.015731193 0.56265169 4277064
0.12252178 -0.015760062 0.56368428 3750470
0.12381606 -0.015795464 0.56495047 2894913
0.12515795 -0.015836313 0.5664115 2433858
0.1264839 -0.015874498 0.56777722 1907523
0.12784699 -0.015916692 0.56928641 1315394
0.12924354 -0.015962349 0.57091939 986687
0.13068177 -0.016012391 0.5727092 723518
0.13209932 -0.016059132 0.57438099 526140
0.13364348 -0.016120419 0.57657301 657723
0.13541599 -0.016208092 0.57970876 460604
0.13772115 -0.016357685 0.58505923 1315901
0.074383311 -0.015518821 0.59333557 2171193
0.074848972 -0.015394469 0.5885812 328757
0.075493887 -0.015309949 0.58534974 328757
0.076241381 -0.015248276 0.58299178 329013
0.077031523 -0.015196695 0.58101964 394291
0.077847891 -0.015151603 0.57929564 460084
0.078686774 -0.01511203 0.57778263 525876
0.079554237 -0.015078908 0.57651627 329012
0.080426417 -0.015047523 0.57531631 460341
0.081304684 -0.015018063 0.57418996 394806
0.08218319 -0.014989387 0.57309359 526135
0.083069026 -0.014962744 0.57207495 657207
0.083950669 -0.014936008 0.57105273 526390
0.084810697 -0.014906122 0.56991011 788791
0.085693263 -0.014880866 0.56894445 986169
0.086577155 -0.014856434 0.56801039 1183801
0.087440372 -0.014829068 0.56696409 1973310
0.088291004 -0.014800226 0.56586134 2894401
0.089179918 -0.014778387 0.56502634 3289664
0.090066724 -0.014756695 0.564197 4013632
0.090956055 -0.014735897 0.56340182 4276803
0.09185838 -0.014717641 0.56270385 4408390
0.092771411 -0.014701481 0.56208599 4342854
0.09369842 -0.01468786 0.56156522 4211526
0.094637103 -0.014676343 0.56112486 3422273
0.095577985 -0.014665404 0.56070668 3619908
0.09652815 -0.014656107 0.56035119 3225410
0.097483121 -0.014647723 0.56003064 2304056
0.098445341 -0.014640589 0.55975789 2830660
0.099413618 -0.014634492 0.55952477 2896711
0.10038715 -0.014629283 0.55932564 2962244
0.10136423 -0.014624689 0.55914998 2764865
0.10234862 -0.014621231 0.55901778 2896960
0.10333198 -0.014617695 0.55888259 3028290
0.10431466 -0.01461413 0.55874628 3094082
0.10530919 -0.01461228 0.55867553 2896449
0.10631246 -0.014611665 0.55865204 2830401
0.10732109 -0.014611792 0.55865687 2699071
0.10833111 -0.014612103 0.55866879 2765120
0.10935352 -0.014614064 0.55874377 2830657
0.11039348 -0.014618314 0.55890626 2961728
0.1114324 -0.01462235 0.55906057 3093059
0.11248182 -0.01462768 0.55926436 3817287
0.11353476 -0.01463337 0.55948186 3619649
0.11460689 -0.014641409 0.55978924 3750976
0.11569547 -0.014651391 0.56017089 4014403
0.11678979 -0.014661922 0.56057352 4211780
0.11790178 -0.01467447 0.56105328 4606281
0.11905403 -0.014691775 0.56171489 4605511
0.12024615 -0.014713665 0.5625518 3947331
0.12147962 -0.014740205 0.56356657 3025728
0.12271997 -0.014767134 0.56459612 2302271
