# .PCD v0.7 - Point Cloud Data file format
VERSION 0.7
FIELDS x y z rgb
SIZE 4 4 4 4
TYPE F F F U
COUNT 1 1 1 1
WIDTH 1156
HEIGHT 1
VIEWPOINT 0 0 0 1 0 0 0
POINTS 1156
DATA ascii
0.29115134 0.18362127 0.50519335 2236962
0.29024279 0.18453427 0.50519806 1381653
0.291152 0.18453296 0.50519449 1381653
0.28842491 0.18544857 0.50520629 1776411
0.28933421 0.18544728 0.50520277 1381653
0.29024348 0.18544598 0.50519925 1381653
0.29115269 0.18544467 0.50519568 1381653
0.28660703 0.18636292 0.50521457 1776411
0.28751633 0.18636163 0.50521106 1381653
0.28842559 0.1863603 0.50520748 1381653
0.28933489 0.186359 0.50520396 1381653
0.29024413 0.18635769 0.50520039 1381653
0.29115337 0.18635638 0.50519687 1381653
0.28478909 0.1872773 0.50522286 2236962
0.28569838 0.18727598 0.50521928 1381653
0.28660771 0.18727466 0.50521576 1381653
0.28751698 0.18727334 0.50521219 1381653
0.28842628 0.18727204 0.50520867 1381653
0.28933558 0.18727073 0.50520515 1381653
0.29024482 0.1872694 0.50520158 1381653
0.29115406 0.18726811 0.50519806 1381653
0.28388041 0.18819037 0.50522757 1776411
0.28478971 0.18818904 0.50522399 1381653
0.28569907 0.18818773 0.50522047 1381653
0.28660837 0.18818642 0.50521696 1381653
0.28751767 0.1881851 0.50521338 1381653
0.28842697 0.18818378 0.50520986 1381653
0.2893362 0.18818246 0.50520629 1381653
0.2902455 0.18818115 0.50520277 1381653
0.29115474 0.18817984 0.50519925 1381653
0.28206232 0.1891048 0.50523579 1776411
0.28297171 0.18910347 0.50523227 1381653
0.28388107 0.18910216 0.50522876 1381653
0.2847904 0.18910082 0.50522518 1381653
0.28569973 0.18909951 0.50522166 1381653
0.28660902 0.18909816 0.50521809 1381653
0.28751835 0.18909685 0.50521457 1381653
0.28842765 0.18909553 0.50521106 1381653
0.28933689 0.1890942 0.50520748 1381653
0.29024619 0.18909287 0.50520396 1381653
0.2911554 0.18909153 0.50520039 1381653
0.28024423 0.19001925 0.50524408 1776411
0.28115362 0.19001794 0.50524056 1381653
0.28206298 0.19001658 0.50523698 1381653
0.28297237 0.19001527 0.50523347 1381653
0.28388169 0.19001392 0.50522989 1381653
0.28479105 0.1900126 0.50522637 1381653
0.28570041 0.19001128 0.50522286 1381653
0.28660971 0.19000992 0.50521928 1381653
0.28751901 0.19000861 0.50521576 1381653
0.28842828 0.19000725 0.50521219 1381653
0.28933758 0.19000594 0.50520867 1381653
0.29024687 0.19000462 0.50520515 1381653
0.29115608 0.19000328 0.50520158 1381653
0.27933547 0.19093239 0.50524879 1381653
0.28024489 0.19093107 0.50524527 1381653
0.28115427 0.19092971 0.50524169 1381653
0.28206366 0.19092838 0.50523818 1381653
0.28297305 0.19092706 0.50523466 1381653
0.28388238 0.1909257 0.50523108 1381653
0.28479174 0.19092438 0.50522757 1381653
0.28570104 0.19092302 0.50522399 1381653
0.28661036 0.19092169 0.50522047 1381653
0.28751969 0.19092037 0.50521696 1381653
0.28842896 0.19091901 0.50521338 1381653
0.28933826 0.19091769 0.50520986 1381653
0.2902475 0.19091634 0.50520629 1381653
0.29115677 0.190915 0.50520277 1381653
0.27751726 0.19184692 0.50525707 1776411
0.27842668 0.19184555 0.50525349 1381653
0.27933612 0.19184422 0.50524998 1381653
0.28024554 0.19184288 0.50524646 1381653
0.28115493 0.19184153 0.50524288 1381653
0.28206432 0.19184019 0.50523937 1381653
0.28297368 0.19183883 0.50523579 1381653
0.28388304 0.1918375 0.50523227 1381653
0.28479239 0.19183616 0.50522876 1381653
0.28570172 0.19183481 0.50522518 1381653
0.28661105 0.19183347 0.50522166 1381653
0.28752035 0.19183211 0.50521809 1381653
0.28842965 0.19183078 0.50521457 1381653
0.28933895 0.19182944 0.50521106 1381653
0.29024819 0.19182809 0.50520748 1381653
0.29115745 0.19182675 0.50520396 1381653
0.27569899 0.19276144 0.5052653 1776411
0.27660847 0.1927601 0.50526178 1381653
0.27751791 0.19275875 0.50525826 1381653
0.27842733 0.1927574 0.50525469 1381653
0.27933678 0.19275606 0.50525117 1381653
0.28024617 0.19275469 0.50524759 1381653
0.28115559 0.19275334 0.50524408 1381653
0.28206497 0.192752 0.50524056 1381653
0.28297433 0.19275063 0.50523698 1381653
0.28388372 0.19274929 0.50523347 1381653
0.28479305 0.19274794 0.50522989 1381653
0.28570241 0.19274659 0.50522637 1381653
0.28661174 0.19274525 0.50522286 1381653
0.28752103 0.19274388 0.50521928 1381653
0.28843033 0.19274254 0.50521576 1381653
0.2893396 0.19274119 0.50521219 1381653
0.29024887 0.19273984 0.50520867 1381653
0.29115814 0.1927385 0.50520515 1381653
0.27388066 0.19367602 0.50527358 2236962
0.27479017 0.19367467 0.50527006 1381653
0.27569965 0.1936733 0.50526649 1381653
0.27660912 0.19367196 0.50526297 1381653
0.27751854 0.19367059 0.50525939 1381653
0.27842799 0.19366923 0.50525588 1381653
0.27933744 0.19366789 0.50525236 1381653
0.28024682 0.19366652 0.50524879 1381653
0.28115624 0.19366516 0.50524527 1381653
0.28206563 0.19366379 0.50524169 1381653
0.28297502 0.19366245 0.50523818 1381653
0.28388438 0.19366109 0.50523466 1381653
0.2847937 0.19365972 0.50523108 1381653
0.28570306 0.19365838 0.50522757 1381653
0.28661236 0.19365701 0.50522399 1381653
0.28752169 0.19365565 0.50522047 1381653
0.28843102 0.19365431 0.50521696 1381653
0.28934029 0.19365294 0.50521338 1381653
0.29024956 0.19365159 0.50520986 1381653
0.2911588 0.19365022 0.50520629 1381653
0.27330714 0.1948283 0.50589901 1315860
0.27388132 0.19458789 0.50527477 1381653
0.27479079 0.19458652 0.5052712 1381653
0.2757003 0.19458516 0.50526768 1381653
0.27660978 0.1945838 0.50526416 1381653
0.2775192 0.19458243 0.50526059 1381653
0.27842864 0.19458108 0.50525707 1381653
0.27933806 0.19457971 0.50525349 1381653
0.28024751 0.19457835 0.50524998 1381653
0.28115693 0.19457699 0.50524646 1381653
0.28206629 0.19457561 0.50524288 1381653
0.28297567 0.19457425 0.50523937 1381653
0.28388503 0.19457288 0.50523579 1381653
0.28479439 0.19457152 0.50523227 1381653
0.28570375 0.19457017 0.50522876 1381653
0.28661305 0.1945688 0.50522518 1381653
0.28752238 0.19456744 0.50522166 1381653
0.28843164 0.19456606 0.50521809 1381653
0.28934097 0.19456472 0.50521457 1381653
0.29025024 0.19456336 0.50521106 1381653
0.29115948 0.19456197 0.50520748 1381653
0.2755942 0.19870575 0.5135619 1776411
0.27490705 0.19754627 0.51056522 1315860
0.27422786 0.19640025 0.50760329 1315860
0.27388197 0.19549978 0.50527596 1381653
0.27479145 0.19549839 0.50527239 1381653
0.27570093 0.19549702 0.50526887 1381653
0.27661037 0.19549565 0.5052653 1381653
0.27751985 0.19549428 0.50526178 1381653
0.27842933 0.19549292 0.50525826 1381653
0.27933872 0.19549154 0.50525469 1381653
0.28024817 0.19549018 0.50525117 1381653
0.28115755 0.1954888 0.50524759 1381653
0.28206694 0.19548744 0.50524408 1381653
0.28297636 0.19548607 0.50524056 1381653
0.28388569 0.19548468 0.50523698 1381653
0.28479505 0.19548333 0.50523347 1381653
0.28570437 0.19548194 0.50522989 1381653
0.28661373 0.19548059 0.50522637 1381653
0.28752306 0.19547923 0.50522286 1381653
0.28843233 0.19547784 0.50521928 1381653
0.28934163 0.19547649 0.50521576 1381653
0.2902509 0.1954751 0.50521219 1381653
0.29116017 0.19547373 0.50520867 1381653
0.27795163 0.20270245 0.52146047 1776411
0.27723998 0.20150156 0.51837116 1315860
0.27653673 0.20031485 0.51531827 1315860
0.27584171 0.19914201 0.51230109 1315860
0.2751548 0.19798283 0.50931907 1315860
0.27447581 0.19683707 0.50637156 1315860
0.2747921 0.19641027 0.50527358 1381653
0.27570158 0.1964089 0.50527006 1381653
0.27661103 0.19640751 0.50526649 1381653
0.27752051 0.19640614 0.50526297 1381653
0.27842993 0.19640476 0.50525939 1381653
0.27933937 0.19640338 0.50525588 1381653
0.28024882 0.19640201 0.50525236 1381653
0.28115821 0.19640063 0.50524879 1381653
0.28206763 0.19639926 0.50524527 1381653
0.28297698 0.19639787 0.50524169 1381653
0.28388637 0.1963965 0.50523818 1381653
0.28479573 0.19639514 0.50523466 1381653
0.28570506 0.19639374 0.50523108 1381653
0.28661439 0.19639239 0.50522757 1381653
0.28752369 0.19639099 0.50522399 1381653
0.28843302 0.19638962 0.50522047 1381653
0.28934231 0.19638826 0.50521696 1381653
0.29025158 0.19638686 0.50521338 1381653
0.29116088 0.1963855 0.50520986 1381653
0.28038266 0.20682402 0.52960581 2171169
0.27964535 0.20557968 0.52641952 1315860
0.27891687 0.20435026 0.52327138 1315860
0.27819705 0.20313546 0.52016068 1315860
0.27748573 0.20193499 0.51708668 1315860
0.27678278 0.20074865 0.51404887 1315860
0.276088 0.19957614 0.51104647 1315860
0.27540132 0.19841726 0.50807899 1315860
0.27479273 0.19732215 0.50527477 1315860
0.27570221 0.19732076 0.5052712 1381653
0.27661169 0.19731937 0.50526768 1381653
0.27752116 0.197318 0.50526416 1381653
0.27843061 0.1973166 0.50526059 1381653
0.27934006 0.19731523 0.50525707 1381653
0.28024945 0.19731385 0.50525349 1381653
0.28115886 0.19731246 0.50524998 1381653
0.28206828 0.19731109 0.50524646 1381653
0.28297764 0.1973097 0.50524288 1381653
0.28388703 0.19730832 0.50523937 1381653
0.28479636 0.19730693 0.50523579 1381653
0.28570575 0.19730555 0.50523227 1381653
0.28661507 0.19730417 0.50522876 1381653
0.28752437 0.19730279 0.50522518 1381653
0.2884337 0.1973014 0.50522166 1381653
0.28934297 0.19730002 0.50521809 1381653
0.29025227 0.19729865 0.50521457 1381653
0.29116157 0.19729726 0.50521106 1381653
0.28212664 0.20978646 0.53472179 1315860
0.28137162 0.20851219 0.53147382 1315860
0.28062576 0.20725334 0.52826512 1315860
0.27988887 0.20600957 0.52509493 1315860
0.27916074 0.20478064 0.52196252 1315860
0.27844128 0.20356631 0.51886731 1315860
0.27773029 0.20236628 0.51580858 1315860
0.27702761 0.20118031 0.51278567 1315860
0.27633309 0.20000815 0.50979799 1315860
0.27564666 0.19884959 0.50684494 1315860
0.27570286 0.19823264 0.50527239 1381653
0.27661234 0.19823125 0.50526887 1381653
0.27752179 0.19822985 0.5052653 1381653
0.27843127 0.19822846 0.50526178 1381653
0.27934071 0.19822709 0.50525826 1381653
0.2802501 0.19822569 0.50525469 1381653
0.28115952 0.19822431 0.50525117 1381653
0.28206891 0.19822291 0.50524759 1381653
0.28297833 0.19822152 0.50524408 1381653
0.28388771 0.19822015 0.50524056 1381653
0.28479704 0.19821875 0.50523698 1381653
0.2857064 0.19821736 0.50523347 1381653
0.28661573 0.19821596 0.50522989 1381653
0.28752506 0.19821458 0.50522637 1381653
0.28843439 0.1982132 0.50522286 1381653
0.28934366 0.1982118 0.50521928 1381653
0.29025295 0.19821042 0.50521576 1381653
0.29116219 0.19820902 0.50521219 1381653
0.28468743 0.21412806 0.54329014 1776411
0.28390455 0.21280667 0.5399375 1315860
0.28313136 0.21150155 0.5366261 1315860
0.28236759 0.21021232 0.53335506 1315860
0.28161305 0.20893873 0.53012365 1315860
0.28086764 0.20768046 0.52693117 1315860
0.28013116 0.20643729 0.52377695 1315860
0.27940339 0.20520888 0.52066022 1315860
0.27868426 0.203995 0.51758033 1315860
0.27797359 0.20279543 0.51453674 1315860
0.27727121 0.20160985 0.51152867 1315860
0.276577 0.20043807 0.50855559 1315860
0.27589083 0.19927983 0.5056169 1315860
0.276613 0.19914313 0.50527006 1381653
0.27752244 0.19914173 0.50526649 1381653
0.27843192 0.19914034 0.50526297 1381653
0.27934134 0.19913892 0.50525939 1381653
0.28025076 0.19913754 0.50525588 1381653
0.28116021 0.19913615 0.50525236 1381653
0.28206959 0.19913474 0.50524879 1381653
0.28297898 0.19913335 0.50524527 1381653
0.28388834 0.19913195 0.50524169 1381653
0.28479773 0.19913056 0.50523818 1381653
0.28570709 0.19912918 0.50523466 1381653
0.28661638 0.19912776 0.50523108 1381653
0.28752574 0.19912638 0.50522757 1381653
0.28843501 0.19912498 0.50522399 1381653
0.28934434 0.19912359 0.50522047 1381653
0.29025364 0.19912221 0.50521696 1381653
0.29116291 0.19912079 0.50521338 1381653
0.28733176 0.21861115 0.55213779 1776411
0.28651965 0.21724027 0.54867542 1315860
0.28571764 0.21588649 0.5452562 1315860
0.28492558 0.21454945 0.5418793 1315860
0.2841433 0.21322891 0.53854406 1315860
0.28337064 0.21192455 0.53524971 1315860
0.28260735 0.21063605 0.53199536 1315860
0.28185329 0.2093631 0.52878034 1315860
0.28110832 0.20810547 0.52560401 1315860
0.2803722 0.20686284 0.52246553 1315860
0.27964482 0.20563498 0.51936436 1315860
0.27892604 0.20442161 0.51629978 1315860
0.27821571 0.20322245 0.51327115 1315860
0.27751362 0.20203729 0.51027781 1315860
0.27681971 0.20086586 0.50731921 1315860
0.27661362 0.20005499 0.5052712 1381653
0.2775231 0.2000536 0.50526768 1381653
0.27843258 0.2000522 0.50526416 1381653
0.279342 0.20005079 0.50526059 1381653
0.28025144 0.2000494 0.50525707 1381653
0.28116083 0.20004798 0.50525349 1381653
0.28207025 0.20004658 0.50524998 1381653
0.28297964 0.2000452 0.50524646 1381653
0.283889 0.20004378 0.50524288 1381653
0.28479838 0.20004238 0.50523937 1381653
0.28570771 0.20004097 0.50523579 1381653
0.28661707 0.20003958 0.50523227 1381653
0.2875264 0.20003818 0.50522876 1381653
0.2884357 0.20003676 0.50522518 1381653
0.28934503 0.20003538 0.50522166 1381653
0.29025429 0.20003396 0.50521809 1381653
0.29116359 0.20003258 0.50521457 1381653
0.29006365 0.22324272 0.56127846 2171169
0.28922075 0.22181974 0.55770081 1315860
0.28838855 0.2204148 0.55416852 1315860
0.28756681 0.21902756 0.5506807 1315860
0.28675535 0.21765767 0.5472365 1315860
0.285954 0.21630482 0.54383516 1315860
0.28516251 0.21496867 0.54047579 1315860
0.28438085 0.21364897 0.53715783 1315860
0.28360868 0.21234538 0.53388029 1315860
0.28284591 0.2110576 0.53064257 1315860
0.2820923 0.20978534 0.52744383 1315860
0.28134775 0.20852834 0.52428347 1315860
0.28061205 0.2072863 0.52116072 1315860
0.27988505 0.20605895 0.51807493 1315860
0.27916664 0.20484607 0.5150255 1315860
0.27845663 0.20364739 0.51201177 1315860
0.27775487 0.20246266 0.50903308 1315860
0.27706125 0.20129162 0.50608885 1315860
0.27752376 0.20096548 0.50526887 1381653
0.2784332 0.20096405 0.5052653 1381653
0.27934265 0.20096266 0.50526178 1381653
0.2802521 0.20096126 0.50525826 1381653
0.28116149 0.20095983 0.50525469 1381653
0.2820709 0.20095843 0.50525117 1381653
0.28298029 0.20095702 0.50524759 1381653
0.28388968 0.20095561 0.50524408 1381653
0.28479907 0.20095421 0.50524056 1381653
0.2857084 0.2009528 0.50523698 1381653
0.28661776 0.2009514 0.50523347 1381653
0.28752705 0.20094997 0.50522989 1381653
0.28843638 0.20094857 0.50522637 1381653
0.28934571 0.20094718 0.50522286 1381653
0.29025498 0.20094575 0.50521928 1381653
0.29116428 0.20094435 0.50521576 1381653
0.29201221 0.22655238 0.56702811 1776411
0.29114822 0.22509365 0.56337708 1315860
0.29029524 0.22365354 0.55977273 1315860
0.28945315 0.22223179 0.55621427 1315860
0.28862163 0.22082797 0.5527007 1315860
0.28780061 0.21944179 0.54923129 1315860
0.28698984 0.21807289 0.54580516 1315860
0.28618908 0.21672095 0.54242146 1315860
0.28539827 0.21538575 0.53907961 1315860
0.28461713 0.21406686 0.53577864 1315860
0.28384551 0.21276405 0.53251791 1315860
0.28308323 0.21147703 0.52929664 1315860
0.2823301 0.21020544 0.52611405 1315860
0.28158599 0.20894907 0.52296954 1315860
0.28085071 0.20770761 0.51986235 1315860
0.28012413 0.20648085 0.51679194 1315860
0.27940607 0.20526847 0.51375753 1315860
0.27869642 0.20407026 0.51075858 1315860
0.27799499 0.20288596 0.50779444 1315860
0.27752441 0.20187736 0.50527006 1381653
0.27843386 0.20187593 0.50526649 1381653
0.27934331 0.20187452 0.50526297 1381653
0.28025272 0.20187309 0.50525939 1381653
0.28116214 0.20187169 0.50525588 1381653
0.28207159 0.20187029 0.50525236 1381653
0.28298095 0.20186886 0.50524879 1381653
0.28389034 0.20186746 0.50524527 1381653
0.2847997 0.20186603 0.50524169 1381653
0.28570905 0.20186462 0.50523818 1381653
0.28661841 0.20186321 0.50523466 1381653
0.28752774 0.20186178 0.50523108 1381653
0.28843707 0.20186038 0.50522757 1381653
0.28934637 0.20185895 0.50522399 1381653
0.29025567 0.20185755 0.50522047 1381653
0.29116496 0.20185614 0.50521696 1381653
0.29489866 0.23144604 0.57667273 1776411
0.29400113 0.22993059 0.57289684 1315860
0.29311529 0.22843486 0.56917006 1315860
0.29224092 0.22695848 0.5654915 1315860
0.29137775 0.22550105 0.56186014 1315860
0.29052559 0.2240622 0.5582751 1315860
0.28968427 0.22264163 0.5547356 1315860
0.28885353 0.22123893 0.55124062 1315860
0.28803319 0.21985382 0.54778945 1315860
0.28722307 0.21848592 0.5443812 1315860
0.28642297 0.21713497 0.54101515 1315860
0.28563279 0.21580066 0.53769058 1315860
0.28485221 0.21448262 0.53440654 1315860
0.28408113 0.2131806 0.53116244 1315860
0.28331935 0.21189432 0.5279575 1315860
0.2825667 0.21062343 0.52479094 1315860
0.28182304 0.20936771 0.52166218 1315860
0.28108817 0.20812686 0.51857048 1315860
0.28036201 0.20690066 0.51551527 1315860
0.27964434 0.2056888 0.51249582 1315860
0.27893499 0.20449105 0.50951147 1315860
0.27823389 0.20330718 0.50656176 1315860
0.27843451 0.20278782 0.50526768 1381653
0.27934396 0.2027864 0.50526416 1381653
0.28025338 0.20278497 0.50526059 1381653
0.28116283 0.20278355 0.50525707 1381653
0.28207222 0.20278212 0.50525349 1381653
0.28298163 0.20278071 0.50524998 1381653
0.28389102 0.20277929 0.50524646 1381653
0.28480038 0.20277786 0.50524288 1381653
0.28570974 0.20277645 0.50523937 1381653
0.28661907 0.20277502 0.50523579 1381653
0.28752843 0.2027736 0.50523227 1381653
0.28843775 0.2027722 0.50522876 1381653
0.28934702 0.20277075 0.50522518 1381653
0.29025635 0.20276935 0.50522166 1381653
0.29116562 0.20276791 0.50521809 1381653
0.29788497 0.23650903 0.58665109 1776411
0.29695213 0.23493381 0.58274382 1315860
0.29603165 0.23337945 0.5788883 1315860
0.29512328 0.23184551 0.57508343 1315860
0.29422671 0.2303316 0.57132822 1315860
0.29334185 0.22883737 0.56762183 1315860
0.29246834 0.22736235 0.56396312 1315860
0.29160604 0.22590625 0.56035131 1315860
0.29075477 0.22446869 0.55678552 1315860
0.28991416 0.22304928 0.55326474 1315860
0.2890842 0.22164775 0.5497883 1315860
0.28826457 0.22026369 0.54635519 1315860
0.28745511 0.21889682 0.5429647 1315860
0.28665569 0.21754685 0.53961617 1315860
0.28586605 0.21621342 0.53630865 1315860
0.2850861 0.21489626 0.53304148 1315860
0.28431556 0.21359505 0.52981389 1315860
0.28355429 0.21230948 0.5266251 1315860
0.28280213 0.21103932 0.52347451 1315860
0.28205892 0.20978425 0.52036136 1315860
0.28132451 0.20854403 0.51728505 1315860
0.2805987 0.20731838 0.51424485 1315860
0.27988142 0.20610707 0.51124024 1315860
0.27917242 0.20490982 0.5082705 1315860
0.27847162 0.20372638 0.50533503 1315860
0.27934459 0.20369826 0.5052653 1381653
0.28025404 0.20369685 0.50526178 1381653
0.28116348 0.20369542 0.50525826 1381653
0.28207287 0.20369399 0.50525469 1381653
0.28298229 0.20369257 0.50525117 1381653
0.28389165 0.20369112 0.50524759 1381653
0.28480104 0.20368971 0.50524408 1381653
0.28571042 0.20368829 0.50524056 1381653
0.28661975 0.20368685 0.50523698 1381653
0.28752908 0.20368543 0.50523347 1381653
0.28843841 0.20368399 0.50522989 1381653
0.28934771 0.20368257 0.50522637 1381653
0.29025704 0.20368116 0.50522286 1381653
0.29116631 0.20367971 0.50521928 1381653
0.30000633 0.24011202 0.5929352 1315860
0.29904932 0.23849581 0.58894414 1315860
0.29810506 0.23690119 0.58500636 1315860
0.29717338 0.23532777 0.58112091 1315860
0.29625398 0.23377511 0.57728678 1315860
0.29534662 0.23224279 0.57350284 1315860
0.29445112 0.23073044 0.56976825 1315860
0.29356715 0.22923766 0.56608194 1315860
0.29269457 0.22776406 0.56244302 1315860
0.29183316 0.22630931 0.55885065 1315860
0.29098263 0.22487298 0.55530375 1315860
0.29014286 0.2234548 0.55180168 1315860
0.28931364 0.22205441 0.54834354 1315860
0.28849474 0.22067145 0.54492843 1315860
0.28768596 0.21930559 0.54155558 1315860
0.28688717 0.21795659 0.53822434 1315860
0.28609818 0.2166241 0.53493387 1315860
0.28531879 0.2153078 0.53168339 1315860
0.28454879 0.21400738 0.52847213 1315860
0.28378803 0.21272258 0.52529943 1315860
0.28303638 0.21145314 0.52216464 1315860
0.28229362 0.21019873 0.51906699 1315860
0.28155965 0.20895913 0.51600593 1315860
0.28083423 0.20773405 0.5129807 1315860
0.28011733 0.20652328 0.50999081 1315860
0.27940869 0.20532651 0.50703549 1315860
0.27934524 0.20461014 0.50526649 1381653
0.28025469 0.20460872 0.50526297 1381653
0.28116411 0.20460728 0.50525939 1381653
0.28207353 0.20460585 0.50525588 1381653
0.28298295 0.20460442 0.50525236 1381653
0.28389233 0.20460297 0.50524879 1381653
0.28480172 0.20460156 0.50524527 1381653
0.28571105 0.2046001 0.50524169 1381653
0.28662041 0.20459868 0.50523818 1381653
0.28752977 0.20459725 0.50523466 1381653
0.28843907 0.2045958 0.50523108 1381653
0.28934839 0.20459439 0.50522757 1381653
0.29025769 0.20459293 0.50522399 1381653
0.29116699 0.20459151 0.50522047 1381653
0.30316928 0.24547459 0.60348946 1776411
0.30217367 0.24379309 0.59935552 1315860
0.3011916 0.24213442 0.59527779 1315860
0.30022281 0.2404982 0.59125519 1315860
0.29926702 0.23888394 0.58728659 1315860
0.29832396 0.23729119 0.58337086 1315860
0.29739338 0.23571955 0.57950705 1315860
0.29647508 0.23416859 0.57569408 1315860
0.29556876 0.2326379 0.57193094 1315860
0.29467425 0.23112711 0.56821674 1315860
0.29379126 0.22963579 0.5645504 1315860
0.29291958 0.22816361 0.56093109 1315860
0.29205903 0.22671019 0.55735791 1315860
0.29120937 0.22527516 0.55382997 1315860
0.29037037 0.22385818 0.55034637 1315860
0.28954187 0.22245893 0.54690635 1315860
0.28872368 0.22107705 0.54350907 1315860
0.28791562 0.21971227 0.5401538 1315860
0.28711751 0.21836424 0.53683972 1315860
0.28632912 0.21703267 0.53356612 1315860
0.2855503 0.21571723 0.53033215 1315860
0.28478086 0.21441764 0.52713716 1315860
0.28402063 0.2131336 0.52398044 1315860
0.28326944 0.21186486 0.52086127 1315860
0.28252715 0.21061113 0.51777905 1315860
0.28179356 0.20937216 0.51473308 1315860
0.28106862 0.2081477 0.5117228 1315860
0.28035209 0.20693746 0.50874746 1315860
0.2796438 0.20574121 0.50580651 1315860
0.28025538 0.2055206 0.50526416 1381653
0.28116477 0.20551914 0.50526059 1381653
0.28207421 0.20551771 0.50525707 1381653
0.2829836 0.20551626 0.50525349 1381653
0.28389299 0.20551483 0.50524998 1381653
0.28480238 0.2055134 0.50524646 1381653
0.28571174 0.20551194 0.50524288 1381653
0.28662109 0.20551051 0.50523937 1381653
0.28753042 0.20550907 0.50523579 1381653
0.28843975 0.20550764 0.50523227 1381653
0.28934908 0.20550621 0.50522876 1381653
0.29025838 0.20550475 0.50522518 1381653
0.29116768 0.20550331 0.50522166 1381653
0.30644688 0.25103155 0.61442626 1776411
0.30541047 0.24928097 0.61014158 1315860
0.30438846 0.2475547 0.60591632 1315860
0.30338046 0.24585214 0.60174912 1315860
0.30238625 0.24417286 0.59763891 1315860
0.30140552 0.24251635 0.59358442 1315860
0.30043802 0.24088217 0.58958459 1315860
0.29948345 0.23926985 0.58563828 1315860
0.29854161 0.237679 0.58174449 1315860
0.29761219 0.23610915 0.57790214 1315860
0.29669496 0.23455989 0.57411015 1315860
0.29578972 0.23303087 0.57036769 1315860
0.29489619 0.23152161 0.56667364 1315860
0.29401416 0.23003179 0.56302714 1315860
0.29314336 0.22856101 0.55942726 1315860
0.29228368 0.22710894 0.55587316 1315860
0.29143485 0.2256752 0.55236393 1315860
0.29059666 0.22425944 0.5488987 1315860
0.28976893 0.22286132 0.54547668 1315860
0.28895146 0.22148055 0.54209709 1315860
0.28814411 0.22011682 0.53875923 1315860
0.28734663 0.21876979 0.5354622 1315860
0.28655887 0.21743913 0.53220528 1315860
0.28578061 0.21612458 0.52898777 1315860
0.28501174 0.21482582 0.52580893 1315860
0.28425202 0.21354257 0.522668 1315860
0.28350136 0.21227457 0.51956445 1315860
0.28275952 0.21102151 0.51649749 1315860
0.28202641 0.20978318 0.51346654 1315860
0.28130186 0.20855932 0.51047099 1315860
0.28058568 0.20734961 0.50751013 1315860
0.280256 0.20643246 0.5052653 1381653
0.28116545 0.20643103 0.50526178 1381653
0.28207487 0.20642959 0.50525826 1381653
0.28298426 0.20642813 0.50525469 1381653
0.28389367 0.20642669 0.50525117 1381653
0.28480303 0.20642523 0.50524759 1381653
0.28571239 0.20642379 0.50524408 1381653
0.28662178 0.20642236 0.50524056 1381653
0.28753111 0.2064209 0.50523698 1381653
0.28844044 0.20641945 0.50523347 1381653
0.28934973 0.20641799 0.50522989 1381653
0.29025906 0.20641656 0.50522637 1381653
0.29116836 0.20641513 0.50522286 1381653
0.30984545 0.25679359 0.62576669 2171169
0.30876595 0.25497007 0.62132305 1315860
0.30770165 0.25317225 0.61694205 1315860
0.30665225 0.25139961 0.61262238 1315860
0.30561742 0.24965158 0.60836273 1315860
0.30459693 0.24792774 0.60416198 1315860
0.30359045 0.24622753 0.60001886 1315860
0.30259764 0.24455048 0.59593213 1315860
0.30161825 0.24289612 0.59190071 1315860
0.30065206 0.241264 0.58792347 1315860
0.29969874 0.23965365 0.58399928 1315860
0.29875806 0.23806466 0.58012718 1315860
0.29782978 0.2364966 0.57630605 1315860
0.29691368 0.23494908 0.57253498 1315860
0.29600945 0.23342167 0.56881291 1315860
0.29511693 0.231914 0.56513894 1315860
0.29423583 0.23042564 0.56151205 1315860
0.29336599 0.2289563 0.55793148 1315860
0.29250717 0.22750559 0.55439633 1315860
0.29165918 0.22607313 0.55090564 1315860
0.29082179 0.22465859 0.54745865 1315860
0.28999481 0.22326165 0.54405451 1315860
0.28917807 0.221882 0.54069251 1315860
0.28837141 0.22051932 0.53737187 1315860
0.28757459 0.21917325 0.53409171 1315860
0.28678745 0.21784355 0.53085142 1315860
0.28600979 0.21652986 0.52765018 1315860
0.28524148 0.21523196 0.52448738 1315860
0.28448227 0.21394949 0.52136219 1315860
0.28373212 0.21268223 0.51827407 1315860
0.28299075 0.21142986 0.51522225 1315860
0.28225809 0.2101922 0.51220626 1315860
0.28153396 0.20896892 0.50922531 1315860
0.28081819 0.2077598 0.50627887 1315860
0.28116611 0.20734291 0.50526297 1381653
0.28207549 0.20734145 0.50525939 1381653
0.28298491 0.20734 0.50525588 1381653
0.28389433 0.20733856 0.50525236 1381653
0.28480369 0.2073371 0.50524879 1381653
0.28571308 0.20733565 0.50524527 1381653
0.28662241 0.20733418 0.50524169 1381653
0.28753176 0.20733273 0.50523818 1381653
0.28844112 0.2073313 0.50523466 1381653
0.28935042 0.20732982 0.50523108 1381653
0.29025975 0.20732838 0.50522757 1381653
0.29116902 0.20732692 0.50522399 1381653
0.31224665 0.26087153 0.63292193 1315860
0.31113765 0.25899801 0.62837642 1315860
0.31004444 0.25715122 0.62389576 1315860
0.30896673 0.25533056 0.61947852 1315860
0.30790415 0.25353548 0.61512339 1315860
0.30685642 0.25176549 0.61082906 1315860
0.30582321 0.25002006 0.60659426 1315860
0.30480424 0.24829865 0.60241783 1315860
0.30379918 0.24660075 0.59829843 1315860
0.30280778 0.24492595 0.59423506 1315860
0.30182976 0.24327372 0.59022647 1315860
0.30086488 0.24164367 0.58627164 1315860
0.29991278 0.24003527 0.58236939 1315860
0.29897332 0.23844817 0.57851881 1315860
0.29804617 0.23688191 0.57471877 1315860
0.29713115 0.23533612 0.57096839 1315860
0.29622799 0.23381035 0.56726658 1315860
0.29533646 0.23230423 0.56361246 1315860
0.29445633 0.23081739 0.56000513 1315860
0.29358739 0.22934948 0.55644369 1315860
0.29272947 0.2279001 0.55292726 1315860
0.29188228 0.22646894 0.54945499 1315860
0.2910457 0.22505563 0.54602605 1315860
0.29021949 0.22365987 0.54263967 1315860
0.2894035 0.22228135 0.53929514 1315860
0.28859755 0.22091974 0.53599161 1315860
0.28780138 0.21957467 0.53272825 1315860
0.28701487 0.21824591 0.52950442 1315860
0.28623781 0.21693313 0.52631938 1315860
0.28547004 0.21563606 0.52317244 1315860
0.28471139 0.21435438 0.52006286 1315860
0.28396174 0.21308787 0.51699007 1315860
0.28322086 0.21183622 0.51395333 1315860
0.28248864 0.2105992 0.51095212 1315860
0.28176492 0.20937654 0.50798571 1315860
0.28116676 0.2082548 0.50526416 1315860
0.28207618 0.20825332 0.50526059 1381653
0.2829856 0.20825188 0.50525707 1381653
0.28389496 0.2082504 0.50525349 1381653
0.28480437 0.20824896 0.50524998 1381653
0.28571376 0.2082475 0.50524646 1381653
0.28662309 0.20824604 0.50524288 1381653
0.28753245 0.20824458 0.50523937 1381653
0.28844178 0.2082431 0.50523579 1381653
0.28935111 0.20824166 0.50523227 1381653
0.29026043 0.20824021 0.50522876 1381653
0.2911697 0.20823874 0.50522518 1381653
0.31356382 0.26311845 0.6355918 2235933
0.31244066 0.26122087 0.63100803 1315860
0.31133357 0.25935045 0.62648982 1315860
0.31024224 0.25750667 0.62203592 1315860
0.30916631 0.25568891 0.61764491 1315860
0.30810547 0.25389659 0.6133154 1315860
0.30705938 0.25212926 0.60904622 1315860
0.30602777 0.25038636 0.60483605 1315860
0.30501032 0.24866737 0.60068363 1315860
0.30400673 0.24697185 0.5965879 1315860
0.30301678 0.24529929 0.59254766 1315860
0.3020401 0.24364921 0.58856171 1315860
0.30107647 0.2420212 0.58462906 1315860
0.30012566 0.2404148 0.58074862 1315860
0.29918736 0.23882957 0.57691932 1315860
0.2982614 0.23726514 0.57314026 1315860
0.29734746 0.23572104 0.56941032 1315860
0.29644534 0.23419693 0.56572866 1315860
0.29555482 0.23269239 0.56209427 1315860
0.29467568 0.23120706 0.55850631 1315860
0.29380766 0.22974056 0.55496383 1315860
0.29295057 0.22829255 0.55146599 1315860
0.29210424 0.2268627 0.54801202 1315860
0.29126847 0.22545063 0.54460102 1315860
0.29044306 0.22405607 0.54123229 1315860
0.28962782 0.22267868 0.53790504 1315860
0.28882253 0.22131811 0.53461844 1315860
0.28802702 0.21997404 0.53137171 1315860
0.28724116 0.21864624 0.52816427 1315860
0.28646469 0.21733436 0.52499527 1315860
0.28569746 0.21603812 0.52186406 1315860
0.28493938 0.21475725 0.51876998 1315860
0.28419021 0.21349148 0.51571238 1315860
0.2834498 0.21224055 0.5126906 1315860
0.28271803 0.2110042 0.50970405 1315860
0.28199476 0.20978215 0.50675207 1315860
0.28207684 0.20916522 0.50526178 1381653
0.28298625 0.20916376 0.50525826 1381653
0.28389564 0.20916228 0.50525469 1381653
0.28480503 0.20916082 0.50525117 1381653
0.28571439 0.20915934 0.50524759 1381653
0.28662378 0.20915788 0.50524408 1381653
0.28753313 0.20915642 0.50524056 1381653
0.28844243 0.20915495 0.50523698 1381653
0.28935179 0.20915349 0.50523347 1381653
0.29026106 0.20915201 0.50522989 1381653
0.29117039 0.20915055 0.50522637 1381653
0.31375462 0.26346242 0.63366169 1315860
0.31263348 0.26156813 0.62910563 1315860
0.31152833 0.25970083 0.62461454 1315860
0.31043887 0.25786003 0.62018716 1315860
0.30936471 0.25604513 0.61582208 1315860
0.30830559 0.25425559 0.61151803 1315860
0.3072612 0.25249091 0.60727376 1315860
0.30623117 0.25075057 0.60308796 1315860
0.30521521 0.24903402 0.59895945 1315860
0.30421311 0.24734081 0.59488708 1315860
0.30322456 0.24567051 0.59086978 1315860
0.30224925 0.24402259 0.58690631 1315860
0.30128691 0.24239662 0.58299565 1315860
0.30033734 0.2407922 0.57913679 1315860
0.29940027 0.23920888 0.57532871 1315860
0.29847541 0.23764624 0.57157034 1315860
0.2975626 0.23610388 0.56786078 1315860
0.29666153 0.23458141 0.56419903 1315860
0.29577199 0.23307844 0.56058419 1315860
0.2948938 0.23159462 0.55701542 1315860
0.2940267 0.23012957 0.55349177 1315860
0.29317051 0.22868292 0.55001241 1315860
0.29232505 0.22725438 0.54657656 1315860
0.29149008 0.22584356 0.54318339 1315860
0.29066545 0.22445022 0.53983217 1315860
0.28985095 0.22307393 0.53652203 1315860
0.28904635 0.22171442 0.53325224 1315860
0.28825152 0.2203714 0.53002208 1315860
0.28746629 0.21904455 0.52683085 1315860
0.28669041 0.21773356 0.52367777 1315860
0.28592378 0.21643819 0.52056223 1315860
0.2851662 0.21515813 0.51748353 1315860
0.28441754 0.21389313 0.51444101 1315860
0.28367764 0.21264291 0.51143408 1315860
0.28294635 0.21140724 0.50846213 1315860
0.28222349 0.21018583 0.50552446 1315860
0.28298688 0.21007562 0.50525939 1381653
0.2838963 0.21007416 0.50525588 1381653
0.28480572 0.2100727 0.50525236 1381653
0.28571507 0.21007121 0.50524879 1381653
0.28662443 0.21006975 0.50524527 1381653
0.28753376 0.21006826 0.50524169 1381653
0.28844312 0.2100668 0.50523818 1381653
0.28935248 0.21006534 0.50523466 1381653
0.29026175 0.21006384 0.50523108 1381653
0.29117107 0.21006238 0.50522757 1381653
0.31507969 0.26572293 0.63633782 2235933
0.31394428 0.26380435 0.63174331 1315860
0.31282514 0.26191327 0.62721467 1315860
0.31172195 0.2600491 0.62275046 1315860
0.31063432 0.25821128 0.61834937 1315860
0.30956197 0.25639927 0.61401004 1315860
0.30850458 0.25461251 0.6097312 1315860
0.3074618 0.25285047 0.60551155 1315860
0.30643338 0.25111264 0.60134995 1315860
0.30541897 0.24939856 0.59724516 1315860
0.30441833 0.24770771 0.59319597 1315860
0.30343118 0.24603964 0.58920139 1315860
0.30245721 0.24439387 0.58526021 1315860
0.30149618 0.24276997 0.58137137 1315860
0.30054784 0.24116752 0.5775339 1315860
0.29961199 0.23958609 0.5737468 1315860
0.29868826 0.23802525 0.57000899 1315860
0.29777652 0.23648462 0.56631958 1315860
0.29687652 0.2349638 0.56267762 1315860
0.29598802 0.23346245 0.55908227 1315860
0.29511079 0.23198013 0.55553252 1315860
0.29424462 0.23051652 0.55202752 1315860
0.29338932 0.22907126 0.54856652 1315860
0.29254466 0.22764401 0.54514861 1315860
0.29171056 0.22623448 0.54177314 1315860
0.2908867 0.22484231 0.53843927 1315860
0.29007292 0.22346716 0.53514612 1315860
0.28926906 0.22210874 0.53189307 1315860
0.28847489 0.22076674 0.52867931 1315860
0.28769025 0.21944083 0.52550411 1315860
0.286915 0.21813078 0.52236688 1315860
0.28614894 0.21683626 0.51926684 1315860
0.28539193 0.21555702 0.5162034 1315860
0.28464377 0.21429279 0.5131759 1315860
0.28390437 0.2130433 0.51018369 1315860
0.28317353 0.21180832 0.50722623 1315860
0.28298756 0.21098751 0.50526059 1381653
0.28389698 0.21098603 0.50525707 1381653
0.28480634 0.21098454 0.50525349 1381653
0.28571573 0.21098308 0.50524998 1381653
0.28662512 0.21098161 0.50524646 1381653
0.28753445 0.21098012 0.50524288 1381653
0.2884438 0.21097864 0.50523937 1381653
0.2893531 0.21097715 0.50523579 1381653
0.29026243 0.21097568 0.50523227 1381653
0.29117176 0.21097422 0.50522876 1381653
0.31526613 0.26605943 0.63440323 1315860
0.31413281 0.26414421 0.6298365 1315860
0.31301567 0.26225635 0.62533504 1315860
0.31191438 0.26039532 0.62089747 1315860
0.31082863 0.25856048 0.61652243 1315860
0.30975807 0.25675133 0.6122086 1315860
0.30870238 0.25496733 0.60795474 1315860
0.30766127 0.25320795 0.60375959 1315860
0.3066344 0.25147265 0.59962189 1315860
0.30562153 0.24976102 0.59554058 1315860
0.30462238 0.24807252 0.59151447 1315860
0.30363661 0.24640667 0.58754236 1315860
0.30266401 0.24476308 0.58362329 1315860
0.30170429 0.24314125 0.57975614 1315860
0.3007572 0.24154076 0.57593989 1315860
0.29982254 0.23996124 0.5721736 1315860
0.29889998 0.2384022 0.56845617 1315860
0.29798934 0.23686332 0.56478679 1315860
0.29709035 0.23534416 0.56116444 1315860
0.29620287 0.23384437 0.55758828 1315860
0.29532662 0.23236358 0.55405742 1315860
0.2944614 0.23090144 0.55057102 1315860
0.293607 0.22945756 0.5471282 1315860
0.29276317 0.22803162 0.54372811 1315860
0.2919299 0.22662337 0.54037023 1315860
0.29110682 0.22523239 0.53705353 1315860
0.29029378 0.22385839 0.5337773 1315860
0.28949058 0.22250104 0.53054076 1315860
0.28869709 0.22116005 0.52734327 1315860
0.28791311 0.21983515 0.52418411 1315860
0.28713849 0.21852601 0.52106255 1315860
0.28637299 0.21723238 0.51797795 1315860
0.28561655 0.21595396 0.51492965 1315860
0.2848689 0.21469051 0.511917 1315860
0.28413001 0.21344176 0.50893945 1315860
0.28339961 0.21220744 0.50599629 1315860
0.28389764 0.21189792 0.50525826 1381653
0.28480703 0.21189642 0.50525469 1381653
0.28571641 0.21189494 0.50525117 1381653
0.28662577 0.21189345 0.50524759 1381653
0.28753513 0.21189198 0.50524408 1381653
0.28844449 0.2118905 0.50524056 1381653
0.28935379 0.211889 0.50523698 1381653
0.29026312 0.21188752 0.50523347 1381653
0.29117242 0.21188602 0.50522989 1381653
0.31659913 0.26833355 0.63708562 3090213
0.31545141 0.26639387 0.63248032 1315860
0.31432015 0.26448202 0.62794113 1315860
0.31320503 0.26259738 0.62346661 1315860
0.31210569 0.26073945 0.61905545 1315860
0.31102178 0.25890762 0.61470622 1315860
0.309953 0.25710133 0.61041772 1315860
0.30889902 0.25532007 0.6061886 1315860
0.30785957 0.25356334 0.6020177 1315860
0.30683428 0.25183061 0.59790379 1315860
0.30582294 0.25012138 0.59384573 1315860
0.30482528 0.24843526 0.58984244 1315860
0.30384091 0.24677166 0.58589268 1315860
0.30286965 0.2451302 0.58199549 1315860
0.30191123 0.24351044 0.5781498 1315860
0.30096543 0.24191196 0.57435465 1315860
0.30003193 0.24033433 0.57060897 1315860
0.29911053 0.23877712 0.56691182 1315860
0.29820099 0.23723999 0.56326228 1315860
0.29730311 0.2357225 0.55965942 1315860
0.29641661 0.23422429 0.55610234 1315860
0.29554132 0.23274501 0.55259019 1315860
0.29467702 0.23128431 0.54912215 1315860
0.29382351 0.22984184 0.54569739 1315860
0.29298061 0.22841726 0.54231513 1315860
0.29214808 0.22701024 0.53897452 1315860
0.29132581 0.22562048 0.53567493 1315860
0.29051349 0.2242476 0.53241539 1315860
0.28971106 0.22289136 0.52919537 1315860
0.28891823 0.22155142 0.52601403 1315860
0.28813487 0.22022747 0.52287066 1315860
0.28736085 0.21891928 0.51976472 1315860
0.28659594 0.2176265 0.51669538 1315860
0.28584003 0.21634895 0.51366216 1315860
0.28509295 0.21508627 0.51066428 1315860
0.28435451 0.21383826 0.50770122 1315860
0.28389829 0.21280979 0.50525939 1381653
0.28480768 0.21280831 0.50525588 1381653
0.2857171 0.21280682 0.50525236 1381653
0.28662643 0.21280532 0.50524879 1381653
0.28753582 0.21280384 0.50524527 1381653
0.28844514 0.21280234 0.50524169 1381653
0.28935447 0.21280085 0.50523818 1381653
0.2902638 0.21279937 0.50523466 1381653
0.2911731 0.21279787 0.50523108 1381653
0.31678113 0.26866248 0.63514644 1315860
0.31563559 0.26672629 0.63056904 1315860
0.31450641 0.26481777 0.62605715 1315860
0.31339327 0.26293638 0.62160933 1315860
0.31229585 0.26108158 0.61722434 1315860
0.31121382 0.25925273 0.61290073 1315860
0.31014681 0.2574493 0.60863727 1315860
0.30909455 0.25567079 0.6044327 1315860
0.30805671 0.25391671 0.60028583 1315860
0.30703306 0.25218654 0.59619552 1315860
0.30602324 0.25047976 0.59216052 1315860
0.30502701 0.24879594 0.58817983 1315860
0.30404407 0.2471346 0.58425224 1315860
0.30307418 0.24549532 0.5803768 1315860
0.30211705 0.24387762 0.57655239 1315860
0.30117249 0.24228112 0.57277811 1315860
0.30024019 0.24070537 0.56905288 1315860
0.29931992 0.23915 0.5653758 1315860
0.29841152 0.23761459 0.56174594 1315860
0.29751468 0.23609878 0.55816239 1315860
0.29662919 0.23460217 0.55462426 1315860
0.29575488 0.23312442 0.55113071 1315860
0.29489151 0.23166518 0.54768091 1315860
0.29403889 0.2302241 0.54427403 1315860
0.29319683 0.22880086 0.54090935 1315860
0.29236516 0.22739512 0.53758603 1315860
0.29154366 0.22600658 0.53430337 1315860
0.29073209 0.22463486 0.53106046 1315860
0.28993034 0.22327968 0.52785671 1315860
0.2891382 0.22194079 0.5246914 1315860
0.28835553 0.22061785 0.52156383 1315860
0.2875821 0.21931058 0.51847333 1315860
0.28681779 0.2180187 0.51541919 1315860
0.28606242 0.21674198 0.51240087 1315860
0.28531587 0.21548009 0.50941765 1315860
0.28457797 0.21423285 0.50646901 1315860
0.28480837 0.2137202 0.50525707 1381653
0.28571773 0.21371868 0.50525349 1381653
0.28662711 0.21371719 0.50524998 1381653
0.2875365 0.21371572 0.50524646 1381653
0.2884458 0.2137142 0.50524288 1381653
0.28935516 0.21371271 0.50523937 1381653
0.29026446 0.2137112 0.50523579 1381653
0.29117379 0.21370971 0.50523227 1381653
0.31696206 0.26898944 0.63321906 1315860
0.31581867 0.2670567 0.62866932 1315860
0.31469154 0.26515156 0.62418443 1315860
0.31358042 0.26327339 0.61976314 1315860
0.31248489 0.26142165 0.61540401 1315860
0.31140471 0.25959578 0.6111058 1315860
0.31033948 0.25779524 0.60686719 1315860
0.30928892 0.25601947 0.60268694 1315860
0.30825275 0.25426802 0.59856391 1315860
0.30723068 0.25254041 0.59449697 1315860
0.30622238 0.25083607 0.59048486 1315860
0.30522761 0.24915461 0.58652657 1315860
0.3042461 0.24749553 0.58262098 1315860
0.30327755 0.24585839 0.57876706 1315860
0.3023217 0.24424276 0.57496375 1315860
0.3013784 0.24264824 0.57121015 1315860
0.30044729 0.24107441 0.56750524 1315860
0.29952821 0.23952086 0.56384808 1315860
0.29862085 0.23798718 0.56023771 1315860
0.29772511 0.23647305 0.55667335 1315860
0.29684064 0.23497805 0.55315399 1315860
0.29596731 0.23350185 0.54967892 1315860
0.29510486 0.23204406 0.54624718 1315860
0.29425317 0.2306044 0.54285812 1315860
0.293412 0.2291825 0.53951091 1315860
0.29258114 0.22777803 0.5362047 1315860
0.29176039 0.22639069 0.53293878 1315860
0.29094958 0.22502013 0.52971238 1315860
0.29014856 0.22366607 0.52652484 1315860
0.2893571 0.22232822 0.52337545 1315860
0.28857505 0.22100626 0.52026349 1315860
0.28780225 0.21969993 0.51718831 1315860
0.28703851 0.21840896 0.51414925 1315860
0.28628376 0.21713309 0.51114577 1315860
0.28553769 0.215872 0.5081771 1315860
0.28480902 0.21463209 0.50525826 1315860
0.28571841 0.21463057 0.50525469 1381653
0.2866278 0.21462908 0.50525117 1381653
0.28753713 0.21462756 0.50524759 1381653
0.28844649 0.21462606 0.50524408 1381653
0.28935584 0.21462457 0.50524056 1381653
0.29026514 0.21462305 0.50523698 1381653
0.29117447 0.21462156 0.50523347 1381653
0.31829974 0.27127168 0.63589144 2104346
0.31714186 0.26931438 0.63130331 1315860
0.31600061 0.26738513 0.62678093 1315860
0.31487557 0.26548332 0.62232292 1315860
0.31376645 0.2636084 0.61792785 1315860
0.31267285 0.26175976 0.61359441 1315860
0.31159446 0.25993684 0.6093213 1315860
0.31053105 0.25813916 0.60510737 1315860
0.30948222 0.25636616 0.60095125 1315860
0.30844769 0.25461736 0.59685189 1315860
0.30742717 0.25289226 0.59280801 1315860
0.30642039 0.25119036 0.58881861 1315860
0.3054271 0.24951126 0.58488256 1315860
0.304447 0.24785443 0.58099878 1315860
0.30347979 0.24621946 0.5771662 1315860
0.30252528 0.2446059 0.57338387 1315860
0.30158317 0.24301337 0.56965077 1315860
0.30065331 0.24144144 0.56596601 1315860
0.29973534 0.23988971 0.56232858 1315860
0.29882914 0.23835781 0.55873764 1315860
0.29793441 0.23684534 0.55519223 1315860
0.29705098 0.23535194 0.55169153 1315860
0.29617864 0.23387729 0.54823476 1315860
0.29531711 0.23242095 0.54482096 1315860
0.29446635 0.23098274 0.54144961 1315860
0.29362604 0.22956218 0.53811967 1315860
0.29279602 0.228159 0.53483045 1315860
0.29197603 0.22677284 0.53158116 1315860
0.29116598 0.22540346 0.52837116 1315860
0.29036567 0.22405051 0.52519971 1315860
0.28957489 0.22271369 0.52206606 1315860
0.2887935 0.22139274 0.5189696 1315860
0.28802133 0.22008738 0.51590967 1315860
0.28725818 0.2187973 0.51288557 1315860
0.28650394 0.21752226 0.50989676 1315860
0.28575847 0.21626201 0.50694257 1315860
0.28571907 0.21554247 0.50525588 1381653
0.28662845 0.21554096 0.50525236 1381653
0.28753781 0.21553944 0.50524879 1381653
0.28844717 0.21553794 0.50524527 1381653
0.2893565 0.21553642 0.50524169 1381653
0.29026583 0.21553491 0.50523818 1381653
0.29117516 0.21553341 0.50523466 1381653
0.31847626 0.27159107 0.63395953 1315860
0.31732059 0.26963735 0.62939912 1315860
0.31618148 0.26771161 0.62490392 1315860
0.3150585 0.26581311 0.62047243 1315860
0.31395134 0.26394141 0.61610335 1315860
0.31285968 0.26209587 0.61179543 1315860
0.31178316 0.26027593 0.60754728 1315860
0.31072149 0.25848109 0.60335767 1315860
0.30967435 0.25671086 0.59922552 1315860
0.30864149 0.25496471 0.59514958 1315860
0.30762255 0.25324214 0.59112871 1315860
0.30661732 0.25154269 0.58716178 1315860
0.30562547 0.24986592 0.58324778 1315860
0.30464676 0.24821134 0.57938558 1315860
0.3036809 0.24657851 0.57557416 1315860
0.3027277 0.24496706 0.57181263 1315860
0.30178687 0.24337651 0.56809992 1315860
0.3008582 0.24180649 0.56443512 1315860
0.29994139 0.24025661 0.5608173 1315860
0.29903629 0.23872645 0.55724555 1315860
0.29814261 0.23721565 0.55371898 1315860
0.29726022 0.23572388 0.55023682 1315860
0.2963888 0.23425072 0.54679811 1315860
0.29552829 0.23279592 0.54340225 1315860
0.29467842 0.23135909 0.54004836 1315860
0.29383898 0.22993989 0.53673559 1315860
0.29300976 0.22853798 0.53346318 1315860
0.29219058 0.22715306 0.53023046 1315860
0.2913813 0.22578485 0.52703673 1315860
0.2905817 0.22443302 0.5238812 1315860
0.28979161 0.22309726 0.52076322 1315860
0.28901085 0.22177731 0.51768214 1315860
0.28823933 0.22047292 0.51463735 1315860
0.28747678 0.21918373 0.51162809 1315860
0.28672311 0.21790956 0.50865388 1315860
0.28597817 0.21665013 0.50571406 1315860
0.28662911 0.21645282 0.50525349 1381653
0.2875385 0.21645132 0.50524998 1381653
0.28844786 0.21644981 0.50524646 1381653
0.28935719 0.21644828 0.50524288 1381653
0.29026651 0.21644677 0.50523937 1381653
0.29117581 0.21644524 0.50523579 1381653
0.31982189 0.27388698 0.63663816 2038553
0.31865168 0.27190849 0.63203931 1315860
0.31749827 0.26995844 0.62750643 1315860
0.31636128 0.26803613 0.62303811 1315860
0.31524038 0.266141 0.61863297 1315860
0.31413519 0.26427245 0.61428964 1315860
0.31304541 0.26242998 0.61000693 1315860
0.31197074 0.26061302 0.60578346 1315860
0.31091085 0.25882107 0.60161817 1315860
0.30986542 0.25705358 0.59750968 1315860
0.3088342 0.25531006 0.59345698 1315860
0.30781683 0.25359002 0.58945882 1315860
0.30681312 0.25189304 0.58551425 1315860
0.30582273 0.2502186 0.58162206 1315860
0.30484542 0.24856627 0.57778132 1315860
0.30388093 0.24693562 0.57399094 1315860
0.30292904 0.24532622 0.57024997 1315860
0.30198947 0.24373768 0.56655747 1315860
0.30106196 0.24216957 0.56291246 1315860
0.30014634 0.24062151 0.55931407 1315860
0.29924235 0.23909312 0.5557614 1315860
0.29834974 0.23758401 0.55225354 1315860
0.29746833 0.23609383 0.54878968 1315860
0.29659793 0.23462224 0.54536903 1315860
0.29573837 0.23316893 0.54199088 1315860
0.29488939 0.23173352 0.53865433 1315860
0.29405078 0.23031564 0.53535855 1315860
0.29322243 0.22891507 0.53210294 1315860
0.29240406 0.22753137 0.52888662 1315860
0.29159552 0.22616433 0.52570897 1315860
0.29079664 0.22481361 0.5225693 1315860
0.29000723 0.22347891 0.51946688 1315860
0.28922719 0.22216 0.51640111 1315860
0.28845626 0.22085655 0.51337129 1315860
0.28769431 0.2195683 0.51037681 1315860
0.28694123 0.21829499 0.50741708 1315860
0.2866298 0.21736471 0.50525469 1381653
0.28753915 0.21736321 0.50525117 1381653
0.28844851 0.21736167 0.50524759 1381653
0.28935787 0.21736015 0.50524408 1381653
0.2902672 0.21735865 0.50524056 1381653
0.2911765 0.2173571 0.50523698 1381653
0.31999397 0.27419877 0.63470173 1315860
0.31882608 0.27222404 0.63013071 1315860
0.31767488 0.27027756 0.62562507 1315860
0.31654 0.26835871 0.6211834 1315860
0.31542113 0.26646689 0.6168043 1315860
0.31431794 0.26460159 0.6124866 1315860
0.31323007 0.26276219 0.60822886 1315860
0.31215724 0.26094821 0.60402995 1315860
0.31109911 0.25915909 0.59988856 1315860
0.31005538 0.25739434 0.59580362 1315860
0.30902579 0.25565344 0.59177393 1315860
0.30801004 0.25393599 0.58779842 1315860
0.30700782 0.2522414 0.58387589 1315860
0.30601889 0.25056931 0.58000541 1315860
0.30504298 0.24891923 0.57618588 1315860
0.30407986 0.24729076 0.57241637 1315860
0.30312926 0.24568345 0.56869584 1315860
0.30219093 0.24409689 0.56502336 1315860
0.30126464 0.2425307 0.56139803 1315860
0.30035016 0.24098447 0.55781889 1315860
0.29944727 0.23945783 0.55428511 1315860
0.29855573 0.23795041 0.55079579 1315860
0.29767537 0.23646186 0.54735017 1315860
0.29680598 0.23499185 0.54394746 1315860
0.29594737 0.23354001 0.54058683 1315860
0.29509929 0.232106 0.53726745 1315860
0.29426157 0.23068953 0.53398865 1315860
0.29343399 0.22929019 0.53074956 1315860
0.29261643 0.22790776 0.52754956 1315860
0.29180863 0.22654188 0.5243879 1315860
0.2910105 0.22519229 0.52126396 1315860
0.29022181 0.22385868 0.51817697 1315860
0.28944239 0.22254078 0.51512635 1315860
0.28867209 0.2212383 0.51211143 1315860
0.28791076 0.21995096 0.50913155 1315860
0.28715822 0.21867852 0.50618619 1315860
0.28753984 0.2182751 0.50525236 1381653
0.28844917 0.21827355 0.50524879 1381653
0.28935853 0.21827203 0.50524527 1381653
0.29026785 0.21827048 0.50524169 1381653
0.29117718 0.21826898 0.50523818 1381653
