# .PCD v0.7 - Point Cloud Data file format
VERSION 0.7
FIELDS x y z rgb
SIZE 4 4 4 4
TYPE F F F U
COUNT 1 1 1 1
WIDTH 1100
HEIGHT 1
VIEWPOINT 0 0 0 1 0 0 0
POINTS 1100
DATA ascii
-0.020362986 0.073067188 0.44270149 6574403
-0.019498577 0.072821215 0.44121119 6574403
-0.018629689 0.072536878 0.43948841 6574403
-0.017762529 0.07223428 0.43765506 6574403
-0.016902573 0.071934208 0.43583697 6574403
-0.016050993 0.071642242 0.43406796 6574403
-0.015223428 0.071433008 0.43280026 6640196
-0.014408648 0.071264394 0.43177867 6574403
-0.013606803 0.071144141 0.43105009 6574403
-0.01280766 0.071024299 0.43032396 6574403
-0.012011205 0.070904851 0.42960027 6574403
-0.011217424 0.070785813 0.42887902 6640196
-0.010426303 0.070667163 0.42816016 6772555
-0.0096378308 0.070548922 0.42744374 7565160
-0.0088626584 0.070515938 0.42724389 6705988
-0.0080938414 0.070532046 0.42734152 6640711
-0.0073246732 0.070548169 0.42743918 6511187
-0.0065551535 0.0705643 0.4275369 6380892
-0.0057852813 0.07058043 0.42763466 6381663
-0.005015057 0.070596576 0.42773247 6316128
-0.0042444807 0.070612721 0.42783031 6118749
-0.0034735107 0.070628047 0.42792317 5000268
-0.0027021684 0.070642404 0.42801014 2894892
-0.0019305127 0.070656769 0.42809716 2236962
-0.0011585432 0.070671134 0.42818421 1842204
-0.00038625961 0.070685506 0.42827129 1513239
0.00038633816 0.070699885 0.42835841 1184274
0.0011592503 0.070714265 0.42844555 1644825
0.0019324771 0.07072866 0.42853275 2302755
0.0027067007 0.070760891 0.42872801 1579032
0.0034858468 0.070878886 0.42944294 4210752
0.0042685005 0.071012326 0.43025145 6381921
0.0050540906 0.071146049 0.43106163 5855577
0.0058426452 0.071280271 0.43187487 6118749
0.006634268 0.071415946 0.43269688 6118749
0.0074289301 0.071552329 0.43352321 5329233
0.0082266331 0.071689233 0.4343527 3750201
0.0090273954 0.071826667 0.43518537 2565927
0.009831233 0.071964622 0.43602124 1776411
0.010638218 0.072103485 0.43686256 4737096
0.011449322 0.072249167 0.43774524 5723476
0.012443205 0.073455051 0.44505149 5854801
0.013318503 0.073857158 0.44748777 6313806
0.014203439 0.074263692 0.4499509 7100232
0.01509771 0.074672461 0.45242754 7100488
-0.037281409 0.079276562 0.47513032 71211
-0.036221988 0.078836091 0.47249043 5161
-0.035206404 0.078472108 0.47030896 5161
-0.034200154 0.078111462 0.46814752 5161
-0.033194844 0.077734761 0.46588981 5161
-0.032248229 0.077479511 0.46436003 1253422
-0.031307742 0.077225767 0.46283925 3421239
-0.030373396 0.076973677 0.46132839 5326142
-0.029430268 0.076684505 0.45959526 6574403
-0.028490687 0.076388076 0.45781869 6574403
-0.027558343 0.076093934 0.45605579 6574403
-0.026627047 0.075784676 0.45420229 6574403
-0.025705518 0.075484455 0.45240301 6574403
-0.024801886 0.075218834 0.45081103 6574403
-0.02390459 0.074955069 0.44923022 6574403
-0.023013568 0.074693158 0.44766048 6574403
-0.022129841 0.074436739 0.44612369 6574403
-0.021253003 0.074185006 0.44461498 6574403
-0.020381859 0.073934197 0.44311178 6574403
-0.019516587 0.073685072 0.44161871 6574403
-0.018657127 0.073437624 0.44013569 6574403
-0.017788691 0.073131286 0.43829969 6574403
-0.016927365 0.072827041 0.43647623 6574403
-0.016080247 0.072557211 0.43485907 6574403
-0.015251092 0.072344922 0.43358675 6574403
-0.014426774 0.072133869 0.43232185 6574403
-0.01362006 0.071991742 0.43147004 6574403
-0.012820117 0.071870357 0.4307425 6574403
-0.012022868 0.071749367 0.43001741 6574403
-0.011228297 0.071628787 0.42929474 6640196
-0.010436393 0.071508616 0.4285745 6772555
-0.0096471412 0.071388848 0.42785668 7102550
-0.0088747963 0.071384236 0.42782903 6705988
-0.0081049288 0.07140056 0.4279269 6640969
-0.0073347092 0.071416907 0.42802483 6380117
-0.0065641366 0.071433254 0.42812282 6315612
-0.0057932115 0.071449608 0.42822084 6381664
-0.005021933 0.071465977 0.42831892 6316128
-0.0042503015 0.071482345 0.42841703 6184542
-0.0034783159 0.071498714 0.42851517 5066061
-0.0027059771 0.071515106 0.42861339 3815994
-0.0019332836 0.071531497 0.42871162 2171169
-0.0011602362 0.071547903 0.42880994 723723
-0.00038683409 0.071564309 0.42890826 592137
0.00038692282 0.071580723 0.42900664 592137
0.0011610348 0.071597144 0.42910507 1776411
0.001935502 0.071613573 0.42920354 2763306
0.0027102213 0.071627282 0.42928568 2434341
0.0034907041 0.07175336 0.43004134 3815994
0.0042745136 0.071889549 0.43085754 4539717
0.0050613042 0.072026253 0.43167686 4737096
0.0058510927 0.072163478 0.43249929 5987162
0.0066438965 0.072301231 0.43332487 6052956
0.007439733 0.072439507 0.43415362 5921370
0.0082386192 0.072578311 0.43498552 5329233
0.0090405727 0.072717644 0.43582061 2960685
0.0098459404 0.072859958 0.43667352 2697513
0.010655091 0.073007107 0.43755543 5921370
0.011549307 0.073676616 0.44156802 5986646
0.012463443 0.07437861 0.4457753 5723988
0.013340283 0.07478644 0.44821954 6313548
0.014226281 0.075196058 0.45067453 7100488
0.015122565 0.075612828 0.45317236 6904140
-0.037374254 0.080333166 0.47631356 1516850
-0.036269896 0.079793766 0.47311535 70954
-0.03523856 0.079392903 0.47073853 5161
-0.034231249 0.079027697 0.46857315 5161
-0.033238992 0.078679636 0.46650943 5161
-0.032282729 0.07840091 0.4648568 5161
-0.031341717 0.078145348 0.46334147 1318959
-0.030406248 0.077889979 0.46182734 3552567
-0.029475715 0.077633217 0.46030498 5391934
-0.028534513 0.077332668 0.45852292 6574403
-0.02760057 0.077034429 0.4567546 6574403
-0.026668329 0.076722726 0.45490646 6574403
-0.025737755 0.07639619 0.45297036 6574403
-0.024830149 0.076118656 0.45132476 6574403
-0.023931736 0.075851433 0.44974035 6574403
-0.023039609 0.075586088 0.44816706 6574403
-0.022153702 0.075322583 0.4466047 6574403
-0.021271119 0.075050928 0.44499397 6574403
-0.020400766 0.074802808 0.44352281 6574403
-0.019534631 0.074550532 0.442027 6574403
-0.018674318 0.074299946 0.44054124 6574403
-0.017814931 0.074030936 0.43894622 6574403
-0.016952232 0.073722497 0.4371174 6574403
-0.016109608 0.073475525 0.43565306 6574403
-0.015278856 0.073260158 0.43437609 6574403
-0.01445296 0.073046044 0.43310657 6574403
-0.013633342 0.072841004 0.43189082 6574403
-0.012832598 0.072718054 0.43116185 6574403
-0.012034553 0.072595529 0.43043536 6574403
-0.011239192 0.072473407 0.42971128 6640196
-0.010446503 0.072351709 0.42898968 6772554
-0.0096575348 0.072238356 0.42831761 7102550
-0.0088869678 0.072254911 0.42841575 6705988
-0.008116046 0.072271459 0.42851388 6509898
-0.0073447721 0.072288021 0.42861208 6248788
-0.0065731448 0.072304592 0.42871034 6184026
-0.0058011636 0.072321169 0.42880863 6250078
-0.005028828 0.072337754 0.42890698 6184542
-0.0042561381 0.072354347 0.42900535 5855577
-0.003483094 0.072370954 0.42910379 4408131
-0.0027096947 0.072387561 0.42920226 2368548
-0.0019359406 0.072404176 0.42930079 1447446
-0.001161831 0.072420798 0.42939934 855309
-0.00038736593 0.072437428 0.42949796 657930
0.0003874503 0.072453208 0.42959151 789516
0.0011623519 0.072453275 0.42959189 2039583
0.001937255 0.072453335 0.42959228 2631720
0.0027151646 0.072533682 0.43006867 921102
0.0034964168 0.072647773 0.43074512 3355443
0.0042806915 0.07277175 0.43148023 3750201
0.0050686328 0.072910331 0.43230191 4079166
0.0058595808 0.073049441 0.43312672 4934475
0.0066535533 0.073189087 0.43395469 5329233
0.0074505671 0.073329262 0.43478584 6316128
0.0082506398 0.073469982 0.43562019 5526612
0.0090543469 0.073615775 0.43648463 3552822
0.0098615494 0.073764391 0.4373658 4408131
0.010672017 0.073913604 0.43825051 5657940
0.011614901 0.074896082 0.44407588 6184283
0.012483746 0.075305171 0.44650146 5592403
0.01336158 0.075715624 0.44893509 6313292
0.014235839 0.076060057 0.45097733 7166281
0.015187015 0.076755993 0.4551037 5459274
-0.036359835 0.080847159 0.47428855 596782
-0.035270777 0.080315389 0.47116891 5161
-0.0342624 0.079945602 0.46899956 5161
-0.033283211 0.079626918 0.46713004 5161
-0.032314461 0.079317316 0.46531373 5161
-0.03137216 0.079057842 0.46379155 5161
-0.030439168 0.078808255 0.46232736 1318958
-0.029508684 0.078551285 0.46081984 3683896
-0.028578471 0.078280158 0.45922929 5391934
-0.027642926 0.077977806 0.45745555 6574403
-0.026709739 0.077663697 0.45561284 6574403
-0.02577755 0.077332653 0.45367074 6574403
-0.024858475 0.077020518 0.45183963 6574403
-0.023958942 0.076749831 0.45025164 6574403
-0.023065709 0.076481037 0.44867474 6574403
-0.02217705 0.076208405 0.44707537 6574403
-0.021284923 0.075902835 0.44528276 6574403
-0.020414749 0.075654656 0.44382682 6574403
-0.019550249 0.075408101 0.4423804 6574403
-0.018691365 0.075163148 0.44094339 6574403
-0.01783615 0.074911825 0.43946901 6574403
-0.016977169 0.074620582 0.43776041 6574403
-0.016139075 0.074397199 0.43644994 6574403
-0.015306722 0.074178733 0.43516833 6574403
-0.014479244 0.073961541 0.43389419 6574403
-0.013656597 0.073745623 0.4326275 6574403
-0.012845104 0.073567413 0.43158203 6574403
-0.012046261 0.073443331 0.43085411 6574403
-0.011250108 0.073319674 0.43012866 6640196
-0.010456632 0.073196426 0.42940563 6772298
-0.009670794 0.073111199 0.42890567 6904397
-0.0088991718 0.073127978 0.42900407 6705988
-0.0081271939 0.073144749 0.42910248 6378827
-0.007354863 0.073161535 0.42920095 5986387
-0.0065821777 0.073178329 0.42929947 6118489
-0.0058091371 0.07319513 0.42939803 6316127
-0.0050357417 0.073211938 0.42949665 5987163
-0.004261991 0.073228754 0.42959529 5197647
-0.0034878848 0.073245578 0.429694 3223857
-0.0027134228 0.073262416 0.42979276 1644825
-0.0019386045 0.073279247 0.42989153 1644825
-0.0011632767 0.073286436 0.42993367 1315860
-0.00038775927 0.073286496 0.42993405 855309
0.00038775962 0.073286563 0.42993444 394758
0.0011632799 0.07328663 0.42993483 921102
0.0019398951 0.073328033 0.43017772 1250067
0.002720126 0.073443405 0.43085453 1973790
0.0035028162 0.073559135 0.43153349 5066061
0.0042879768 0.07367523 0.43221456 3815994
0.0050759823 0.073796973 0.43292874 3881787
0.0058680936 0.073937982 0.43375596 4473924
0.0066632382 0.074079528 0.43458635 5855577
0.0074614324 0.074221618 0.43541992 6447714
0.008263438 0.074370943 0.43629593 4276545
0.0090686949 0.074521013 0.43717632 2236962
0.0098772086 0.074671693 0.43806028 4013373
0.010754706 0.075282946 0.44164616 5855576
0.011633749 0.075819947 0.4447965 6184797
0.012503527 0.076231182 0.44720897 5460817
0.013370522 0.076576628 0.44923553 6444620
0.014249396 0.076946735 0.45140678 6772811
0.015252016 0.077908948 0.45705158 4473924
-0.036450222 0.08190579 0.47546759 2108214
-0.035354007 0.081356809 0.47228071 333868
-0.034305371 0.080892913 0.46958777 5161
-0.03332755 0.080576733 0.46775234 5161
-0.032357343 0.080263011 0.46593118 5161
-0.03139713 0.079958029 0.46416071 5161
-0.030465757 0.07971178 0.46273121 5161
-0.029540103 0.079467036 0.46131048 1384751
-0.028615028 0.079209715 0.45981672 3815224
-0.027685415 0.078924097 0.45815867 5523263
-0.026751278 0.078607604 0.45632142 6574403
-0.025817469 0.078272007 0.45437327 6574403
-0.024891598 0.077939264 0.45244169 6574403
-0.023986209 0.077650271 0.45076406 6574403
-0.023091869 0.07737802 0.44918361 6574403
-0.022199491 0.077092774 0.44752777 6574403
-0.021305509 0.07678023 0.44571343 6574403
-0.020427963 0.076504722 0.44411409 6574403
-0.019562863 0.07625524 0.44266582 6574403
-0.018703384 0.076007366 0.44122693 6574403
-0.017849475 0.07576111 0.43979737 6574403
-0.017009001 0.075551607 0.4385812 6574403
-0.01616865 0.075322248 0.43724978 6706247
-0.015334691 0.07510066 0.43596345 6574403
-0.014505622 0.074880376 0.43468466 6574403
-0.013681403 0.074661374 0.43341336 6574403
-0.012861992 0.074443653 0.43214947 6574403
-0.012057992 0.074292786 0.4312737 6574403
-0.011261045 0.074167572 0.43054682 6640196
-0.010466781 0.074042782 0.42982239 6772297
-0.0096840896 0.073986448 0.42949536 6705988
-0.0089114094 0.074003443 0.42959401 6705988
-0.0081383735 0.074020445 0.42969272 6247755
-0.0073649823 0.074037455 0.42979145 5920338
-0.0065912358 0.074054472 0.42989025 5789268
-0.005817133 0.074071497 0.42998907 5723991
-0.005042675 0.074088529 0.43008795 5855577
-0.0042678597 0.074105568 0.43018687 4671303
-0.0034926087 0.074120916 0.43027598 2105376
-0.0027164759 0.074120983 0.43027636 1381653
-0.0019403417 0.074121051 0.43027675 2434341
-0.0011642061 0.074121118 0.43027714 2829099
-0.00038806902 0.074121185 0.43027753 1447446
0.00038806937 0.074121252 0.43027791 197379
0.0011642323 0.074122787 0.43028682 1184274
0.0019434408 0.07423944 0.43096399 4671303
0.0027251057 0.074356452 0.43164328 5789784
0.0035092386 0.074473843 0.43232471 6118749
0.0042958511 0.074591592 0.43300828 4210752
0.0050849551 0.074709728 0.43369403 5658198
0.0058766315 0.074829109 0.43438706 6250335
0.006673126 0.074974537 0.43523127 6250335
0.0074732127 0.075125456 0.43610737 6316128
0.0082765268 0.075276986 0.43698701 3947580
0.0090830885 0.075429127 0.4378702 2763306
0.0098929172 0.075581886 0.43875697 4802888
0.01079022 0.076330811 0.44310454 6316384
0.011652048 0.076742798 0.44549611 6118748
0.012511862 0.07708922 0.44750711 5460817
0.013379475 0.077438779 0.44953635 6510413
0.014309887 0.078091092 0.45332307 5328202
0.015262798 0.07878904 0.45737469 3554626
-0.035441983 0.082413293 0.473456 1188402
-0.034384053 0.081927434 0.4706648 202539
-0.033372007 0.081529073 0.46837628 5161
-0.032400332 0.081211224 0.46655026 5161
-0.031436212 0.080895849 0.46473846 5161
-0.03048995 0.080610409 0.46309865 5161
-0.029563488 0.080362722 0.46167567 5161
-0.028642703 0.080116548 0.46026143 1516079
-0.027725255 0.079865292 0.45881799 3946553
-0.026792947 0.079554446 0.4570322 5523263
-0.025857512 0.079214282 0.45507801 6574403
-0.024930039 0.078877009 0.45314044 6574403
-0.02401354 0.078552768 0.45127767 6574403
-0.023118088 0.078277037 0.44969362 6574403
-0.022221977 0.077978939 0.44798109 6574403
-0.021327002 0.077662475 0.44616306 6574403
-0.020441193 0.077355891 0.44440174 6574403
-0.01957549 0.077103458 0.44295156 6574403
-0.018715419 0.076852672 0.44151083 6574403
-0.017860925 0.076603517 0.44007945 6574403
-0.017027305 0.076424882 0.43905321 6574403
-0.016214732 0.076327883 0.43849596 6574403
-0.015404219 0.076231129 0.43794012 6574403
-0.014532097 0.075802557 0.435478 6772812
-0.013706301 0.075580463 0.43420208 6574403
-0.012885329 0.075359657 0.43293357 6574403
-0.012069746 0.075143903 0.43169409 6574403
-0.011272003 0.075017124 0.43096578 6640196
-0.010476949 0.074890785 0.43023995 6706248
-0.0096974215 0.074864097 0.43008664 6705988
-0.0089236805 0.074881323 0.43018559 6640454
-0.0081495829 0.074898548 0.43028456 6182221
-0.0073751286 0.074915782 0.43038356 5920596
-0.006600318 0.074933022 0.43048263 5855062
-0.0058251512 0.074950278 0.43058175 5789783
-0.0050489041 0.074956805 0.43061924 5131854
-0.0042721531 0.074956872 0.43061963 3618615
-0.0034954012 0.074956939 0.43062001 1842204
-0.0027186479 0.074957006 0.4306204 921102
-0.0019418931 0.074957073 0.43062079 1644824
-0.0011651368 0.07495714 0.43062115 1842204
-0.0003883793 0.074957207 0.43062153 986895
0.00038837965 0.074957274 0.43062192 592137
0.0011663608 0.075035878 0.43107352 3552822
0.0019469995 0.075154178 0.43175313 6316128
0.0027301034 0.075272858 0.43243492 6118749
0.0035156847 0.075391904 0.43311885 4539717
0.0043037548 0.075511336 0.43380496 5921370
0.0050943256 0.075631142 0.43449324 6250335
0.0058877221 0.075755358 0.43520686 5658198
0.0066839154 0.0758821 0.43593496 6184542
0.0074850451 0.076032303 0.43679786 6579300
0.0082896585 0.076185904 0.4376803 5658198
0.0090975286 0.076340131 0.4385663 4144959
0.0099530835 0.0768378 0.44142538 4737352
0.010807065 0.077250503 0.44379631 6645093
0.011659785 0.077597879 0.44579196 6052955
0.012520209 0.077948399 0.44780564 5460817
0.013388441 0.078302093 0.4498376 6379084
0.014362915 0.079201221 0.45500296 3488320
-0.035544835 0.083508946 0.47482991 3093818
-0.034483239 0.083015211 0.47202253 991280
-0.033439178 0.082539745 0.46931905 70954
-0.032443441 0.082161963 0.46717101 5161
-0.031477876 0.081842475 0.46535438 5161
-0.030519785 0.081525452 0.46355182 5161
-0.029586911 0.081259824 0.46204147 5161
-0.028665327 0.081010707 0.46062496 70954
-0.027749375 0.080763109 0.45921713 1647408
-0.02683294 0.080498822 0.45771441 4012345
-0.025897676 0.08015947 0.45578489 5720384
-0.0249686 0.07981766 0.45384133 6574403
-0.024047414 0.079478741 0.45191425 6574403
-0.023144366 0.079178095 0.45020479 6574403
-0.022244509 0.078866892 0.44843531 6574403
-0.021348538 0.078546509 0.44661361 6574403
-0.020459818 0.078228712 0.44480664 6574403
-0.019588135 0.07795278 0.44323769 6574403
-0.018727468 0.077699073 0.44179511 6574403
-0.017872386 0.077447005 0.44036186 6574403
-0.017045651 0.077300042 0.43952623 6574403
-0.016232179 0.077201828 0.43896779 6574403
-0.015420773 0.077103861 0.43841076 6574403
-0.014611422 0.077006146 0.43785512 6574403
-0.013804121 0.076908678 0.43730092 6574403
-0.012908752 0.076278992 0.43372056 6904656
-0.012091016 0.076056398 0.43245488 6574403
-0.011282983 0.075868338 0.43138558 6640453
-0.010487137 0.075740434 0.43065834 6706246
-0.0097107915 0.075744174 0.43067959 6705988
-0.0089359852 0.075761616 0.43077877 6575175
-0.008160823 0.075779073 0.43087801 6248274
-0.0073850523 0.075793952 0.43096265 6249818
-0.0066076843 0.075794026 0.43096304 6381663
-0.0058303149 0.075794093 0.43096343 6052956
-0.0050529442 0.07579416 0.43096381 4802889
-0.004275572 0.075794227 0.4309642 3092271
-0.003498198 0.075794294 0.43096456 1907997
-0.002720823 0.075794362 0.43096495 1184274
-0.0019434468 0.075794429 0.43096533 1907997
-0.0011660692 0.075794496 0.43096572 2960685
-0.00038869007 0.075794563 0.43096611 2105376
0.00038888573 0.075832717 0.43118307 1315860
0.001168497 0.075952306 0.43186304 5263440
0.0019505712 0.076072276 0.43254519 6381921
0.0027351198 0.076192617 0.43322945 5460819
0.0035221546 0.076313347 0.43391591 5131854
0.0043117069 0.076434806 0.43460652 5921370
0.0051041669 0.076562501 0.4353326 6184542
0.0058992789 0.076690629 0.43606111 5789784
0.0066970563 0.076819181 0.43679205 6447714
0.0074975132 0.076948166 0.43752545 6513507
0.0083028302 0.077097706 0.43837577 5789784
0.0091120135 0.077254027 0.4392646 4342338
0.0099685071 0.077754356 0.44210944 6381921
0.010814215 0.078102663 0.44408992 6645093
0.011667534 0.078454107 0.44608819 5921369
0.012528567 0.078808725 0.44810456 5592402
0.013439595 0.079415783 0.4515563 4473924
0.014366028 0.0800393 0.45510158 1517110
-0.034583006 0.084109284 0.47338817 2502456
-0.033530287 0.0836135 0.47059774 793903
-0.032507457 0.083168425 0.46809277 70954
-0.031519648 0.082791604 0.46597192 5161
-0.030560128 0.082470484 0.46416458 5161
-0.029610371 0.082158357 0.46240783 5161
-0.028687986 0.081906281 0.46098909 5161
-0.027771244 0.081655748 0.45957902 136746
-0.026860092 0.081406742 0.45817757 1844528
-0.025927458 0.081074744 0.45630902 4275258
-0.025001189 0.080741547 0.45443368 5983041
-0.024082504 0.080411069 0.45257369 6574403
-0.023170704 0.08008121 0.45071712 6574403
-0.022267086 0.079756655 0.44889045 6574403
-0.021370118 0.079432324 0.44706506 6574403
-0.020480415 0.079110622 0.44525445 6574403
-0.019600797 0.078803204 0.44352421 6574403
-0.018739535 0.078546561 0.44207975 6574403
-0.017883863 0.07829158 0.44064465 6574403
-0.017064035 0.078177094 0.4400003 6574403
-0.016249664 0.078077659 0.43944064 6574403
-0.015437363 0.077978469 0.43888241 6574403
-0.014627121 0.077879541 0.43832558 6574403
-0.013818934 0.07778085 0.43777016 6574403
-0.013012792 0.077682421 0.43721616 6574403
-0.012186706 0.077444546 0.43587735 6574403
-0.011298457 0.07675159 0.43197721 7036758
-0.010499712 0.076609008 0.43117473 6705989
-0.009724197 0.076626673 0.43127415 6705988
-0.0089469431 0.076632507 0.43130699 6641226
-0.0081689553 0.076632582 0.43130738 6445651
-0.0073909657 0.076632649 0.43130776 6381147
-0.0066129756 0.076632716 0.43130815 6447456
-0.0058349837 0.076632783 0.43130854 6447714
-0.0050569903 0.07663285 0.43130893 5987163
-0.0042789956 0.076632924 0.43130931 5855577
-0.0035009996 0.076632991 0.4313097 5066061
-0.0027230021 0.076633058 0.43131009 4276545
-0.0019450033 0.076633126 0.43131047 4671303
-0.0011670031 0.0766332 0.43131086 5066061
-0.00038900136 0.076633267 0.43131125 4473924
0.00038959819 0.076750845 0.43197301 4210752
0.0011706412 0.076872103 0.43265548 6381921
0.001954156 0.076993749 0.43334013 6381921
0.0027401545 0.077115774 0.43402693 5526612
0.003528778 0.077241033 0.4347319 5526611
0.0043201586 0.077370107 0.43545839 5921370
0.0051141884 0.077499621 0.43618733 5987163
0.0059108809 0.077629574 0.43691871 5987163
0.0067102499 0.077759951 0.43765253 6381921
0.0075123082 0.077890776 0.43838882 6447714
0.0083170701 0.07802204 0.43912762 6250335
0.0091362987 0.078254387 0.44043532 5789784
0.0099750767 0.078603603 0.44240081 6842472
0.010821374 0.078955948 0.44438389 6447970
0.011675293 0.079311468 0.44638485 5723990
0.012536936 0.079670206 0.44840389 5722959
0.013475221 0.080442987 0.45275331 3094077
0.014369142 0.080877744 0.45520023 729140
-0.033627 0.084705986 0.47195512 2239542
-0.032583069 0.08420819 0.46918154 596781
-0.03158059 0.083793826 0.46687287 70954
-0.030600581 0.083418019 0.46477899 5161
-0.029647067 0.083095305 0.4629809 5161
-0.028710682 0.082803272 0.46135378 5161
-0.027793145 0.082549788 0.45994148 5161
-0.026881212 0.082297862 0.45853782 268075
-0.025954874 0.081984445 0.45679155 2501427
-0.025027519 0.08164715 0.45491225 4537915
-0.024107762 0.081312619 0.45304835 6245954
-0.023196507 0.080984302 0.45121905 6574403
-0.022290906 0.08065255 0.44937065 6574403
-0.021391742 0.080319934 0.44751742 6574403
-0.020501055 0.079994313 0.44570315 6574403
-0.019617561 0.079671316 0.44390354 6574403
-0.018751616 0.079395138 0.44236475 6574403
-0.017899815 0.079156958 0.44103768 6574403
-0.01708246 0.079056039 0.44047537 6574403
-0.016267186 0.078955367 0.43991449 6574403
-0.015453989 0.078854963 0.43935508 6574403
-0.014642855 0.078754812 0.43879706 6574403
-0.013833779 0.078654915 0.43824044 6574403
-0.013026753 0.078555271 0.43768525 6574403
-0.012221769 0.078455873 0.43713146 6574403
-0.01141882 0.078356735 0.43657908 6574403
-0.010575492 0.077945292 0.43428665 6705732
-0.0097327232 0.077472478 0.43165228 6837318
-0.0089541133 0.077472545 0.43165267 6772040
-0.0081755025 0.077472612 0.43165305 6510928
-0.0073968894 0.077472687 0.43165344 6315353
-0.0066182753 0.077472754 0.43165383 6447198
-0.0058396603 0.077472821 0.43165421 6579043
-0.0050610434 0.077472895 0.4316546 6513507
-0.0042824252 0.077472962 0.43165499 6513507
-0.0035038055 0.077473029 0.43165538 6513507
-0.0027251844 0.077473104 0.43165576 6645093
-0.0019465621 0.077473171 0.43165615 6579300
-0.0011679382 0.077473238 0.43165651 6381921
-0.00038969744 0.077549793 0.43208304 6250335
0.00039031327 0.07767234 0.43276587 6579300
0.0011727932 0.077795282 0.43345085 6513507
0.0019577541 0.077918611 0.434138 6250335
0.0027453974 0.078047723 0.43485737 4934475
0.003535697 0.07817819 0.43558428 5066061
0.004328643 0.078309089 0.43631363 4737096
0.0051242495 0.078440435 0.43704543 4605510
0.0059225284 0.078572214 0.43777966 5197647
0.0067234952 0.078704447 0.43851641 6447714
0.0075264755 0.078829929 0.43921557 6645093
0.0083306152 0.0789425 0.43984279 6645093
0.0091422973 0.07910075 0.44072449 6842472
0.0099816546 0.079453975 0.44269255 6579300
0.010828543 0.079810366 0.44467828 6053212
0.011683061 0.080169968 0.44668186 5592403
0.01257606 0.080730192 0.44980326 5131853
0.013478126 0.081277192 0.45285094 1648438
0.014372258 0.081716552 0.45529893 1517110
-0.032676764 0.08529909 0.47053075 1517108
-0.031653766 0.084832095 0.4679547 465197
-0.030658541 0.08441598 0.46565932 5418
-0.029686209 0.084041238 0.46359214 5161
-0.02873865 0.083716936 0.4618032 5161
-0.027815083 0.083445244 0.4603045 5161
-0.026902365 0.083190389 0.45889863 5161
-0.02598235 0.082896069 0.45727509 662060
-0.025053903 0.082554661 0.45539182 2830133
-0.024133071 0.082216062 0.45352399 4866364
-0.023222063 0.081888326 0.45171615 6443074
-0.022318244 0.081563041 0.44992179 6574403
-0.021416364 0.081220552 0.44803253 6574403
-0.020522026 0.080880933 0.44615909 6574403
-0.01963727 0.080552883 0.44434953 6574403
-0.018763714 0.080244817 0.44265014 6574403
-0.017919187 0.080039032 0.441515 6574403
-0.017100925 0.079936877 0.44095147 6574403
-0.016284747 0.079834983 0.44038939 6574403
-0.01547065 0.079733349 0.43982875 6574403
-0.014658621 0.079631969 0.43926951 6574403
-0.013848656 0.07953085 0.43871173 6574403
-0.013040744 0.079429984 0.43815532 6574403
-0.012234879 0.079329379 0.43760034 6574403
-0.011431053 0.07922902 0.43704677 6574403
-0.010629258 0.079128921 0.43649459 6574403
-0.0098294867 0.079029076 0.43594381 6574403
-0.0089759957 0.078442395 0.43270755 6705732
-0.008182059 0.078313999 0.43199927 6576206
-0.0074028224 0.078314066 0.43199965 6314838
-0.0066235838 0.07831414 0.43200004 6381404
-0.0058443439 0.078314207 0.43200043 6447713
-0.0050651026 0.078314275 0.43200082 6513507
-0.0042858599 0.078314349 0.4320012 6579300
-0.0035066158 0.078314416 0.43200159 6579300
-0.0027273702 0.078314491 0.43200198 6645093
-0.0019481233 0.078314558 0.43200237 6645093
-0.0011693902 0.078349143 0.43219313 6579300
-0.00039041287 0.078472987 0.43287629 6579300
0.00039103098 0.078597225 0.43356162 6579300
0.0011749769 0.07872346 0.43425795 6316128
0.0019615639 0.078854874 0.43498287 5592405
0.0027507816 0.078986727 0.43571022 3618615
0.0035426428 0.079119027 0.43643999 3618615
0.0043371608 0.079251759 0.4371722 3092271
0.0051343418 0.079384826 0.43790621 3355443
0.0059324997 0.079495497 0.43851671 5066317
0.0067328862 0.079606481 0.43912891 6645093
0.0075356718 0.079719476 0.43975222 6513507
0.0083445963 0.079869702 0.44058093 6579300
0.0091565754 0.08002051 0.44141281 6513506
0.0099882418 0.080305465 0.44298467 6250334
0.01083572 0.080665916 0.44497302 5723989
0.01169084 0.081029616 0.44697928 5526352
0.012596262 0.081672534 0.45052579 4014406
0.013481034 0.082111754 0.45294863 268591
0.014375375 0.082555726 0.45539767 2305336
-0.03173225 0.085888617 0.46911493 1253938
-0.030729398 0.085452981 0.46673554 399660
-0.029741276 0.085034914 0.46445209 5418
-0.028776497 0.08466129 0.46241137 5161
-0.027837055 0.084342122 0.46066812 5161
-0.02692355 0.084084317 0.45926002 5161
-0.026009884 0.083809622 0.45775968 5161
-0.025080344 0.083464094 0.45587242 990765
-0.024158437 0.083121397 0.45400065 3158326
-0.023247676 0.082794353 0.45221436 5129021
-0.022345066 0.082473606 0.45046249 6574403
-0.021442551 0.082129017 0.44858038 6574403
-0.020547016 0.08178518 0.44670236 6574403
-0.019658946 0.081444204 0.44483998 6574403
-0.018778717 0.081108078 0.4430041 6574403
-0.017938601 0.080923021 0.44199336 6574403
-0.017119428 0.080819622 0.4414286 6574403
-0.016302345 0.080716491 0.44086531 6574403
-0.015487347 0.080613621 0.44030344 6574403
-0.014674421 0.080511019 0.43974301 6574403
-0.013863564 0.08040867 0.43918401 6574403
-0.013054766 0.08030659 0.43862644 6574403
-0.012248018 0.080204763 0.43807027 6574403
-0.011443312 0.080103189 0.4375155 6574403
-0.010640644 0.080001876 0.43696213 6574403
-0.0098400023 0.079900824 0.43641019 6574403
-0.0090413811 0.079800017 0.43585959 6574403
-0.0082447724 0.079699472 0.43531042 6574403
-0.0074087647 0.079156801 0.43234643 6708051
-0.0066289008 0.079156876 0.43234682 6315611
-0.0058490355 0.079156943 0.43234721 6315870
-0.0050691683 0.079157017 0.4323476 6316128
-0.0042893002 0.079157084 0.43234798 6447714
-0.0035094307 0.079157159 0.43234837 6579300
-0.0027295596 0.079157226 0.43234876 6579556
-0.0019496871 0.0791573 0.43234915 6579300
-0.0011715376 0.079274036 0.43298677 6579300
-0.00039113095 0.079399578 0.43367246 6579300
0.0003917719 0.079529695 0.43438315 6513506
0.0011772782 0.079662494 0.43510848 5987419
0.0019654122 0.079795733 0.43583623 4934475
0.0027561872 0.079929426 0.43656644 2894892
0.0035489057 0.08004754 0.43721154 4079166
0.0043435888 0.080158956 0.43782011 2829099
0.0051404871 0.080270685 0.43843034 3618615
0.0059396103 0.080382727 0.4390423 5921370
0.0067410548 0.080496125 0.43966168 6513506
0.0075483155 0.080647789 0.44049007 5789783
0.0083586238 0.080800034 0.44132158 5855577
0.0091719972 0.080952846 0.44215623 5592404
0.0099948375 0.081158079 0.44327721 5790039
0.010842907 0.081522599 0.44526818 5460817
0.011719204 0.082034431 0.44806376 5657938
0.012598964 0.082502902 0.45062247 2371388
0.013483942 0.08294668 0.45304635 5934
0.014378493 0.083395258 0.45549646 2371128
-0.030800581 0.086494781 0.46781671 1122609
-0.029809833 0.086070642 0.46552271 268331
-0.028828753 0.085650645 0.46325108 5418
-0.027871404 0.085278176 0.46123657 5161
-0.026944768 0.084979653 0.45962197 5161
-0.026036052 0.084720492 0.45822024 5161
-0.02510684 0.084375441 0.45635402 5161
-0.024184108 0.084029526 0.45448309 1253422
-0.023273343 0.083702371 0.45271364 3421239
-0.022369642 0.083377756 0.45095792 5326142
-0.021468803 0.083039716 0.44912958 6574403
-0.020572066 0.08269164 0.44724697 6574403
-0.019682813 0.082346462 0.44538006 6574403
-0.018800953 0.08200416 0.44352868 6574403
-0.017950995 0.081776761 0.44229874 6640196
-0.017133685 0.081683844 0.44179621 6640196
-0.016317295 0.081586473 0.44126958 6640196
-0.01550285 0.081489339 0.44074419 6574403
-0.014690258 0.081391968 0.44021755 6574403
-0.013878505 0.08128839 0.43965733 6574403
-0.013068817 0.081185073 0.43909854 6574403
-0.012261184 0.081082024 0.43854117 6574403
-0.011455598 0.080979228 0.43798521 6574403
-0.010652053 0.080876701 0.43743068 6574403
-0.0098505402 0.080774426 0.43687752 6574403
-0.0090510519 0.080672421 0.43632579 6574403
-0.00825358 0.080570661 0.43577543 6574403
-0.0074581169 0.080469161 0.43522644 6574403
-0.0066646561 0.080367915 0.43467885 6575434
-0.0058537344 0.080001034 0.43269455 6907491
-0.005073241 0.080001108 0.43269494 6184541
-0.0042927461 0.080001183 0.43269533 6381920
-0.00351225 0.08000125 0.43269572 6513763
-0.0027317526 0.080001324 0.4326961 6579300
-0.001953061 0.080075502 0.4330973 6579300
-0.0011736975 0.080202661 0.43378508 6579300
-0.00039188488 0.080336399 0.43450841 6513507
0.00039253943 0.080470584 0.43523416 6381921
0.001179458 0.080596298 0.4359141 6052955
0.0019684914 0.080708154 0.43651906 4474180
0.0027597179 0.080820307 0.43712568 2105376
0.0035531465 0.080932781 0.43773401 4868682
0.0043487865 0.081045568 0.43834403 5066061
0.0051466473 0.081158675 0.43895575 5723991
0.0059467652 0.081272461 0.43957117 5789782
0.0067523634 0.081425555 0.44039923 5658196
0.0075610019 0.081579231 0.44123039 5197645
0.0083726989 0.081733488 0.4420647 5329232
0.0091874711 0.081888326 0.44290218 5329488
0.010005336 0.08204376 0.44374284 5395281
0.010850105 0.082380421 0.44556373 5526609
0.011725909 0.082890049 0.44832009 4671818
0.01260167 0.083333619 0.45071921 794419
0.013486853 0.083781965 0.45314413 5934
-0.029878708 0.08711116 0.46659827 991281
-0.028895034 0.086685106 0.46431616 202539
-0.027920935 0.086263187 0.46205625 5161
-0.026970901 0.085891947 0.46006772 5161
-0.026056528 0.085614301 0.45858058 5161
-0.025133392 0.085288718 0.45683664 5161
-0.024210943 0.084943481 0.45498741 5161
-0.023299068 0.084612407 0.45321405 1516079
-0.022394273 0.084283896 0.45145446 3749688
-0.021495121 0.083952643 0.44968012 5391934
-0.020597177 0.083600305 0.44779289 6574403
-0.019706739 0.083250917 0.44592145 6574403
-0.018823713 0.082904436 0.44406557 6574403
-0.017961631 0.082623504 0.44256079 6640195
-0.017139954 0.082510941 0.44195786 6771525
-0.016325422 0.082423471 0.44148934 6640196
-0.015510562 0.082325287 0.44096345 6640196
-0.014697639 0.082227334 0.44043878 6640196
-0.013886651 0.08212962 0.43991539 6640196
-0.013077586 0.082032129 0.43939319 6640196
-0.012270441 0.081934877 0.43887228 6640196
-0.011465207 0.081837855 0.43835258 6640196
-0.010661878 0.081741057 0.43783411 6640196
-0.0098604457 0.08164449 0.43731686 6574403
-0.0090607423 0.081546679 0.43679294 6574403
-0.0082624061 0.081443712 0.43624142 6574403
-0.0074660825 0.081341006 0.43569127 6574403
-0.0066717654 0.081238553 0.43514252 6574403
-0.0058794464 0.081136361 0.43459514 6574403
-0.0050891186 0.081034429 0.43404913 6379344
-0.0042961976 0.08084663 0.43304321 6316128
-0.0035150738 0.080846697 0.4330436 6513507
-0.0027349838 0.080877379 0.43320793 6513507
-0.0019567257 0.081008449 0.43390998 6579300
-0.0011759683 0.081141815 0.43462434 6645093
-0.00039253183 0.081254087 0.43522573 6645093
0.00039307569 0.081366673 0.43582875 6579299
0.0011808632 0.081479564 0.43643346 5789783
0.0019708399 0.081592776 0.43703985 4473923
0.002763015 0.0817063 0.43764794 2500134
0.0035573978 0.081820145 0.43825772 5921370
0.0043539968 0.081934303 0.43886921 6250334
0.005152822 0.082048781 0.43948239 5790039
0.0059567392 0.082203001 0.44030842 5263695
0.0067637097 0.082358107 0.44113925 5395281
0.0075737308 0.082513802 0.44197321 5000010
0.0083868215 0.082670093 0.44281036 5329231
0.0092029972 0.082826979 0.44365066 5263695
0.010022277 0.082984455 0.44449416 5263695
0.010861728 0.083273254 0.44604108 5723731
0.011728412 0.083716601 0.44841582 3094592
0.012604374 0.084164694 0.45081595 5934
0.013489764 0.084617615 0.45324194 5934
-0.029947899 0.088156492 0.46767882 3028025
-0.028961621 0.087724328 0.46538615 925488
-0.027984966 0.087296382 0.46311584 136746
-0.027017791 0.086872593 0.46086758 5161
-0.026077032 0.086509518 0.45894146 5161
-0.02516 0.086203933 0.4573203 5161
-0.02423784 0.085859463 0.45549285 5161
-0.023324849 0.085524447 0.45371556 5161
-0.022418957 0.085192032 0.45195207 1713200
-0.021520078 0.084862195 0.45020226 3946809
-0.020622348 0.084511198 0.44834015 5654591
-0.019730723 0.084157571 0.44646415 6574403
-0.018846525 0.083806887 0.44460374 6574403
-0.017985158 0.083531059 0.44314045 6574403
-0.01714211 0.083318621 0.44201344 6771524
-0.016330162 0.083243996 0.44161752 6837317
-0.015518281 0.083162069 0.44118291 6705988
-0.014704946 0.083063073 0.44065773 6640196
-0.013893546 0.082964316 0.44013381 6640196
-0.013084072 0.08286579 0.43961111 6640196
-0.012276518 0.082767494 0.43908966 6640196
-0.011470879 0.082669437 0.43856946 6640196
-0.010667146 0.082571611 0.43805048 6640196
-0.0098653128 0.082474016 0.43753272 6640196
-0.0090653729 0.082376651 0.43701619 6640196
-0.0082673198 0.082279518 0.43650088 6640196
-0.0074711465 0.082182609 0.43598679 6640196
-0.0066768462 0.08208593 0.43547389 6640196
-0.0058844127 0.081989482 0.43496221 6640196
-0.005093839 0.081893258 0.43445173 6640196
-0.0043051187 0.081797257 0.43394244 6574403
-0.0035179025 0.081693515 0.43339208 6512733
-0.0027396057 0.081796803 0.43394002 6645093
-0.0019595646 0.081909798 0.4345395 6710886
-0.0011773653 0.082023114 0.43514064 6710886
-0.00039299877 0.082136743 0.43574345 6710886
0.00039354395 0.082250684 0.43634793 6579300
0.001182272 0.082364947 0.43695408 6118748
0.0019731943 0.082479522 0.43756193 5658197
0.0027663202 0.082594424 0.43817148 6381921
0.0035616588 0.082709633 0.43878269 6645093
0.0043592197 0.082825176 0.43939564 6250334
0.0051614433 0.082980126 0.44021767 5461074
0.0059667462 0.08313667 0.44104815 5132108
0.0067750942 0.083293803 0.44188178 5066315
0.0075865034 0.083451539 0.44271857 5131851
0.0084009916 0.083609864 0.44355851 5461073
0.0092185754 0.0837688 0.44440165 5789782
0.010036783 0.083907507 0.44513753 5657939
0.010869706 0.084139578 0.44636869 4934217
0.011730918 0.084543511 0.4485116 1451575
0.012607082 0.084996127 0.45091277 5934
0.013492676 0.085453615 0.45333979 5934
-0.029038532 0.088798985 0.46662202 2699577
-0.028054239 0.088349916 0.46426225 925488
-0.027079852 0.08790537 0.46192622 70954
-0.026119282 0.087478861 0.45968503 5161
-0.025186665 0.087121092 0.45780498 5161
-0.024264794 0.086777486 0.4559994 5161
-0.023350688 0.086438514 0.45421818 5161
-0.022443695 0.086102173 0.45245078 5161
-0.021543732 0.085768446 0.45069709 1975857
-0.020647584 0.085424311 0.44888875 4143930
-0.019754764 0.085066438 0.44700816 5917504
-0.018870302 0.084715612 0.44516465 6574403
-0.018008746 0.084441006 0.44372165 6574403
-0.017152755 0.084168173 0.44228795 6640195
-0.016332213 0.084051147 0.44167301 6837317
-0.015521615 0.083975919 0.44127768 6837317
-0.01471226 0.083899647 0.4408769 6705988
-0.013900448 0.083799839 0.44035244 6640196
-0.013090564 0.083700269 0.43982923 6640196
-0.012282602 0.083600946 0.43930727 6640196
-0.011476557 0.083501846 0.43878654 6640196
-0.01067242 0.083402984 0.43826705 6640196
-0.0098701846 0.083304361 0.43774879 6640196
-0.0090698451 0.083205968 0.43723175 6640196
-0.0082713934 0.083107807 0.43671593 6640196
-0.0074748225 0.083009869 0.4362013 6640196
-0.0066801277 0.082912177 0.43568793 6640196
-0.0058873012 0.082814708 0.43517575 6640196
-0.0050963368 0.082717463 0.43466476 6706246
-0.0043072272 0.082620449 0.43415496 6643803
-0.0035248098 0.082637206 0.43424302 6316127
-0.0027428551 0.082677491 0.43445471 6513506
-0.001961892 0.082791843 0.43505561 6645093
-0.0011787657 0.082906514 0.43565819 6645349
-0.00039346682 0.083021499 0.4362624 6513763
0.0003940133 0.083136812 0.43686834 5921369
0.001183684 0.083252437 0.43747595 5460818
0.001975554 0.083368383 0.43808523 6316127
0.0027696332 0.083484665 0.43869624 6645093
0.0035659305 0.083601259 0.43930894 6579300
0.0043664747 0.083756924 0.44012693 6184541
0.0051701125 0.083914898 0.44095707 5395023
0.0059767878 0.084073484 0.44179037 5263693
0.0067865173 0.084232658 0.4426268 5460815
0.0075993184 0.084392428 0.4434664 5855574
0.0084126135 0.084526733 0.44417214 5592146
0.0092280125 0.084656984 0.44485655 4999496
0.010053137 0.084848478 0.44586283 3225148
0.010891994 0.085118912 0.44728392 859696
0.011736215 0.085391082 0.44871411 71469
0.012609788 0.085827917 0.4510096 5934
0.01349559 0.086289987 0.45343769 925745
-0.028134262 0.089441754 0.46558651 2634041
-0.027156705 0.088990435 0.46323717 859696
-0.026188966 0.088543646 0.46091142 70954
-0.025230894 0.08810132 0.4586089 5161
-0.024291812 0.087697551 0.45650712 5161
-0.023376584 0.0873546 0.4547219 5161
-0.022468489 0.087014325 0.4529506 5161
-0.02156744 0.086676694 0.45119306 202282
-0.02067288 0.086339675 0.44943872 2304307
-0.019778866 0.085977517 0.44755352 4472123
-0.018895164 0.085631274 0.44575116 6180418
-0.018032394 0.085353337 0.44430435 6574403
-0.017175207 0.085077189 0.44286689 6574403
-0.016334265 0.084858507 0.44172853 6771524
-0.015523563 0.084782541 0.44133309 6837317
-0.014714312 0.084706716 0.44093838 6837317
-0.013906506 0.084631018 0.44054437 6705988
-0.013097062 0.084535584 0.44004756 6640196
-0.012288693 0.084435217 0.4395251 6640196
-0.011482241 0.084335081 0.43900385 6640196
-0.010677699 0.084235184 0.43848383 6640196
-0.009875061 0.084135525 0.43796507 6640196
-0.009074321 0.084036097 0.43744752 6640196
-0.0082754698 0.083936907 0.43693119 6640196
-0.0074785026 0.083837949 0.43641606 6640196
-0.0066834129 0.083739229 0.43590218 6640196
-0.0058901929 0.083640739 0.43538949 6772040
-0.005098837 0.083542481 0.43487799 6775132
-0.0043152845 0.083559602 0.43496713 6316127
-0.0035321184 0.083593465 0.43514341 6316128
-0.0027483171 0.083627358 0.43531984 6316127
-0.001964225 0.083675981 0.43557292 6447714
-0.0011801692 0.083792008 0.43617693 6052955
-0.000393936 0.083908372 0.43678263 5790038
0.00039448377 0.08402504 0.43738997 5658196
0.0011850992 0.084142052 0.43799904 5789781
0.0019779198 0.084259383 0.43860981 6052955
0.0027729543 0.084377035 0.43922225 6447713
0.0035718342 0.084533408 0.44003624 6052954
0.0043738075 0.084692821 0.44086605 5526608
0.0051788115 0.08485283 0.441699 5592657
0.0059868153 0.085012779 0.44253159 5921623
0.0067954739 0.08514329 0.44321096 5592145
0.007606619 0.085274197 0.44389242 4933702
0.0084202616 0.085405514 0.44457597 3224892
0.0092384163 0.08555577 0.44535813 1122609
0.010073727 0.085828155 0.446776 71468
0.010914373 0.086102277 0.44820294 5676
0.011760406 0.086378157 0.44963902 5676
0.012612497 0.086660065 0.45110649 5677
0.013498505 0.08712671 0.45353562 1910836
-0.027233994 0.090081677 0.46455556 2568248
-0.026263125 0.089628123 0.46221659 859695
-0.025301984 0.089179121 0.45990106 70954
-0.024348482 0.088727519 0.45757213 5161
-0.023403909 0.088277899 0.45525342 5161
-0.022493336 0.087928496 0.45345151 5161
-0.0215912 0.087586939 0.45169011 5161
-0.020696042 0.087248027 0.44994229 464939
-0.019803025 0.086890824 0.44810018 2764340
-0.018920092 0.086549357 0.44633922 4997949
-0.018056106 0.086268067 0.44488859 6311490
-0.017197719 0.085988596 0.44344735 6574403
-0.016344875 0.085710935 0.44201544 6640195
-0.015525513 0.085589364 0.44138852 6837317
-0.014716158 0.085512809 0.4409937 6837317
-0.013908249 0.085436389 0.44059959 6837317
-0.013101783 0.085360102 0.44020617 6771525
-0.012294789 0.085270308 0.43974313 6640196
-0.01148793 0.085169137 0.43922135 6640196
-0.010682984 0.085068204 0.43870085 6640196
-0.009879943 0.084967509 0.43818155 6640196
-0.0090788007 0.084867053 0.4376635 6640196
-0.0082795508 0.084766828 0.43714663 6640196
-0.0074821864 0.084666848 0.43663102 6640196
-0.006686701 0.0845671 0.43611664 6838604
-0.0058930875 0.08446759 0.43560344 6775132
-0.0051084002 0.084485076 0.43569365 6184027
-0.0043242471 0.084519379 0.43587053 6184542
-0.0035394575 0.084553704 0.43604755 6184542
-0.0027540296 0.084588051 0.4362247 6184542
-0.0019679638 0.084622443 0.43640202 6052956
-0.0011815762 0.084679626 0.43669695 5921369
-0.00039440629 0.084797353 0.43730405 5723989
0.00039495539 0.084915407 0.43791288 5592402
0.001186518 0.085033789 0.43852338 4934730
0.001980291 0.085152507 0.43913561 5789782
0.002777521 0.085309573 0.43994561 5658196
0.0035778312 0.085470416 0.44077507 5724245
0.0043808655 0.085626006 0.44157746 6053209
0.0051853177 0.085757174 0.44225392 5460559
0.0059922379 0.085888743 0.44293243 4802116
0.0068016383 0.086020723 0.44361302 2830906
0.0076135299 0.086153105 0.44429573 662832
0.0084279245 0.086285889 0.44498053 71213
0.0092573157 0.086535782 0.44626921 5676
0.0100944 0.086811848 0.4476929 5676
0.010936843 0.08708968 0.44912571 5676
0.011784696 0.0873693 0.45056772 5676
0.012638011 0.087650716 0.45201901 5676
0.013501421 0.087963797 0.45363358 1910835
-0.026337707 0.090718769 0.4635292 2108471
-0.025373474 0.090263017 0.46120051 859696
-0.024417514 0.089806788 0.4588694 70954
-0.02346994 0.089350477 0.45653787 5161
-0.022531932 0.088898718 0.45422959 5161
-0.02161501 0.088499196 0.45218822 5161
-0.020718779 0.088156372 0.45043659 5161
-0.019827245 0.087806366 0.44864821 727853
-0.018945085 0.087469861 0.44692883 2632756
-0.018079881 0.087185197 0.44547436 5194814
-0.017220289 0.086902387 0.44402933 6311746
-0.016366256 0.086621411 0.44259366 6574403
-0.015527464 0.086396404 0.44144398 6771524
-0.014718005 0.086319104 0.44104904 6837317
-0.013909993 0.086241961 0.44065484 6837317
-0.013103424 0.086164936 0.4402613 6837317
-0.012298294 0.086088061 0.43986851 6837317
-0.011493624 0.086004019 0.43943909 6705988
-0.010688273 0.085902043 0.43891805 6640196
-0.0098848287 0.085800312 0.43839824 6640196
-0.009083285 0.085698821 0.43787968 6640196
-0.0082836356 0.085597575 0.43736234 6640196
-0.0074858735 0.085496552 0.4368462 6970706
-0.0066899923 0.085395783 0.4363313 6774873
-0.0059041698 0.085413657 0.43642262 5920594
-0.005119028 0.085448392 0.43660009 5986904
-0.004333247 0.085483149 0.43677768 5921370
-0.003546827 0.085517935 0.43695545 5855577
-0.0027597663 0.085552752 0.43713334 5724246
-0.0019720646 0.085587606 0.43731141 5460817
-0.0011837209 0.085622475 0.4374896 4737094
-0.00039487772 0.085688464 0.43782675 5263438
0.0003954281 0.085807897 0.43843701 5789782
0.0011879402 0.085927673 0.43904901 5723988
0.0019835348 0.086085416 0.43985498 5987160
0.0027818258 0.086236596 0.44062746 5921368
0.0035821002 0.086368419 0.44130099 5328974
0.004384825 0.086500637 0.44197658 4670530
0.0051900116 0.086633265 0.44265425 2436664
0.0059976703 0.086766303 0.44333398 334126
0.0068078144 0.08689975 0.44401583 5677
0.0076204538 0.0870336 0.44469976 5677
0.0084427558 0.087241806 0.44576359 5676
0.0092762923 0.087519802 0.44718403 5676
0.01011516 0.087799586 0.44861358 5676
0.010959407 0.088081159 0.45005229 5676
0.011809087 0.088364549 0.45150027 5676
0.01266419 0.088649333 0.45295537 1910835
-0.025445372 0.091353051 0.46250734 2042935
-0.024486933 0.090892173 0.46017396 859696
-0.023536339 0.090429097 0.45782948 70954
-0.022595361 0.089970618 0.45550826 5161
-0.021663871 0.089516744 0.45321038 5161
-0.020741729 0.089067429 0.45093554 5161
-0.019851187 0.088722654 0.44918999 5161
-0.018970143 0.088392794 0.44751999 793645
-0.018103717 0.088104755 0.44606167 2698548
-0.01724292 0.087818593 0.44461286 5260606
-0.016387695 0.087534271 0.44317341 6377282
-0.015537991 0.087251797 0.44174325 6640195
-0.014719852 0.087125614 0.44110441 6837317
-0.013911737 0.087047726 0.4407101 6837317
-0.013105066 0.086969979 0.44031647 6837317
-0.012299834 0.086892374 0.43992355 6837317
-0.011496038 0.08681491 0.43953136 6837317
-0.010693568 0.086736716 0.43913549 6705988
-0.00988972 0.086633943 0.43861517 6640196
-0.009087774 0.086531416 0.43809608 6705989
-0.008287725 0.086429134 0.43757823 7102551
-0.0074895644 0.086327083 0.43706158 6971480
-0.0067026066 0.086345345 0.43715402 5919307
-0.0059164735 0.086380512 0.43733209 5525837
-0.0051296996 0.086415708 0.43751028 5131852
-0.0043422845 0.086450942 0.43768865 4803145
-0.0035542273 0.086486198 0.43786713 4934730
-0.002765527 0.086521484 0.4380458 5263694
-0.0019761827 0.0865568 0.43822458 5263437
-0.0011861937 0.086592138 0.43840352 5066059
-0.00039555941 0.086627513 0.4385826 5395024
0.000395902 0.086702533 0.43896243 5921111
0.0011896517 0.086844571 0.43968153 5855318
0.0019857769 0.086977035 0.44035217 5262924
0.0027843348 0.087109901 0.44102487 4276289
0.0035853358 0.08724317 0.44169959 2108215
0.0043887915 0.087376855 0.44237641 5677
0.0051947138 0.087510943 0.4430553 5677
0.006003113 0.087645449 0.44373628 5677
0.0068140011 0.087780371 0.44441935 5677
0.0076300385 0.087946229 0.44525909 5676
0.0084600421 0.088226154 0.44667631 5676
0.0092953481 0.088507876 0.44810262 5676
0.010136003 0.088791378 0.44953796 5676
0.010981998 0.089076206 0.45098001 5676
0.01183344 0.089362867 0.45243132 1254968
-0.024556747 0.091983743 0.46148595 2042936
-0.023603102 0.091513783 0.45912814 794160
-0.022659145 0.091048568 0.45679414 136746
-0.021724718 0.090587974 0.4544833 5161
-0.020799693 0.090132006 0.4521957 5161
-0.019883936 0.089680605 0.44993103 5161
-0.018997664 0.089329436 0.4481692 5161
-0.018127616 0.089026742 0.44665056 1187630
-0.017265609 0.088737197 0.44519791 3026997
-0.016409189 0.08844953 0.44375467 5063485
-0.015558304 0.088163726 0.44232076 6245953
-0.0147217 0.087932318 0.44115978 5326399
-0.013913481 0.0878537 0.44076535 5983297
-0.013106708 0.08777523 0.44037166 6837317
-0.012301373 0.087696888 0.43997863 6837317
-0.011497476 0.087618694 0.43958634 6837317
-0.01069501 0.087540641 0.43919474 6837317
-0.0098939734 0.087462723 0.43880382 6837832
-0.0090922676 0.087364838 0.43831271 7234652
-0.0082918182 0.087261513 0.43779433 7102807
-0.0075037237 0.087280154 0.43788788 6049348
-0.0067165978 0.087315768 0.43806654 5262149
-0.0059288288 0.087351412 0.43824536 4933957
-0.0051404163 0.087387078 0.43842429 4737093
-0.0043513598 0.087422773 0.4386034 5066059
-0.0035614928 0.087454431 0.43876222 5460817
-0.0027708586 0.087479964 0.43889031 5789782
-0.0019797627 0.087505512 0.43901849 5789782
-0.0011882047 0.087531075 0.43914676 5723989
-0.00039618846 0.087557651 0.43928006 5328974
0.00039665942 0.087661736 0.43980226 4670788
0.0011913945 0.087766059 0.44032568 3422011
0.0019880235 0.087870643 0.44085035 1713716
0.002786848 0.087984778 0.44142297 136748
0.0035885773 0.088119514 0.44209895 5676
0.0043927659 0.08825466 0.44277698 5677
0.0051994245 0.088390216 0.4434571 5677
0.0060085654 0.088526197 0.4441393 5677
0.0068201995 0.088662595 0.44482362 5676
0.0076456438 0.088930912 0.44616976 5676
0.0084773898 0.089214437 0.44759223 5676
0.009314415 0.089499377 0.44902179 5676
0.010156804 0.08978615 0.45046052 5676
0.011004608 0.090074755 0.4519085 794675
0.012062621 0.091925494 0.46119371 5197905
-0.023670243 0.092604637 0.46043417 1977143
-0.02272328 0.092132568 0.45808703 728367
-0.021785907 0.091665231 0.4557634 71210
