# .PCD v0.7 - Point Cloud Data file format
VERSION 0.7
FIELDS x y z rgb
SIZE 4 4 4 4
TYPE F F F U
COUNT 1 1 1 1
WIDTH 1176
HEIGHT 1
VIEWPOINT 0 0 0 1 0 0 0
POINTS 1176
DATA ascii
0.2911388 0.19424489 0.50675768 1381653
0.29205203 0.19424431 0.50675619 1381653
0.26778379 0.19748475 0.51279688 2171169
0.26708028 0.1962879 0.50968909 1315860
0.26647922 0.19517431 0.50679749 1315860
0.26739261 0.19517374 0.506796 1381653
0.26830599 0.19517319 0.50679457 1381653
0.26921937 0.19517261 0.50679308 1381653
0.27013272 0.19517204 0.50679159 1381653
0.2710461 0.19517146 0.5067901 1381653
0.27195945 0.19517089 0.50678861 1381653
0.27287278 0.19517031 0.50678712 1381653
0.27378616 0.19516976 0.50678569 1381653
0.27469951 0.1951692 0.5067842 1381653
0.27561283 0.19516861 0.50678271 1381653
0.27652615 0.19516805 0.50678122 1381653
0.27743948 0.19516747 0.50677973 1381653
0.27835283 0.19516692 0.5067783 1381653
0.27926612 0.19516635 0.50677681 1381653
0.28017944 0.19516577 0.50677532 1381653
0.28109273 0.1951652 0.50677383 1381653
0.28200603 0.19516462 0.50677234 1381653
0.28291932 0.19516405 0.50677085 1381653
0.28383264 0.1951635 0.50676942 1381653
0.2847459 0.19516292 0.50676793 1381653
0.28565919 0.19516236 0.50676644 1381653
0.28657246 0.19516177 0.50676495 1381653
0.28748572 0.19516121 0.50676346 1381653
0.28839895 0.19516063 0.50676197 1381653
0.28931224 0.19516008 0.50676054 1381653
0.29022551 0.19515951 0.50675905 1381653
0.29113874 0.19515893 0.50675756 1381653
0.29205197 0.19515836 0.50675607 1381653
0.26946098 0.20034446 0.51779723 1776411
0.26874036 0.19911851 0.51462871 1315860
0.2680285 0.19790745 0.51149869 1315860
0.26732528 0.19671106 0.50840658 1315860
0.26739255 0.19608788 0.50679594 1381653
0.26830593 0.1960873 0.50679445 1381653
0.26921931 0.19608672 0.50679296 1381653
0.27013266 0.19608615 0.50679147 1381653
0.27104604 0.1960856 0.50679004 1381653
0.27195939 0.19608502 0.50678855 1381653
0.27287275 0.19608444 0.50678706 1381653
0.2737861 0.19608386 0.50678557 1381653
0.27469942 0.19608329 0.50678408 1381653
0.27561277 0.19608271 0.50678259 1381653
0.27652612 0.19608216 0.50678116 1381653
0.27743945 0.19608158 0.50677967 1381653
0.27835277 0.19608101 0.50677818 1381653
0.27926606 0.19608043 0.50677669 1381653
0.28017938 0.19607985 0.5067752 1381653
0.28109267 0.19607927 0.50677371 1381653
0.282006 0.19607872 0.50677228 1381653
0.28291929 0.19607815 0.50677079 1381653
0.28383258 0.19607757 0.5067693 1381653
0.28474584 0.19607699 0.50676781 1381653
0.2856591 0.19607642 0.50676632 1381653
0.28657243 0.19607586 0.50676489 1381653
0.28748569 0.19607529 0.5067634 1381653
0.28839892 0.19607471 0.50676191 1381653
0.28931218 0.19607413 0.50676042 1381653
0.29022542 0.19607356 0.50675893 1381653
0.29113868 0.19607298 0.50675744 1381653
0.29205194 0.19607243 0.50675601 1381653
0.27191859 0.20453215 0.52616745 1776411
0.27117115 0.20326047 0.52289599 1315860
0.27043292 0.20200449 0.51966494 1315860
0.26970378 0.20076394 0.51647359 1315860
0.26898351 0.19953854 0.51332122 1315860
0.26827198 0.19832802 0.51020706 1315860
0.26756907 0.1971321 0.5071305 1315860
0.26830587 0.19700141 0.50679433 1381653
0.26921928 0.19700086 0.5067929 1381653
0.27013263 0.19700028 0.50679141 1381653
0.27104598 0.1969997 0.50678992 1381653
0.27195933 0.19699912 0.50678843 1381653
0.27287269 0.19699854 0.50678694 1381653
0.27378607 0.19699799 0.50678551 1381653
0.27469939 0.1969974 0.50678402 1381653
0.27561274 0.19699682 0.50678253 1381653
0.27652606 0.19699624 0.50678104 1381653
0.27743939 0.19699568 0.50677955 1381653
0.27835268 0.19699509 0.50677806 1381653
0.27926603 0.19699453 0.50677663 1381653
0.28017932 0.19699395 0.50677514 1381653
0.28109264 0.19699338 0.50677365 1381653
0.28200594 0.1969928 0.50677216 1381653
0.28291923 0.19699222 0.50677067 1381653
0.28383249 0.19699164 0.50676918 1381653
0.28474581 0.19699109 0.50676775 1381653
0.28565907 0.1969905 0.50676626 1381653
0.28657234 0.19698992 0.50676477 1381653
0.2874856 0.19698934 0.50676328 1381653
0.28839886 0.19698876 0.50676179 1381653
0.28931215 0.19698821 0.50676036 1381653
0.29022539 0.19698763 0.50675887 1381653
0.29113862 0.19698705 0.50675738 1381653
0.29205188 0.19698647 0.50675589 1381653
0.27445704 0.20885748 0.53481281 1776411
0.27368134 0.20753768 0.53143328 1315860
0.27291536 0.20623447 0.5280962 1315860
0.27215895 0.20494753 0.52480078 1315860
0.27141196 0.20367655 0.52154624 1315860
0.27067414 0.20242125 0.51833183 1315860
0.26994535 0.20118131 0.51515675 1315860
0.26922545 0.19995646 0.51202035 1315860
0.26851425 0.19874644 0.50892192 1315860
0.26830584 0.19791555 0.50679427 1381653
0.26921922 0.19791497 0.50679278 1381653
0.27013257 0.19791439 0.50679129 1381653
0.27104592 0.19791381 0.5067898 1381653
0.2719593 0.19791324 0.50678837 1381653
0.27287266 0.19791266 0.50678688 1381653
0.27378601 0.19791208 0.50678539 1381653
0.27469933 0.1979115 0.5067839 1381653
0.27561265 0.19791092 0.50678241 1381653
0.276526 0.19791034 0.50678092 1381653
0.27743936 0.19790977 0.50677949 1381653
0.27835265 0.19790919 0.506778 1381653
0.27926597 0.19790861 0.50677651 1381653
0.28017926 0.19790803 0.50677502 1381653
0.28109255 0.19790745 0.50677353 1381653
0.28200591 0.1979069 0.5067721 1381653
0.28291917 0.19790632 0.50677061 1381653
0.28383246 0.19790573 0.50676912 1381653
0.28474575 0.19790515 0.50676763 1381653
0.28565902 0.19790457 0.50676614 1381653
0.28657228 0.19790398 0.50676465 1381653
0.28748557 0.19790342 0.50676322 1381653
0.28839883 0.19790284 0.50676173 1381653
0.28931209 0.19790226 0.50676024 1381653
0.29022533 0.19790168 0.50675875 1381653
0.29113856 0.1979011 0.50675726 1381653
0.29205182 0.19790053 0.50675583 1381653
0.27627483 0.21195689 0.54025394 1315860
0.2754797 0.210604 0.53680557 1315860
0.27469462 0.20926824 0.53340089 1315860
0.27391946 0.20794933 0.53003913 1315860
0.27315402 0.20664695 0.52671951 1315860
0.27239808 0.20536077 0.5234412 1315860
0.27165148 0.20409049 0.52020341 1315860
0.27091411 0.20283586 0.5170055 1315860
0.27018571 0.20159656 0.51384664 1315860
0.26946616 0.20037228 0.51072609 1315860
0.26875532 0.1991628 0.50764328 1315860
0.26921919 0.1988291 0.50679272 1381653
0.27013254 0.19882852 0.50679123 1381653
0.27104589 0.19882794 0.50678974 1381653
0.27195925 0.19882736 0.50678825 1381653
0.2728726 0.19882676 0.50678676 1381653
0.27378595 0.19882618 0.50678527 1381653
0.2746993 0.19882561 0.50678384 1381653
0.27561262 0.19882503 0.50678235 1381653
0.27652594 0.19882445 0.50678086 1381653
0.27743927 0.19882387 0.50677937 1381653
0.27835259 0.19882327 0.50677788 1381653
0.27926591 0.19882269 0.50677639 1381653
0.28017923 0.19882214 0.50677496 1381653
0.28109252 0.19882154 0.50677347 1381653
0.28200582 0.19882096 0.50677198 1381653
0.28291911 0.19882038 0.50677049 1381653
0.2838324 0.1988198 0.506769 1381653
0.28474572 0.19881923 0.50676757 1381653
0.28565899 0.19881865 0.50676608 1381653
0.28657225 0.19881807 0.50676459 1381653
0.28748551 0.19881748 0.5067631 1381653
0.28839877 0.1988169 0.50676161 1381653
0.28931201 0.19881631 0.50676012 1381653
0.2902253 0.19881575 0.50675869 1381653
0.29113853 0.19881517 0.5067572 1381653
0.29205176 0.19881459 0.50675571 1381653
0.27895579 0.2165252 0.5493722 1776411
0.27812997 0.21511999 0.54580688 1315860
0.27731478 0.2137329 0.54228753 1315860
0.27651 0.21236357 0.53881323 1315860
0.27571547 0.21101166 0.53538316 1315860
0.27493098 0.20967685 0.53199643 1315860
0.27415633 0.20835882 0.52865231 1315860
0.2733914 0.20705727 0.52534997 1315860
0.27263597 0.20577188 0.52208865 1315860
0.27188984 0.20450233 0.51886755 1315860
0.27115282 0.20324835 0.51568592 1315860
0.27042487 0.20200968 0.51254314 1315860
0.26970568 0.20078601 0.5094384 1315860
0.2692191 0.19974321 0.5067926 1381653
0.27013248 0.19974263 0.50679111 1381653
0.27104583 0.19974203 0.50678962 1381653
0.27195919 0.19974145 0.50678813 1381653
0.27287257 0.19974089 0.5067867 1381653
0.27378589 0.19974031 0.50678521 1381653
0.27469924 0.19973971 0.50678372 1381653
0.27561256 0.19973913 0.50678223 1381653
0.27652588 0.19973853 0.50678074 1381653
0.27743924 0.19973798 0.50677931 1381653
0.27835256 0.19973738 0.50677782 1381653
0.27926588 0.1997368 0.50677633 1381653
0.28017917 0.19973621 0.50677484 1381653
0.28109246 0.19973563 0.50677335 1381653
0.28200576 0.19973503 0.50677186 1381653
0.28291908 0.19973448 0.50677043 1381653
0.28383237 0.19973388 0.50676894 1381653
0.28474563 0.1997333 0.50676745 1381653
0.28565893 0.19973271 0.50676596 1381653
0.28657219 0.19973212 0.50676447 1381653
0.28748548 0.19973156 0.50676304 1381653
0.28839874 0.19973098 0.50676155 1381653
0.28931198 0.19973038 0.50676006 1381653
0.29022521 0.1997298 0.50675857 1381653
0.29113847 0.1997292 0.50675708 1381653
0.2920517 0.19972862 0.50675559 1381653
0.28172883 0.22125037 0.55880356 1776411
0.28087059 0.21979 0.55511516 1315860
0.28002363 0.2183488 0.55147517 1315860
0.27918768 0.21692635 0.54788256 1315860
0.27836254 0.21552232 0.54433644 1315860
0.27754804 0.21413636 0.54083598 1315860
0.27674389 0.21276808 0.53738016 1315860
0.27594995 0.21141717 0.53396821 1315860
0.27516606 0.21008332 0.53059936 1315860
0.27439198 0.20876618 0.5272727 1315860
0.27362755 0.20746545 0.52398753 1315860
0.2728726 0.20618084 0.52074301 1315860
0.27212694 0.20491205 0.51753849 1315860
0.27139038 0.20365877 0.51437312 1315860
0.27066278 0.20242071 0.5112462 1315860
0.26994398 0.20119764 0.50815713 1315860
0.27013245 0.20065676 0.50679106 1381653
0.2710458 0.20065616 0.50678957 1381653
0.27195916 0.20065558 0.50678807 1381653
0.27287251 0.20065498 0.50678658 1381653
0.27378583 0.2006544 0.50678509 1381653
0.27469918 0.20065381 0.5067836 1381653
0.27561253 0.20065324 0.50678217 1381653
0.27652586 0.20065264 0.50678068 1381653
0.27743918 0.20065206 0.50677919 1381653
0.2783525 0.20065147 0.5067777 1381653
0.27926579 0.20065089 0.50677621 1381653
0.28017914 0.20065032 0.50677478 1381653
0.28109244 0.20064972 0.50677329 1381653
0.28200573 0.20064913 0.5067718 1381653
0.28291902 0.20064855 0.50677031 1381653
0.28383231 0.20064795 0.50676882 1381653
0.28474557 0.20064737 0.50676733 1381653
0.28565887 0.2006468 0.5067659 1381653
0.28657216 0.20064621 0.50676441 1381653
0.28748539 0.20064561 0.50676292 1381653
0.28839865 0.20064503 0.50676143 1381653
0.28931192 0.20064443 0.50675994 1381653
0.29022518 0.20064387 0.50675851 1381653
0.29113844 0.20064329 0.50675702 1381653
0.29205167 0.20064269 0.50675553 1381653
0.28459871 0.2261406 0.56856436 2171169
0.28370634 0.22462207 0.56474644 1315860
0.28282583 0.22312377 0.56097943 1315860
0.281957 0.22164536 0.55726236 1315860
0.28109962 0.22018638 0.55359423 1315860
0.28025347 0.21874651 0.54997408 1315860
0.27941826 0.21732531 0.5464009 1315860
0.27859387 0.21592249 0.54287392 1315860
0.27778006 0.21453767 0.53939217 1315860
0.27697659 0.21317045 0.53595471 1315860
0.27618325 0.21182054 0.53256077 1315860
0.27539995 0.21048766 0.52920961 1315860
0.2746264 0.20917141 0.5259003 1315860
0.27386248 0.20787153 0.52263212 1315860
0.27310804 0.20658772 0.51940435 1315860
0.27236283 0.20531967 0.51621622 1315860
0.27162671 0.20406708 0.51306695 1315860
0.2708995 0.20282969 0.50995588 1315860
0.27018109 0.20160721 0.50688231 1315860
0.27104574 0.20157027 0.50678945 1381653
0.2719591 0.20156968 0.50678796 1381653
0.27287248 0.20156911 0.50678653 1381653
0.2737858 0.20156851 0.50678504 1381653
0.27469915 0.20156792 0.50678355 1381653
0.27561247 0.20156734 0.50678205 1381653
0.2765258 0.20156674 0.50678056 1381653
0.27743912 0.20156614 0.50677907 1381653
0.27835247 0.20156558 0.50677764 1381653
0.27926576 0.20156498 0.50677615 1381653
0.28017908 0.20156439 0.50677466 1381653
0.28109238 0.20156379 0.50677317 1381653
0.28200567 0.20156321 0.50677168 1381653
0.28291899 0.20156264 0.50677025 1381653
0.28383225 0.20156205 0.50676876 1381653
0.28474554 0.20156145 0.50676727 1381653
0.28565881 0.20156085 0.50676578 1381653
0.28657207 0.20156026 0.50676429 1381653
0.28748533 0.20155968 0.5067628 1381653
0.28839862 0.2015591 0.50676137 1381653
0.28931189 0.20155852 0.50675988 1381653
0.29022512 0.20155792 0.50675839 1381653
0.29113835 0.20155732 0.5067569 1381653
0.29205158 0.20155673 0.50675541 1381653
0.28664219 0.22962476 0.57471782 1776411
0.28572634 0.22806625 0.57081711 1315860
0.28482282 0.22652873 0.56696892 1315860
0.2839314 0.22501184 0.56317234 1315860
0.28305188 0.22351511 0.55942625 1315860
0.28218392 0.22203815 0.55572963 1315860
0.2813274 0.22058059 0.55208158 1315860
0.28048205 0.21914205 0.54848111 1315860
0.27964765 0.21772215 0.5449273 1315860
0.278824 0.21632054 0.54141927 1315860
0.27801082 0.21493681 0.537956 1315860
0.277208 0.21357068 0.53453678 1315860
0.27641535 0.21222183 0.53116077 1315860
0.27563259 0.21088988 0.52782708 1315860
0.27485961 0.20957454 0.524535 1315860
0.27409622 0.20827553 0.52128375 1315860
0.27334225 0.20699251 0.51807255 1315860
0.27259752 0.20572521 0.51490068 1315860
0.27186182 0.20447333 0.51176739 1315860
0.27113503 0.20323658 0.508672 1315860
0.27104571 0.2024844 0.50678939 1381653
0.27195907 0.2024838 0.5067879 1381653
0.27287239 0.20248321 0.50678641 1381653
0.27378574 0.20248261 0.50678492 1381653
0.27469906 0.20248201 0.50678343 1381653
0.27561244 0.20248145 0.506782 1381653
0.27652577 0.20248085 0.50678051 1381653
0.27743909 0.20248026 0.50677902 1381653
0.27835241 0.20247966 0.50677752 1381653
0.2792657 0.20247906 0.50677603 1381653
0.28017899 0.20247847 0.50677454 1381653
0.28109235 0.2024779 0.50677311 1381653
0.28200564 0.20247731 0.50677162 1381653
0.28291893 0.20247671 0.50677013 1381653
0.28383219 0.20247611 0.50676864 1381653
0.28474548 0.20247552 0.50676715 1381653
0.28565878 0.20247494 0.50676572 1381653
0.28657204 0.20247434 0.50676423 1381653
0.2874853 0.20247374 0.50676274 1381653
0.28839856 0.20247315 0.50676125 1381653
0.2893118 0.20247257 0.50675976 1381653
0.29022506 0.20247197 0.50675827 1381653
0.29113832 0.20247139 0.50675684 1381653
0.29205155 0.20247079 0.50675535 1381653
0.28968361 0.2348073 0.58504766 1776411
0.28873038 0.23318516 0.58100593 1315860
0.28779027 0.23158529 0.57701969 1315860
0.28686294 0.23000722 0.57308775 1315860
0.28594816 0.22845051 0.56920904 1315860
0.28504565 0.2269147 0.56538242 1315860
0.28415525 0.22539945 0.561607 1315860
0.28327668 0.2239043 0.55788165 1315860
0.28240964 0.22242881 0.55420536 1315860
0.28155395 0.22097267 0.55057722 1315860
0.28070942 0.21953548 0.5469963 1315860
0.27987579 0.21811685 0.54346162 1315860
0.27905282 0.21671642 0.53997231 1315860
0.27824035 0.21533383 0.53652745 1315860
0.27743822 0.21396881 0.53312635 1315860
0.27664617 0.21262097 0.52976805 1315860
0.27586401 0.21128999 0.52645177 1315860
0.27509162 0.20997559 0.52317679 1315860
0.27432874 0.20867743 0.51994228 1315860
0.27357528 0.20739523 0.51674753 1315860
0.27283099 0.20612869 0.51359183 1315860
0.27209574 0.20487751 0.51047438 1315860
0.2713694 0.20364146 0.50739461 1315860
0.27195898 0.2033979 0.50678778 1381653
0.27287233 0.2033973 0.50678629 1381653
0.27378571 0.20339672 0.50678486 1381653
0.27469903 0.20339613 0.50678337 1381653
0.27561238 0.20339553 0.50678188 1381653
0.27652571 0.20339493 0.50678039 1381653
0.27743903 0.20339434 0.5067789 1381653
0.27835235 0.20339376 0.50677747 1381653
0.27926567 0.20339316 0.50677598 1381653
0.28017896 0.20339257 0.50677449 1381653
0.28109229 0.20339197 0.50677299 1381653
0.28200555 0.20339137 0.5067715 1381653
0.28291884 0.20339078 0.50677001 1381653
0.28383216 0.2033902 0.50676858 1381653
0.28474545 0.2033896 0.50676709 1381653
0.28565872 0.203389 0.5067656 1381653
0.28657198 0.20338841 0.50676411 1381653
0.28748524 0.20338781 0.50676262 1381653
0.2883985 0.2033872 0.50676113 1381653
0.28931177 0.20338663 0.5067597 1381653
0.29022503 0.20338604 0.50675821 1381653
0.29113826 0.20338544 0.50675672 1381653
0.29205149 0.20338485 0.50675523 1381653
0.29283634 0.24017954 0.59575564 1776411
0.29184362 0.23849013 0.59156513 1315860
0.29086477 0.23682432 0.58743316 1315860
0.2898995 0.23518163 0.58335853 1315860
0.28894755 0.23356158 0.57934004 1315860
0.2880086 0.23196368 0.57537651 1315860
0.2870824 0.23038749 0.57146686 1315860
0.28616872 0.22883259 0.56760997 1315860
0.28526729 0.22729853 0.56380481 1315860
0.28437784 0.2257849 0.56005031 1315860
0.28350019 0.22429131 0.55634552 1315860
0.28263405 0.22281733 0.55268937 1315860
0.28177926 0.22136262 0.54908103 1315860
0.28093553 0.21992674 0.54551941 1315860
0.28010267 0.21850941 0.54200375 1315860
0.27928045 0.2171102 0.53853309 1315860
0.2784687 0.21572879 0.53510654 1315860
0.27766722 0.21436484 0.53172332 1315860
0.27687576 0.21301803 0.5283826 1315860
0.27609426 0.21168806 0.52508366 1315860
0.27532241 0.21037456 0.52182561 1315860
0.27456009 0.20907728 0.51860774 1315860
0.27380711 0.2077959 0.51542932 1315860
0.2730633 0.20653011 0.51228958 1315860
0.27232853 0.20527968 0.50918794 1315860
0.27195895 0.20431203 0.50678772 1381653
0.2728723 0.20431143 0.50678623 1381653
0.27378565 0.20431082 0.50678474 1381653
0.27469897 0.20431022 0.50678325 1381653
0.27561229 0.20430963 0.50678176 1381653
0.27652568 0.20430905 0.50678033 1381653
0.277439 0.20430845 0.50677884 1381653
0.27835229 0.20430784 0.50677735 1381653
0.27926561 0.20430724 0.50677586 1381653
0.2801789 0.20430665 0.50677437 1381653
0.2810922 0.20430604 0.50677288 1381653
0.28200552 0.20430547 0.50677145 1381653
0.28291881 0.20430486 0.50676996 1381653
0.2838321 0.20430426 0.50676847 1381653
0.28474537 0.20430367 0.50676697 1381653
0.28565866 0.20430306 0.50676548 1381653
0.28657195 0.20430249 0.50676405 1381653
0.28748521 0.20430188 0.50676256 1381653
0.28839844 0.20430128 0.50676107 1381653
0.28931171 0.20430069 0.50675958 1381653
0.29022494 0.20430008 0.50675809 1381653
0.2911382 0.20429948 0.5067566 1381653
0.29205146 0.2042989 0.50675517 1381653
0.29507211 0.24399149 0.60251522 1315860
0.2940523 0.24225594 0.59822941 1315860
0.29304689 0.2405449 0.59400415 1315860
0.29205561 0.23885788 0.58983821 1315860
0.29107812 0.23719434 0.58573025 1315860
0.29011416 0.2355538 0.58167911 1315860
0.28916344 0.23393582 0.57768363 1315860
0.28822568 0.23233992 0.57374269 1315860
0.28730065 0.23076564 0.56985515 1315860
0.28638804 0.22921254 0.56601989 1315860
0.28548765 0.22768021 0.56223595 1315860
0.28459921 0.22616823 0.55850226 1315860
0.28372252 0.22467621 0.55481786 1315860
0.28285727 0.22320372 0.55118167 1315860
0.28200334 0.22175045 0.54759294 1315860
0.28116044 0.22031595 0.54405057 1315860
0.28032833 0.21889988 0.54055369 1315860
0.27950689 0.21750189 0.53710151 1315860
0.27869582 0.21612163 0.53369308 1315860
0.277895 0.2147588 0.53032768 1315860
0.27710423 0.21341303 0.52700442 1315860
0.27632329 0.21208403 0.52372259 1315860
0.275552 0.21077147 0.52048135 1315860
0.27479023 0.20947507 0.51727998 1315860
0.27403778 0.20819452 0.51411778 1315860
0.27329442 0.2069295 0.51099396 1315860
0.27256009 0.2056798 0.50790793 1315860
0.27287224 0.20522553 0.50678611 1381653
0.27378562 0.20522495 0.50678468 1381653
0.27469894 0.20522434 0.50678319 1381653
0.27561226 0.20522374 0.5067817 1381653
0.27652559 0.20522313 0.50678021 1381653
0.27743891 0.20522253 0.50677872 1381653
0.27835223 0.20522192 0.50677723 1381653
0.27926558 0.20522134 0.5067758 1381653
0.28017887 0.20522074 0.50677431 1381653
0.28109217 0.20522013 0.50677282 1381653
0.28200546 0.20521954 0.50677133 1381653
0.28291875 0.20521893 0.50676984 1381653
0.28383204 0.20521833 0.50676835 1381653
0.28474534 0.20521775 0.50676692 1381653
0.2856586 0.20521715 0.50676543 1381653
0.28657189 0.20521654 0.50676394 1381653
0.28748512 0.20521595 0.50676244 1381653
0.28839839 0.20521533 0.50676095 1381653
0.28931168 0.20521475 0.50675952 1381653
0.29022491 0.20521416 0.50675803 1381653
0.29113814 0.20521355 0.50675654 1381653
0.29205137 0.20521295 0.50675505 1381653
0.2984224 0.24970038 0.61387837 1776411
0.2973592 0.24789095 0.60942996 1315860
0.29631135 0.24610758 0.60504562 1315860
0.29527843 0.24434967 0.60072386 1315860
0.29426017 0.2426167 0.59646344 1315860
0.29325625 0.24090813 0.59226298 1315860
0.2922664 0.23922348 0.58812135 1315860
0.29129025 0.23756221 0.58403718 1315860
0.29032758 0.23592386 0.58000934 1315860
0.28937811 0.23430794 0.57603669 1315860
0.28844154 0.23271403 0.5721181 1315860
0.28751764 0.23114163 0.56825244 1315860
0.28660616 0.22959036 0.5644387 1315860
0.28570682 0.22805977 0.5606758 1315860
0.28481936 0.22654945 0.55696273 1315860
0.28394362 0.225059 0.55329853 1315860
0.2830793 0.22358802 0.5496822 1315860
0.2822262 0.22213615 0.54611284 1315860
0.28138411 0.22070302 0.54258955 1315860
0.2805528 0.21928824 0.53911138 1315860
0.27973208 0.21789148 0.53567749 1315860
0.27892175 0.2165124 0.53228706 1315860
0.27812159 0.21515067 0.52893931 1315860
0.27733147 0.21380596 0.52563339 1315860
0.27655113 0.21247797 0.52236855 1315860
0.27578044 0.21116635 0.519144 1315860
0.2750192 0.20987083 0.51595902 1315860
0.27426726 0.20859112 0.51281291 1315860
0.2735244 0.2073269 0.50970489 1315860
0.27287221 0.20613964 0.50678605 1315860
0.27378556 0.20613904 0.50678456 1381653
0.27469888 0.20613843 0.50678307 1381653
0.27561221 0.20613782 0.50678158 1381653
0.27652553 0.20613721 0.50678009 1381653
0.27743888 0.20613663 0.50677866 1381653
0.2783522 0.20613603 0.50677717 1381653
0.27926549 0.20613542 0.50677568 1381653
0.28017882 0.20613481 0.50677419 1381653
0.28109211 0.20613421 0.5067727 1381653
0.28200543 0.20613363 0.50677127 1381653
0.28291872 0.20613302 0.50676978 1381653
0.28383198 0.20613241 0.50676829 1381653
0.28474528 0.20613182 0.5067668 1381653
0.28565854 0.2061312 0.50676531 1381653
0.2865718 0.20613059 0.50676382 1381653
0.28748509 0.20613001 0.50676239 1381653
0.28839836 0.20612942 0.5067609 1381653
0.28931162 0.20612881 0.50675941 1381653
0.29022485 0.20612819 0.50675792 1381653
0.29113808 0.2061276 0.50675642 1381653
0.29205135 0.20612702 0.50675499 1381653
0.30190146 0.25562871 0.6256783 1776411
0.30079231 0.253741 0.62105793 1315860
0.2996994 0.25188094 0.61650527 1315860
0.29862243 0.25004798 0.61201888 1315860
0.29756102 0.24824151 0.60759735 1315860
0.29651481 0.24646091 0.60323918 1315860
0.2954835 0.24470571 0.59894311 1315860
0.29446679 0.24297534 0.59470785 1315860
0.29346436 0.24126925 0.590532 1315860
0.29247594 0.23958696 0.58641446 1315860
0.29150113 0.23792794 0.58235383 1315860
0.29053977 0.23629177 0.57834911 1315860
0.28959155 0.23467796 0.57439911 1315860
0.2886562 0.23308602 0.5705027 1315860
0.28773344 0.23151554 0.56665879 1315860
0.28682303 0.22996609 0.56286633 1315860
0.28592473 0.22843723 0.55912429 1315860
0.28503829 0.22692856 0.55543166 1315860
0.2841635 0.2254397 0.5517875 1315860
0.2833001 0.22397023 0.54819083 1315860
0.28244787 0.22251981 0.54464078 1315860
0.28160661 0.22108805 0.54113638 1315860
0.28077611 0.21967457 0.53767675 1315860
0.27995613 0.21827905 0.53426105 1315860
0.27914649 0.21690114 0.5308885 1315860
0.27834702 0.21554051 0.52755821 1315860
0.27755755 0.21419688 0.52426952 1315860
0.27677783 0.21286988 0.52102154 1315860
0.27600771 0.21155922 0.51781356 1315860
0.27524701 0.21026458 0.5146448 1315860
0.2744956 0.20898572 0.51151466 1315860
0.27375323 0.20772231 0.50842232 1315860
0.27378547 0.20705312 0.50678444 1381653
0.27469885 0.20705254 0.50678301 1381653
0.27561218 0.20705193 0.50678152 1381653
0.2765255 0.20705132 0.50678003 1381653
0.27743882 0.20705071 0.50677854 1381653
0.27835214 0.20705011 0.50677705 1381653
0.27926543 0.2070495 0.50677556 1381653
0.28017879 0.20704892 0.50677413 1381653
0.28109208 0.20704831 0.50677264 1381653
0.28200537 0.2070477 0.50677115 1381653
0.28291866 0.20704709 0.50676966 1381653
0.28383192 0.20704648 0.50676817 1381653
0.28474525 0.2070459 0.50676674 1381653
0.28565851 0.20704529 0.50676525 1381653
0.28657177 0.20704468 0.50676376 1381653
0.28748503 0.20704406 0.50676227 1381653
0.2883983 0.20704345 0.50676078 1381653
0.28931153 0.20704286 0.50675929 1381653
0.29022482 0.20704226 0.50675786 1381653
0.29113805 0.20704167 0.50675637 1381653
0.29205129 0.20704105 0.50675488 1381653
0.3055169 0.26178944 0.63794082 2171169
0.30435896 0.25981861 0.63313824 1315860
0.30321831 0.25787726 0.62840742 1315860
0.30209458 0.2559647 0.62374681 1315860
0.30098742 0.2540803 0.61915481 1315860
0.29989642 0.25222343 0.61462992 1315860
0.29882124 0.25039351 0.61017066 1315860
0.29776156 0.24858993 0.60577565 1315860
0.29671705 0.24681218 0.60144353 1315860
0.29568738 0.24505965 0.59717292 1315860
0.29467222 0.24333186 0.59296256 1315860
0.29367125 0.24162824 0.5888111 1315860
0.29268423 0.23994833 0.58471739 1315860
0.29171085 0.23829162 0.58068025 1315860
0.29075077 0.23665762 0.57669842 1315860
0.2898038 0.23504587 0.57277083 1315860
0.28886965 0.23345594 0.56889641 1315860
0.28794804 0.23188736 0.56507403 1315860
0.28703871 0.23033972 0.56130266 1315860
0.28614146 0.22881259 0.55758131 1315860
0.28525606 0.22730561 0.553909 1315860
0.28438216 0.22581831 0.55028468 1315860
0.28351972 0.22435038 0.54670757 1315860
0.28266835 0.22290139 0.54317659 1315860
0.2818279 0.22147098 0.53969091 1315860
0.2809982 0.22005881 0.5362497 1315860
0.28017896 0.21866454 0.53285205 1315860
0.27937007 0.21728782 0.52949721 1315860
0.27857128 0.21592833 0.52618432 1315860
0.27778244 0.21458575 0.52291268 1315860
0.27700332 0.21325974 0.51968139 1315860
0.27623379 0.21195005 0.51648986 1315860
0.27547365 0.21065633 0.51333725 1315860
0.27472275 0.2093783 0.51022291 1315860
0.27398089 0.2081157 0.50714612 1315860
0.27469879 0.20796664 0.50678289 1381653
0.27561212 0.20796603 0.5067814 1381653
0.27652544 0.20796542 0.50677991 1381653
0.27743879 0.20796482 0.50677848 1381653
0.27835211 0.20796421 0.50677699 1381653
0.2792654 0.2079636 0.5067755 1381653
0.2801787 0.20796299 0.50677401 1381653
0.28109202 0.20796238 0.50677252 1381653
0.28200531 0.20796177 0.50677103 1381653
0.2829186 0.20796119 0.5067696 1381653
0.28383189 0.20796058 0.50676811 1381653
0.28474519 0.20795996 0.50676662 1381653
0.28565845 0.20795934 0.50676513 1381653
0.28657171 0.20795873 0.50676364 1381653
0.287485 0.20795815 0.50676221 1381653
0.28839827 0.20795754 0.50676072 1381653
0.2893115 0.20795693 0.50675923 1381653
0.29022473 0.20795631 0.50675774 1381653
0.29113799 0.2079557 0.50675625 1381653
0.29205123 0.20795509 0.50675476 1381653
0.30570242 0.26211259 0.63593298 1315860
0.30454668 0.26014549 0.63116044 1315860
0.30340821 0.25820771 0.62645906 1315860
0.30228654 0.2562986 0.62182719 1315860
0.30118135 0.25441751 0.61726332 1315860
0.30009222 0.2525638 0.61276591 1315860
0.29901889 0.25073695 0.60833359 1315860
0.29796097 0.24893631 0.60396492 1315860
0.29691812 0.24716134 0.59965855 1315860
0.29589003 0.24541152 0.59541315 1315860
0.29487643 0.2436863 0.59122747 1315860
0.29387698 0.24198517 0.58710021 1315860
0.29289135 0.24030763 0.58303016 1315860
0.29191932 0.2386532 0.57901621 1315860
0.29096058 0.23702136 0.57505709 1315860
0.29001483 0.23541169 0.57115173 1315860
0.2890819 0.23382376 0.56729913 1315860
0.28816143 0.23225708 0.56349808 1315860
0.28725323 0.23071128 0.5597477 1315860
0.28635702 0.22918591 0.55604684 1315860
0.28547257 0.22768056 0.55239463 1315860
0.28459969 0.22619489 0.5487901 1315860
0.28373814 0.22472847 0.5452323 1315860
0.28288764 0.22328092 0.54172027 1315860
0.28204802 0.22185189 0.53825319 1315860
0.28121909 0.22044104 0.53483021 1315860
0.28040066 0.21904804 0.53145051 1315860
0.27959245 0.21767248 0.52811319 1315860
0.27879438 0.21631414 0.52481759 1315860
0.27800617 0.21497262 0.52156281 1315860
0.27722767 0.21364763 0.51834816 1315860
0.27645877 0.21233891 0.51517296 1315860
0.27569914 0.21104608 0.51203632 1315860
0.27494878 0.20976894 0.50893772 1315860
0.27469873 0.20888072 0.50678277 1381653
0.27561209 0.20888014 0.50678134 1381653
0.27652541 0.20887952 0.50677985 1381653
0.27743873 0.2088789 0.50677836 1381653
0.27835202 0.20887829 0.50677687 1381653
0.27926534 0.20887768 0.50677538 1381653
0.28017867 0.20887709 0.50677395 1381653
0.28109199 0.20887648 0.50677246 1381653
0.28200525 0.20887586 0.50677097 1381653
0.28291854 0.20887525 0.50676948 1381653
0.28383183 0.20887463 0.50676799 1381653
0.2847451 0.20887402 0.5067665 1381653
0.28565842 0.20887344 0.50676507 1381653
0.28657168 0.20887281 0.50676358 1381653
0.28748494 0.2088722 0.50676209 1381653
0.28839818 0.20887159 0.5067606 1381653
0.28931144 0.20887098 0.50675911 1381653
0.2902247 0.20887038 0.50675768 1381653
0.29113793 0.20886977 0.50675619 1381653
0.29205117 0.20886916 0.5067547 1381653
0.3070578 0.26442689 0.63875246 3156262
0.30588678 0.26243371 0.63393772 1315860
0.30473328 0.26047036 0.62919503 1315860
0.30359691 0.25853616 0.62452275 1315860
0.3024773 0.25663045 0.61991936 1315860
0.30137408 0.25475267 0.61538333 1315860
0.30028686 0.25290212 0.61091316 1315860
0.29921535 0.25107831 0.60650754 1315860
0.29815918 0.24928062 0.60216498 1315860
0.29711798 0.24750845 0.59788412 1315860
0.29609153 0.24576132 0.59366375 1315860
0.29507944 0.24403869 0.58950251 1315860
0.29408148 0.24234003 0.58539921 1315860
0.29309729 0.24066485 0.58135265 1315860
0.2921266 0.23901267 0.57736164 1315860
0.29116917 0.23738304 0.57342505 1315860
0.2902247 0.23577547 0.56954181 1315860
0.28929293 0.23418953 0.56571078 1315860
0.28837362 0.23262477 0.56193095 1315860
0.28746653 0.2310808 0.55820131 1315860
0.28657135 0.22955716 0.55452079 1315860
0.28568795 0.22805351 0.55088854 1315860
0.28481603 0.22656941 0.54730356 1315860
0.28395537 0.22510453 0.54376495 1315860
0.28310576 0.22365843 0.54027176 1315860
0.28226697 0.22223078 0.53682309 1315860
0.28143886 0.22082125 0.53341824 1315860
0.28062114 0.21942948 0.53005624 1315860
0.27981371 0.21805516 0.52673644 1315860
0.27901629 0.21669793 0.52345788 1315860
0.27822876 0.2153575 0.52021992 1315860
0.27745089 0.21403354 0.51702178 1315860
0.27668256 0.21272579 0.51386273 1315860
0.27592352 0.21143389 0.51074201 1315860
0.27517366 0.21015759 0.50765896 1315860
0.27561203 0.20979422 0.50678122 1381653
0.27652535 0.20979361 0.50677973 1381653
0.27743867 0.20979299 0.50677824 1381653
0.27835199 0.20979239 0.50677681 1381653
0.27926531 0.20979178 0.50677532 1381653
0.28017861 0.20979117 0.50677383 1381653
0.2810919 0.20979054 0.50677234 1381653
0.28200519 0.20978993 0.50677085 1381653
0.28291851 0.20978934 0.50676942 1381653
0.2838318 0.20978872 0.50676793 1381653
0.28474507 0.2097881 0.50676644 1381653
0.28565833 0.20978749 0.50676495 1381653
0.28657159 0.20978686 0.50676346 1381653
0.28748485 0.20978625 0.50676197 1381653
0.28839815 0.20978566 0.50676054 1381653
0.28931141 0.20978504 0.50675905 1381653
0.29022464 0.20978443 0.50675756 1381653
0.29113787 0.20978381 0.50675607 1381653
0.29205111 0.2097832 0.50675458 1381653
0.3072387 0.26474214 0.63673955 1315860
0.30607 0.26275283 0.63195497 1315860
0.30491871 0.26079318 0.62724179 1315860
0.30378446 0.25886256 0.62259835 1315860
0.30266687 0.25696027 0.61802316 1315860
0.30156562 0.25508577 0.61351472 1315860
0.30048031 0.25323844 0.60907161 1315860
0.29941061 0.25141764 0.6046924 1315860
0.29835618 0.24962287 0.60037571 1315860
0.29731667 0.2478535 0.59612018 1315860
0.29629183 0.24610905 0.59192455 1315860
0.29528129 0.244389 0.58778757 1315860
0.29428479 0.24269283 0.58370805 1315860
0.29330203 0.24102002 0.57968473 1315860
0.29233274 0.23937014 0.57571656 1315860
0.29137659 0.23774266 0.57180226 1315860
0.29043338 0.23613718 0.56794089 1315860
0.28950283 0.23455325 0.56413132 1315860
0.28858465 0.23299041 0.56037247 1315860
0.28767863 0.23144826 0.55666339 1315860
0.28678456 0.22992641 0.55300313 1315860
0.28590214 0.22842441 0.54939067 1315860
0.28503117 0.22694191 0.54582506 1315860
0.28417146 0.22547854 0.54230547 1315860
0.28332272 0.22403392 0.53883094 1315860
0.28248477 0.22260764 0.53540057 1315860
0.28165743 0.22119944 0.53201365 1315860
0.28084052 0.21980897 0.52866936 1315860
0.28003377 0.21843582 0.52536678 1315860
0.27923706 0.21707973 0.52210522 1315860
0.27845019 0.2157404 0.51888394 1315860
0.27767295 0.21441747 0.51570213 1315860
0.27690521 0.21311069 0.51255912 1315860
0.27614674 0.21181972 0.50945419 1315860
0.275612 0.21070834 0.50678116 1381653
0.27652532 0.21070771 0.50677967 1381653
0.27743861 0.2107071 0.50677818 1381653
0.27835193 0.21070647 0.50677669 1381653
0.27926525 0.21070586 0.5067752 1381653
0.28017855 0.21070524 0.50677371 1381653
0.28109187 0.21070464 0.50677228 1381653
0.28200516 0.21070403 0.50677079 1381653
0.28291845 0.2107034 0.5067693 1381653
0.28383175 0.21070278 0.50676781 1381653
0.28474501 0.21070217 0.50676632 1381653
0.28565827 0.21070154 0.50676483 1381653
0.28657156 0.21070094 0.5067634 1381653
0.28748482 0.21070033 0.50676191 1381653
0.28839809 0.21069971 0.50676042 1381653
0.28931132 0.2106991 0.50675893 1381653
0.29022458 0.21069847 0.50675744 1381653
0.29113784 0.21069787 0.50675601 1381653
0.29205108 0.21069725 0.50675452 1381653
0.30741847 0.26505539 0.63473922 1315860
0.30625203 0.26306993 0.62998456 1315860
0.30510297 0.261114 0.62530059 1315860
0.30397084 0.25918692 0.62068576 1315860
0.30285534 0.2572881 0.61613858 1315860
0.30175602 0.2554169 0.6116575 1315860
0.30067262 0.2535727 0.60724115 1315860
0.29960471 0.25175497 0.60288811 1315860
0.29855204 0.24996309 0.59859705 1315860
0.2975142 0.24819654 0.59436661 1315860
0.29649094 0.24645478 0.59019554 1315860
0.29548198 0.2447373 0.58608264 1315860
0.29448697 0.2430436 0.58202666 1315860
0.29350561 0.24137317 0.57802641 1315860
0.29253766 0.23972555 0.57408077 1315860
0.29158282 0.23810026 0.57018864 1315860
0.29064089 0.2364969 0.56634897 1315860
0.28971151 0.23491494 0.56256062 1315860
0.28879452 0.23335403 0.55882263 1315860
0.2878896 0.23181373 0.555134 1315860
0.28699657 0.2302936 0.5514937 1315860
0.2861152 0.22879332 0.54790092 1315860
0.28524518 0.22731243 0.54435456 1315860
0.28438637 0.22585058 0.5408538 1315860
0.28353849 0.22440739 0.53739774 1315860
0.2827014 0.22298254 0.53398561 1315860
0.2818749 0.22157568 0.53061652 1315860
0.2810587 0.22018643 0.52728963 1315860
0.28025272 0.21881452 0.52400428 1315860
0.27945673 0.2174596 0.52075958 1315860
0.27867049 0.21612133 0.51755476 1315860
0.2778939 0.21479945 0.51438922 1315860
0.27712673 0.21349363 0.51126212 1315860
0.27636886 0.21220362 0.50817287 1315860
0.27652523 0.21162179 0.50677955 1381653
0.27743855 0.21162118 0.50677806 1381653
0.2783519 0.21162058 0.50677663 1381653
0.27926522 0.21161996 0.50677514 1381653
0.28017852 0.21161933 0.50677365 1381653
0.28109181 0.21161871 0.50677216 1381653
0.2820051 0.2116181 0.50677067 1381653
0.28291839 0.21161747 0.50676918 1381653
0.28383169 0.21161687 0.50676775 1381653
0.28474498 0.21161625 0.50676626 1381653
0.28565824 0.21161562 0.50676477 1381653
0.2865715 0.211615 0.50676328 1381653
0.28748477 0.21161439 0.50676179 1381653
0.28839803 0.21161376 0.5067603 1381653
0.28931129 0.21161316 0.50675887 1381653
0.29022455 0.21161254 0.50675738 1381653
0.29113778 0.21161191 0.50675589 1381653
0.29205102 0.2116113 0.5067544 1381653
0.30877888 0.26737836 0.63754815 2301982
0.3075971 0.2653667 0.63275146 1315860
0.30643299 0.26338509 0.62802643 1315860
0.30528611 0.26143286 0.62337142 1315860
0.30415609 0.25950933 0.6187849 1315860
0.30304265 0.25761393 0.61426544 1315860
0.3019453 0.25574601 0.60981148 1315860
0.30086374 0.25390497 0.6054216 1315860
0.29979765 0.25209025 0.60109454 1315860
0.29874671 0.2503013 0.59682888 1315860
0.29771057 0.24853754 0.59262329 1315860
0.29668891 0.24679847 0.5884766 1315860
0.29568148 0.24508359 0.58438754 1315860
0.29468793 0.24339235 0.58035487 1315860
0.29370803 0.2417243 0.57637751 1315860
0.29274142 0.24007894 0.57245427 1315860
0.29178795 0.23845588 0.56858414 1315860
0.29084721 0.23685457 0.56476593 1315860
0.28991908 0.23527464 0.56099868 1315860
0.28900319 0.23371564 0.55728132 1315860
0.28809941 0.23217717 0.55361295 1315860
0.28720745 0.23065883 0.54999256 1315860
0.28632703 0.22916019 0.54641914 1315860
0.28545803 0.22768094 0.54289192 1315860
0.28460014 0.22622061 0.53940988 1315860
0.28375313 0.22477889 0.53597218 1315860
0.2829169 0.22335544 0.53257805 1315860
0.2820912 0.22194992 0.52922666 1315860
0.28127581 0.22056197 0.52591717 1315860
0.28047055 0.21919127 0.52264881 1315860
0.27967522 0.21783748 0.5194208 1315860
0.27888969 0.21650033 0.51623243 1315860
0.27811372 0.2151795 0.51308298 1315860
0.27734715 0.21387467 0.50997168 1315860
0.27658984 0.21258557 0.50689793 1315860
0.27743852 0.21253528 0.506778 1381653
0.27835184 0.21253465 0.50677651 1381653
0.27926514 0.21253403 0.50677502 1381653
0.28017846 0.2125334 0.50677353 1381653
0.28109175 0.21253277 0.50677204 1381653
0.28200507 0.21253218 0.50677061 1381653
0.28291836 0.21253155 0.50676912 1381653
0.28383163 0.21253093 0.50676763 1381653
0.28474492 0.2125303 0.50676614 1381653
0.28565818 0.21252967 0.50676465 1381653
0.28657147 0.21252908 0.50676322 1381653
0.28748474 0.21252845 0.50676173 1381653
0.28839797 0.21252783 0.50676024 1381653
0.28931123 0.2125272 0.50675875 1381653
0.29022446 0.21252657 0.50675726 1381653
0.2911377 0.21252596 0.50675577 1381653
0.29205099 0.21252535 0.50675434 1381653
0.30895406 0.26768374 0.63554281 1315860
0.30777463 0.26567608 0.63077611 1315860
0.30661279 0.26369828 0.62608039 1315860
0.30546811 0.26174974 0.62145412 1315860
0.30434024 0.25982979 0.61689568 1315860
0.3032288 0.25793779 0.61240363 1315860
0.30213338 0.25607312 0.6079765 1315860
0.30105373 0.25423524 0.60361296 1315860
0.29998946 0.25242355 0.59931159 1315860
0.29894027 0.25063753 0.59507114 1315860
0.2979058 0.24887657 0.59089023 1315860
0.29688573 0.24714017 0.58676761 1315860
0.29587984 0.24542788 0.58270222 1315860
0.29488778 0.2437391 0.57869267 1315860
0.29390928 0.24207343 0.57473803 1315860
0.29294407 0.24043037 0.57083702 1315860
0.29199186 0.23880945 0.56698859 1315860
0.2910524 0.23721026 0.56319171 1315860
0.29012546 0.23563235 0.55944538 1315860
0.28921077 0.23407526 0.55574852 1315860
0.28830808 0.23253864 0.55210024 1315860
0.28741717 0.23102206 0.54849952 1315860
0.28653777 0.22952512 0.54494542 1315860
0.28566971 0.22804745 0.54143709 1315860
0.28481275 0.22658868 0.53797364 1315860
0.28396666 0.22514844 0.53455418 1315860
0.28313127 0.22372641 0.53117794 1315860
0.28230637 0.22232221 0.52784407 1315860
0.28149173 0.22093552 0.52455175 1315860
0.28068721 0.21956605 0.52130032 1315860
0.27989259 0.21821342 0.51808888 1315860
0.27910775 0.2168774 0.51491684 1315860
0.27833241 0.21555762 0.51178336 1315860
0.27756649 0.2142538 0.50868779 1315860
0.27743846 0.21344936 0.50677788 1381653
0.27835178 0.21344873 0.50677639 1381653
0.27926511 0.21344814 0.50677496 1381653
0.28017843 0.2134475 0.50677347 1381653
0.28109172 0.21344687 0.50677198 1381653
0.28200501 0.21344624 0.50677049 1381653
0.28291827 0.21344562 0.506769 1381653
0.28383157 0.21344499 0.50676751 1381653
0.28474486 0.2134444 0.50676608 1381653
0.28565815 0.21344376 0.50676459 1381653
0.28657141 0.21344313 0.5067631 1381653
0.28748468 0.2134425 0.50676161 1381653
0.28839791 0.21344188 0.50676012 1381653
0.2893112 0.21344128 0.50675869 1381653
0.29022443 0.21344066 0.5067572 1381653
0.29113767 0.21344002 0.50675571 1381653
0.2920509 0.21343939 0.50675422 1381653
0.310323 0.27002132 0.63835883 2236190
0.30912811 0.26798719 0.63354999 1315860
0.30795103 0.26598349 0.62881303 1315860
0.30679148 0.26400957 0.6241464 1315860
0.30564901 0.2620647 0.61954856 1315860
0.30452326 0.26014829 0.61501795 1315860
0.30341381 0.25825968 0.61055309 1315860
0.30232039 0.25639829 0.60615259 1315860
0.30124259 0.25456357 0.6018151 1315860
0.30018014 0.2527549 0.59753925 1315860
0.29913267 0.25097176 0.59332371 1315860
0.29809988 0.24921361 0.58916724 1315860
0.29708141 0.2474799 0.58506858 1315860
0.29607704 0.24577016 0.58102655 1315860
0.29508647 0.24408388 0.57704002 1315860
0.2941094 0.24242057 0.57310778 1315860
0.29314557 0.2407798 0.56922883 1315860
0.29219466 0.23916107 0.56540197 1315860
0.29125646 0.23756397 0.56162626 1315860
0.29033071 0.23598805 0.55790061 1315860
0.28941718 0.23443292 0.55422413 1315860
0.28851557 0.23289812 0.5505957 1315860
0.28762573 0.23138331 0.54701453 1315860
0.28674737 0.22988807 0.54347962 1315860
0.28588027 0.22841202 0.53999007 1315860
0.28502426 0.22695479 0.53654504 1315860
0.28417903 0.22551602 0.53314364 1315860
0.28334451 0.2240954 0.52978516 1315860
0.28252041 0.22269256 0.52646869 1315860
0.28170657 0.22130717 0.52319348 1315860
0.28090277 0.2199389 0.51995873 1315860
0.2801089 0.21858747 0.51676381 1315860
0.27932468 0.21725252 0.51360786 1315860
0.27855003 0.21593381 0.5104903 1315860
0.27778468 0.21463099 0.50741029 1315860
0.27835175 0.21436283 0.50677633 1381653
0.27926505 0.2143622 0.50677484 1381653
0.28017834 0.21436158 0.50677335 1381653
0.28109163 0.21436094 0.50677186 1381653
0.28200495 0.21436034 0.50677043 1381653
0.28291824 0.21435972 0.50676894 1381653
0.28383154 0.21435907 0.50676745 1381653
0.2847448 0.21435845 0.50676596 1381653
0.28565806 0.21435782 0.50676447 1381653
0.28657132 0.21435718 0.50676298 1381653
0.28748462 0.21435659 0.50676155 1381653
0.28839788 0.21435595 0.50676006 1381653
0.28931114 0.21435532 0.50675857 1381653
0.29022437 0.21435469 0.50675708 1381653
0.29113761 0.21435407 0.50675559 1381653
0.29205087 0.21435346 0.50675416 1381653
0.3104935 0.27031875 0.63634837 1315860
0.30930105 0.26828876 0.63156962 1315860
0.30812639 0.26628903 0.62686217 1315860
0.30696908 0.26431891 0.62222433 1315860
0.30582878 0.26237771 0.61765462 1315860
0.30470511 0.26046482 0.61315155 1315860
0.30359772 0.25857961 0.60871369 1315860
0.30250627 0.25672153 0.6043396 1315860
0.30143034 0.25488994 0.60002792 1315860
0.30036968 0.2530843 0.59577733 1315860
0.29932392 0.25130403 0.59158647 1315860
0.29829282 0.24954869 0.58745426 1315860
0.29727596 0.24781767 0.58337933 1315860
0.29627314 0.2461105 0.57936054 1315860
0.29528403 0.24442668 0.57539672 1315860
0.29430839 0.24276577 0.57148683 1315860
0.2933459 0.24112725 0.56762964 1315860
0.29239634 0.23951073 0.56382424 1315860
0.29145941 0.23791572 0.5600695 1315860
0.29053485 0.23634182 0.55636442 1315860
0.28962246 0.2347886 0.55270803 1315860
0.28872201 0.23325568 0.54909945 1315860
0.28783318 0.23174262 0.54553759 1315860
0.28695586 0.23024908 0.54202169 1315860
0.28608972 0.22877462 0.53855073 1315860
0.2852346 0.22731894 0.53512394 1315860
0.2843903 0.22588168 0.53174055 1315860
0.28355664 0.22446248 0.52839965 1315860
0.28273332 0.22306097 0.52510041 1315860
0.28192028 0.22167689 0.52184218 1315860
0.28111726 0.22030987 0.51862413 1315860
0.28032404 0.21895958 0.51544547 1315860
0.27954054 0.21762578 0.51230562 1315860
0.27876651 0.21630812 0.50920373 1315860
0.27835166 0.21527691 0.50677621 1381653
0.27926499 0.21527629 0.50677472 1381653
0.28017831 0.21527568 0.50677329 1381653
0.2810916 0.21527503 0.5067718 1381653
0.28200489 0.21527441 0.50677031 1381653
0.28291818 0.21527377 0.50676882 1381653
0.28383148 0.21527314 0.50676733 1381653
0.28474477 0.21527253 0.5067659 1381653
0.28565803 0.21527191 0.50676441 1381653
0.28657129 0.21527126 0.50676292 1381653
0.28748456 0.21527064 0.50676143 1381653
0.28839782 0.21527 0.50675994 1381653
0.28931105 0.21526937 0.50675845 1381653
0.29022434 0.21526876 0.50675702 1381653
0.29113758 0.21526812 0.50675553 1381653
0.29205081 0.21526749 0.50675404 1381653
0.31066296 0.27061433 0.63435054 1315860
0.30947295 0.26858845 0.62960166 1315860
0.30830061 0.26659268 0.62492335 1315860
0.3071456 0.26462635 0.62031406 1315860
0.3060075 0.26268885 0.61577231 1315860
0.30488592 0.26077947 0.61129653 1315860
0.30378056 0.25889766 0.60688537 1315860
0.30269101 0.25704283 0.60253739 1315860
0.30161697 0.25521436 0.59825128 1315860
0.30055809 0.25341174 0.59402573 1315860
0.29951409 0.25163439 0.58985943 1315860
0.29848462 0.2498818 0.58575118 1315860
0.29746941 0.24815348 0.58169979 1315860
0.29646811 0.24644887 0.57770401 1315860
0.29548049 0.24476755 0.57376277 1315860
0.29450625 0.24310899 0.56987494 1315860
0.29354516 0.2414728 0.5660395 1315860
0.29259688 0.23985843 0.56225526 1315860
0.2916612 0.23826554 0.55852133 1315860
0.29073787 0.23669364 0.55483663 1315860
0.28982663 0.23514237 0.55120027 1315860
0.28892729 0.23361129 0.54761124 1315860
0.28803954 0.23210001 0.54406863 1315860
0.2871632 0.23060814 0.54057151 1315860
0.28629807 0.22913533 0.53711909 1315860
0.28544384 0.22768119 0.53371042 1315860
0.28460047 0.2262454 0.53034478 1315860
0.28376764 0.22482763 0.52702135 1315860
0.28294519 0.22342749 0.52373928 1315860
0.28213289 0.22204471 0.52049786 1315860
0.28133065 0.22067893 0.51729631 1315860
0.28053814 0.21932982 0.51413387 1315860
0.27975529 0.21799712 0.51100987 1315860
0.27898192 0.21668054 0.50792366 1315860
0.27926496 0.21619038 0.50677466 1381653
0.28017825 0.21618974 0.50677317 1381653
0.28109154 0.2161891 0.50677168 1381653
0.28200483 0.21618848 0.50677019 1381653
0.28291816 0.21618786 0.50676876 1381653
0.28383142 0.21618722 0.50676727 1381653
0.28474471 0.21618658 0.50676578 1381653
0.28565797 0.21618596 0.50676429 1381653
0.28657123 0.21618532 0.5067628 1381653
0.28748453 0.21618471 0.50676137 1381653
0.28839779 0.21618406 0.50675988 1381653
0.28931102 0.21618344 0.50675839 1381653
0.29022425 0.2161828 0.5067569 1381653
0.29113752 0.21618216 0.50675541 1381653
0.29205072 0.21618153 0.50675392 1381653
0.3120369 0.27296045 0.63715601 2104603
0.31083131 0.27090803 0.63236517 1315860
0.30964375 0.26888624 0.62764585 1315860
0.3084738 0.26689446 0.62299651 1315860
0.30732101 0.26493192 0.61841547 1315860
0.3061851 0.26299804 0.61390138 1315860
0.30506563 0.26109222 0.60945266 1315860
0.30396226 0.25921378 0.60506797 1315860
0.30287468 0.25736219 0.60074592 1315860
0.30180252 0.25553688 0.5964852 1315860
0.30074543 0.25373727 0.59228444 1315860
0.29970315 0.25196281 0.58814245 1315860
0.29867533 0.25021303 0.58405799 1315860
0.29766172 0.24848737 0.5800299 1315860
0.29666197 0.24678534 0.57605696 1315860
0.29567584 0.2451065 0.57213813 1315860
0.29470301 0.2434503 0.56827217 1315860
0.29374325 0.24181639 0.56445819 1315860
0.29279628 0.24020422 0.56069499 1315860
0.29186186 0.23861341 0.55698168 1315860
0.29093975 0.23704353 0.55331719 1315860
0.2900297 0.2354942 0.54970068 1315860
0.28913143 0.23396496 0.54613107 1315860
0.28824475 0.23245545 0.54260749 1315860
0.28736943 0.23096527 0.53912908 1315860
0.28650525 0.22949408 0.53569496 1315860
0.28565201 0.22804153 0.53230435 1315860
0.28480953 0.22660723 0.52895635 1315860
0.28397757 0.22519089 0.52565026 1315860
0.28315592 0.22379212 0.52238518 1315860
0.28234443 0.22241063 0.51916045 1315860
0.2815429 0.22104608 0.51597524 1315860
0.28075114 0.21969818 0.51282895 1315860
0.27996898 0.21836661 0.50972074 1315860
0.2792649 0.21710445 0.50677454 1315860
0.28017822 0.21710384 0.50677311 1381653
0.28109151 0.2171032 0.50677162 1381653
0.2820048 0.21710256 0.50677013 1381653
0.2829181 0.21710192 0.50676864 1381653
0.28383136 0.21710129 0.50676715 1381653
0.28474465 0.21710065 0.50676566 1381653
0.28565794 0.21710004 0.50676423 1381653
0.2865712 0.2170994 0.50676274 1381653
0.28748447 0.21709876 0.50676125 1381653
0.2883977 0.21709812 0.50675976 1381653
0.28931096 0.21709748 0.50675827 1381653
0.29022422 0.21709687 0.50675684 1381653
0.29113746 0.21709622 0.50675535 1381653
0.29205069 0.21709558 0.50675386 1381653
0.31220168 0.27324808 0.63515306 1315860
0.31099865 0.27119994 0.63039225 1315860
0.3098135 0.26918224 0.6257022 1315860
0.3086459 0.26719436 0.62108147 1315860
0.30749539 0.26523563 0.61652851 1315860
0.30636162 0.2633054 0.61204177 1315860
0.30524427 0.26140305 0.60761988 1315860
0.30414289 0.25952801 0.60326141 1315860
0.30305725 0.2576797 0.59896505 1315860
0.30198693 0.2558575 0.59472942 1315860
0.30093166 0.25406089 0.59055334 1315860
0.29989111 0.25228935 0.58643544 1315860
0.29886496 0.25054234 0.58237457 1315860
0.2978529 0.24881934 0.57836956 1315860
0.2968547 0.24711989 0.57441926 1315860
0.29587007 0.24544351 0.57052261 1315860
0.29489866 0.2437897 0.5666784 1315860
0.29394028 0.24215806 0.5628857 1315860
0.29299462 0.24054807 0.55914336 1315860
0.29206145 0.23895937 0.5554505 1315860
