# .PCD v0.7 - Point Cloud Data file format
VERSION 0.7
FIELDS x y z rgb
SIZE 4 4 4 4
TYPE F F F U
COUNT 1 1 1 1
WIDTH 1113
HEIGHT 1
VIEWPOINT 0 0 0 1 0 0 0
POINTS 1113
DATA ascii
0.14121757 -0.0089190789 0.54939193 3618869
0.14334868 -0.0084322756 0.54996562 3947577
0.11676639 -0.0065853158 0.54958612 2236225
0.11883613 -0.0064368225 0.5490064 2631228
0.12117305 -0.006429492 0.54837871 3289393
0.12376574 -0.0065659396 0.54796976 3750198
0.12609299 -0.0062984154 0.54772842 4079420
0.12874749 -0.0067019248 0.54753727 4079421
0.13135935 -0.0064198556 0.54754394 3882040
0.13385788 -0.0064213267 0.54766369 3552564
0.13639544 -0.0064245556 0.5479365 3684405
0.13868368 -0.0062878542 0.54833043 2829352
0.1412271 -0.0065601929 0.54894799 3421746
0.14365108 -0.0062458497 0.549604 2894891
0.14533526 -0.0054562725 0.5499751 2500141
0.11748681 -0.0044615245 0.54964268 3158078
0.11862446 -0.0038648504 0.54940289 3289396
0.12123221 -0.0039585605 0.54864669 3947321
0.12357763 -0.0039544636 0.54807472 4276544
0.1259843 -0.0039524459 0.54779285 4145214
0.12791318 -0.0039509796 0.54758966 4013371
0.13407026 -0.0041974159 0.5475229 3750200
0.13632619 -0.0039515318 0.54765832 3224112
0.1389033 -0.0039545875 0.54808164 2829097
0.14150421 -0.0039582285 0.54858345 3026476
0.14363086 -0.0039623142 0.54914749 2500135
0.14559622 -0.003801056 0.54971153 2631731
0.11877041 -0.0016288592 0.54968494 4210752
0.12129653 -0.0014851273 0.54893768 4342335
0.12362439 -0.0014833763 0.54828227 4276542
0.12599847 -0.001482285 0.5478546 4342335
0.12840351 -0.0014815623 0.5475747 4079420
0.13679282 -0.0024691846 0.54754931 2895405
0.13895747 -0.0016058511 0.54780823 3092271
0.14141394 -0.0014835257 0.54823357 2434340
0.14350855 -0.00148478 0.54867989 2236968
0.14618808 -0.0014868948 0.54945034 2631723
0.14828534 -0.00049593759 0.54987848 3947835
0.11951797 0.00099193049 0.54986471 4473921
0.12137651 0.0014864047 0.54929984 4342591
0.12369701 0.001484505 0.54860443 4276542
0.12604333 0.0014829608 0.54804993 4276543
0.1284184 0.0014817988 0.5476383 4211006
0.13976112 0.00098765339 0.54756993 2764081
0.14129208 0.0014819005 0.54776114 2763566
0.143756 0.0016067653 0.54820794 2434600
0.14632846 0.001343578 0.54891539 2500391
0.14857957 0.001684856 0.54949903 3553076
0.15027037 0.002479709 0.54988313 3947834
0.12163522 0.0038661559 0.5495733 4539458
0.12376247 0.0039604553 0.54889476 4408129
0.12609288 0.0039559044 0.54826552 4276799
0.12874219 0.0040509831 0.54775542 4145213
0.14173481 0.0034569465 0.54756325 2894898
0.14378209 0.0039526979 0.54783636 2829103
0.14641097 0.0039569661 0.54843009 2631979
0.14854236 0.0039610243 0.5489949 2566184
0.15052079 0.00413062 0.54958981 3618614
0.12213302 0.0057843812 0.54973078 4605251
0.12364452 0.006582425 0.54931432 4407872
0.12614946 0.0064312941 0.54851174 4276542
0.128975 0.0064241448 0.54790521 4144956
0.13087219 0.0069140359 0.5475719 4144957
0.14432171 0.0062232339 0.54763478 2895153
0.14629294 0.0064248429 0.547988 2829102
0.14879544 0.0065552504 0.54855847 2763565
0.15141378 0.0062998608 0.54940373 2829100
0.15321577 0.0074376585 0.54977459 3092531
0.12392264 0.0089225173 0.54960531 4342335
0.12622039 0.0089097638 0.54882038 3947320
0.12901919 0.0088979257 0.54809302 4013114
0.13138056 0.0088904519 0.54763281 3947577
0.14638276 0.0087269675 0.5477078 2829360
0.14881405 0.0088990964 0.54817134 2631468
0.15148261 0.0089106523 0.54888403 2302757
0.15368266 0.0089234253 0.54967022 3026734
0.12445575 0.010908557 0.54976988 3947577
0.12630256 0.011392206 0.54917771 4078907
0.12880436 0.011234411 0.54838103 4144956
0.13107276 0.011489097 0.54789525 4079420
0.13285232 0.011853024 0.54759127 4144958
0.14668007 0.011359069 0.54758859 2632752
0.14877465 0.011368122 0.5480262 2698028
0.1265693 0.013776949 0.54947537 4276543
0.128681 0.013858031 0.54875851 4210749
0.13100833 0.013842468 0.54814267 4079163
0.13335988 0.01382995 0.54764777 4144957
0.12716231 0.016112307 0.54968125 4342335
0.12876581 0.016343558 0.54912013 4342335
0.13107517 0.016322739 0.54842228 4144956
0.13388914 0.016303992 0.54779291 4013371
0.13580222 0.01728392 0.54753751 3947834
0.12886988 0.018834941 0.54956406 4342335
0.13115503 0.018807255 0.54875678 4079163
0.13395779 0.018783836 0.54807383 3750455
0.13634118 0.018771743 0.54771894 3158061
0.12942085 0.020826463 0.54979837 4211006
0.1312837 0.021303056 0.54929513 3552562
0.097154744 -0.075232647 0.5524196 1052219
0.098609865 -0.075202517 0.55219835 592188
0.10107657 -0.075185023 0.5520699 591934
0.10358655 -0.075199842 0.55217868 592189
0.10512549 -0.075231992 0.55241477 854844
0.092140935 -0.073214687 0.55223072 1842234
0.093762577 -0.073516674 0.55200356 1250105
0.096025683 -0.073636703 0.55165893 723515
0.098951794 -0.073592536 0.55132872 724036
0.10143194 -0.073588073 0.55129516 657725
0.10373332 -0.073498681 0.55137062 921147
0.10602622 -0.073670737 0.55191576 1249857
0.088804774 -0.070545979 0.5521332 1249592
0.091033429 -0.071136244 0.55155826 855098
0.093760468 -0.071332179 0.55087793 526139
0.096347168 -0.071515597 0.55065173 724034
0.098815627 -0.071504973 0.55056983 921149
0.10129406 -0.071501806 0.55054569 986425
0.10394903 -0.071162298 0.55080026 1315390
0.10641625 -0.071110092 0.55135745 1446976
0.10843635 -0.070996568 0.55202174 1578819
0.087163493 -0.06873478 0.55225068 789304
0.089019716 -0.068630219 0.55141062 526138
0.09135846 -0.068519033 0.55051774 526396
0.093795083 -0.069643289 0.55024737 657468
0.096265212 -0.069965966 0.5501833 723512
0.098723412 -0.069949798 0.55005616 1052217
0.10139329 -0.069635533 0.55018598 1249849
0.10360246 -0.068713747 0.55037284 1381182
0.10631338 -0.068557233 0.55082458 1447231
0.10873628 -0.068544462 0.5515219 1644354
0.11057794 -0.068737507 0.55227435 2631749
0.086412497 -0.066072084 0.55200064 526394
0.088945746 -0.066088624 0.55095202 854588
0.09121076 -0.066199876 0.55022562 986428
0.10436699 -0.066655956 0.55016708 1381437
0.10633624 -0.066224419 0.55042887 1841982
0.10884133 -0.066100024 0.55104607 2434623
0.11139575 -0.066001341 0.55188382 4079429
0.11309569 -0.065266676 0.55240792 4342342
0.08610487 -0.063708059 0.5518536 1118016
0.088918589 -0.063584439 0.55078322 1446723
0.091300584 -0.06351351 0.55016875 1381442
0.10633586 -0.064000033 0.55008489 3289666
0.10874199 -0.063556865 0.55054349 3223871
0.11137993 -0.063645683 0.55131263 4145220
0.11335436 -0.063564695 0.55204946 3882051
0.086114742 -0.061226282 0.55191624 1644101
0.088941902 -0.061116662 0.55092788 1578564
0.091318548 -0.061044484 0.55027699 1578307
0.10901371 -0.061371878 0.55024499 2434366
0.11126581 -0.06109703 0.55074787 4013635
0.11362307 -0.061039574 0.5515117 3486785
0.11540082 -0.061270434 0.55231261 2499652
0.086337216 -0.058852971 0.55206519 1709893
0.088970207 -0.058650982 0.55110359 1644357
0.091337554 -0.05857522 0.55039155 1578563
0.09276481 -0.058536064 0.55002362 1512771
0.10962861 -0.05903079 0.55001092 2829120
0.11117128 -0.058563463 0.55028015 3948097
0.11380664 -0.0586426 0.55102354 3223871
0.11632517 -0.0585774 0.55197078 3618628
0.086754479 -0.056475133 0.5521844 1841734
0.089007787 -0.056189418 0.55133653 2302532
0.091359057 -0.05610637 0.55052114 3421250
0.09303049 -0.055818304 0.55012822 3355458
0.11163928 -0.057060078 0.55014122 4079424
0.1136968 -0.056103721 0.55049205 3355710
0.11636477 -0.056193471 0.55137181 3552834
0.11826733 -0.056021549 0.55212915 4013637
0.087182745 -0.053804141 0.55237269 2170951
0.088862382 -0.053834993 0.55166835 3618627
0.091122262 -0.053560495 0.55089211 3618370
0.093299843 -0.053597808 0.55025399 3947585
0.11430302 -0.05376045 0.55022496 3223868
0.11623356 -0.053646281 0.55075032 3026496
0.1183963 -0.053726088 0.55156922 3026497
0.12004969 -0.053798337 0.55231094 2170692
0.08873257 -0.051486772 0.55209732 4144963
0.090991348 -0.051213756 0.55130321 3223620
0.093818478 -0.051128626 0.55038643 2828865
0.11458866 -0.052085754 0.55000842 3552832
0.11623985 -0.051320333 0.55031013 2368315
0.11879566 -0.051196557 0.55111283 2105408
0.12124661 -0.051038284 0.55209023 3289669
0.089171506 -0.049318321 0.55234796 4276549
0.091055162 -0.048761934 0.5516901 2697030
0.093871839 -0.048674423 0.55069983 2499907
0.095760018 -0.04862421 0.55013156 4210752
0.11657302 -0.049109485 0.55000907 3026749
0.11866617 -0.048658028 0.55051261 3289919
0.12137202 -0.048747826 0.5515281 3618627
0.12302734 -0.048812602 0.55226099 2236485
0.091390237 -0.046441931 0.55199575 2434118
0.093933463 -0.046221241 0.55106145 3157829
0.096282266 -0.046155851 0.55028135 4145215
0.097721323 -0.045140307 0.55000013 4276544
0.119201 -0.046350528 0.55023253 3487040
0.12121701 -0.046201807 0.55082393 2105151
0.12363818 -0.046142232 0.55181003 1776196
0.12506743 -0.046339724 0.55247188 1841991
0.092137665 -0.04382756 0.55221111 2368070
0.094001092 -0.043767825 0.55145842 3684166
0.096340179 -0.043700699 0.55061245 3816002
0.097749218 -0.043664578 0.55015713 4144961
0.12109596 -0.043673988 0.55027401 1710142
0.12379546 -0.043750931 0.55124295 1973825
0.12600243 -0.043827064 0.55220211 2171205
0.092184134 -0.042354874 0.55248964 3618374
0.093806572 -0.041462462 0.55198592 3815749
0.096060485 -0.041133191 0.55114621 2302020
0.098482236 -0.041052014 0.55029356 2828866
0.12156227 -0.042174667 0.55013895 2302526
0.12364802 -0.041216146 0.550587 2434361
0.12638313 -0.041298717 0.55168909 2960700
0.12800449 -0.040842034 0.55224496 3552571
0.094155341 -0.038857676 0.55236077 2433863
0.09601403 -0.038803708 0.55159348 3223877
0.098810844 -0.038729958 0.55054516 4276544
0.1242412 -0.038877066 0.55028337 4079424
0.12621164 -0.038757972 0.55094039 4408386
0.12841766 -0.038824011 0.55187917 4210493
0.13004136 -0.03836469 0.55243433 3750199
0.0962056 -0.03646607 0.55197859 4079173
0.098882556 -0.036273446 0.55094475 3749957
0.10099094 -0.035979506 0.55024731 3486531
0.12452614 -0.037209004 0.55008078 4342336
0.12607026 -0.036233008 0.55032367 4276800
0.12879503 -0.036301501 0.55136228 4342335
0.13097112 -0.035855345 0.55215305 3684407
0.09678904 -0.034033936 0.55222887 2302534
0.098958552 -0.033815056 0.55136836 2170695
0.10129026 -0.033763401 0.55052602 2038597
0.102704 -0.033242356 0.55011904 1907269
0.12650748 -0.034231436 0.55006713 4342334
0.12862502 -0.033770267 0.5506348 3684668
0.13138166 -0.033840813 0.55178487 3158330
0.1330149 -0.033378273 0.55236828 2960694
0.097156823 -0.032385606 0.5524314 2105159
0.098920681 -0.031480256 0.5518508 2170438
0.10116742 -0.031166453 0.55101711 2302277
0.10314196 -0.031071585 0.55033857 2039108
0.12913398 -0.031464759 0.55026591 3488064
0.13119905 -0.03130918 0.55101788 3487552
0.13329062 -0.031157736 0.5518592 3026487
0.13502532 -0.030393155 0.55244064 3158586
0.099129289 -0.028891858 0.55231726 3552840
0.10097758 -0.028850779 0.55153173 3552837
0.10376707 -0.028796641 0.5504964 2828612
0.13103171 -0.028787347 0.55031532 3422015
0.13378564 -0.028845988 0.55143589 3158329
0.13597912 -0.028391244 0.55226719 3816772
0.1011754 -0.026507199 0.55193222 4408135
0.10384174 -0.026332978 0.55089283 3749958
0.10594486 -0.026051957 0.55020165 2302019
0.13196921 -0.026294719 0.55008626 3290428
0.13374904 -0.026451888 0.55077374 2895155
0.13637942 -0.026380315 0.55187052 3685442
0.13798603 -0.025405372 0.55232543 4014405
0.10176545 -0.02407179 0.55220622 4473416
0.10392379 -0.023867682 0.55132818 3618117
0.10624052 -0.023829609 0.55044848 2104643
0.10765375 -0.023316711 0.55005878 1973060
0.13417457 -0.023989299 0.55031317 2895156
0.13618547 -0.023857407 0.55108571 3684929
0.13821517 -0.023727208 0.55191368 3883075
0.10213479 -0.022419833 0.55240744 3815751
0.10401221 -0.021399505 0.55179745 2565446
0.10632049 -0.021363286 0.55086291 2104646
0.10808802 -0.021141117 0.5502497 2038597
0.13443986 -0.02232396 0.55004525 3159098
0.13612708 -0.021546179 0.55044806 3553597
0.13877849 -0.021389097 0.55151302 4079939
0.14094549 -0.020419665 0.55221021 4605764
0.10410585 -0.018928247 0.55229169 2236487
0.10594519 -0.018901018 0.55149704 2170438
0.10871544 -0.018863866 0.55041271 2170437
0.13693714 -0.018853607 0.55011272 3290172
0.13881278 -0.018978674 0.55086029 4079425
0.14137906 -0.018917043 0.55195749 4539714
0.10614999 -0.016550872 0.55191505 2236230
0.10879847 -0.016394146 0.55083317 2170437
0.11065831 -0.015879143 0.55019784 2170437
0.13907909 -0.016578479 0.55034244 3815992
0.14117248 -0.016404185 0.55115116 4144956
0.14329079 -0.016231215 0.55203509 4079163
0.10674932 -0.014111508 0.5522244 2236486
0.1088892 -0.01392188 0.55129272 2170693
0.11118746 -0.013898375 0.55036151 2236483
0.14098281 -0.013899818 0.55041075 3553074
0.14377113 -0.013929469 0.55158412 4079420
0.14599094 -0.01345309 0.55245632 3815993
0.10712584 -0.012456493 0.55245316 2236742
0.10899116 -0.011446357 0.55180919 2565443
0.11127616 -0.011425479 0.55080062 3553344
0.11289294 -0.011165148 0.55020595 4080186
0.14208724 -0.011413358 0.55020279 4013114
0.14390108 -0.011571912 0.55099428 4079164
0.14624384 -0.01124974 0.55190581 3421241
0.14799376 -0.010464205 0.5524928 4276802
0.10939538 -0.0091299554 0.5521732 4145471
0.11110258 -0.0088522565 0.55142003 4342845
0.11348297 -0.00883641 0.5504216 4014649
0.14413206 -0.0091013545 0.55043119 3815993
0.14616255 -0.0089488495 0.5512237 3421238
0.14821899 -0.008796894 0.5520938 4342593
0.11113378 -0.0065957387 0.55194527 4408637
0.1137557 -0.00645755 0.55078119 3751226
0.11560659 -0.005953907 0.55013132 2368063
0.14437258 -0.0074418858 0.55008703 3026477
0.14609428 -0.0066543827 0.55059195 2960689
0.14861333 -0.0063426974 0.5515542 4079421
0.15096174 -0.005480459 0.55241305 4474179
0.11173791 -0.0041507427 0.55226421 4211513
0.11385625 -0.0039774342 0.55126828 3290171
0.11613779 -0.0039704484 0.55029809 2828866
0.14708401 -0.004136241 0.55033135 3618617
0.14911062 -0.0039764186 0.55109489 4276543
0.15118195 -0.003816912 0.5520038 4539715
0.11211793 -0.0024915095 0.55249995 4014648
0.11407757 -0.001617108 0.55173719 2697537
0.11623272 -0.0014899428 0.55074787 2697027
0.11761977 -0.00099249161 0.55026472 4013636
0.14903994 -0.0016881882 0.55046695 4144956
0.15115166 -0.001492025 0.55128777 4342335
0.15313989 -0.0012452952 0.55218256 4276542
0.11451555 0.00049789459 0.55204833 2367812
0.11603011 0.0016170758 0.55155754 3355199
0.11837371 0.0016313838 0.55047506 4276544
0.14931396 0.00049605966 0.55001378 3947578
0.15127237 0.0014894739 0.5505209 3947834
0.15373076 0.0014924529 0.55162102 4079163
0.15595628 0.0024913144 0.55245668 4145213
0.11647902 0.0039822981 0.55191517 3618611
0.11873144 0.0039743804 0.55081946 4342334
0.12056782 0.0044654747 0.55012935 4605251
0.15201695 0.0038045298 0.55022097 3947834
0.15407063 0.0039758715 0.55105788 3947577
0.15617098 0.0041490425 0.55204076 4144956
0.11702651 0.0059759375 0.5521487 3486768
0.11884352 0.0064645824 0.55133963 4078906
0.12102203 0.0066518583 0.55039042 4605251
0.15398824 0.0062546385 0.55040836 3026734
0.15617351 0.0064654541 0.55146331 3289905
0.11914208 0.0088585494 0.55180085 4013113
0.12120885 0.0089417361 0.55078846 4276799
0.12256733 0.0089321164 0.55019599 4408128
0.11966344 0.010787982 0.5520618 4079164
0.1211452 0.011582141 0.55146945 3815740
0.12332342 0.011559485 0.55040795 4078909
0.12146558 0.013938814 0.55195522 3815740
0.12368894 0.013908956 0.55077356 4276543
0.12550665 0.014386138 0.5500294 4408129
0.12202143 0.015937608 0.55221689 3552824
0.12382278 0.016410625 0.55136973 4210751
0.12597322 0.016578183 0.55033457 4408385
0.12413982 0.018815178 0.55189431 4276543
0.12644383 0.01877315 0.55065626 4408129
0.12754636 0.019355282 0.55026841 4408128
0.12451532 0.020420551 0.55223417 4342335
0.12615477 0.021393407 0.55162585 4276543
0.12831791 0.021493012 0.550538 4145213
0.1266814 0.023742506 0.55226767 3816247
0.091586202 -0.077573016 0.554905 460598
0.093546979 -0.077872463 0.5546605 460598
0.096035793 -0.078529313 0.55458975 723766
0.09849757 -0.078498155 0.55436969 987192
0.10148188 -0.078485958 0.55428356 1710652
0.1040071 -0.078505315 0.55442023 855355
0.10606869 -0.078550801 0.5547415 723518
0.10805699 -0.077540785 0.55467445 657728
0.089204632 -0.075865813 0.55461901 460599
0.091431499 -0.075943649 0.55396968 855606
0.093958355 -0.076185703 0.55354798 1381943
0.096191838 -0.076480046 0.55332905 1841977
0.09879972 -0.076844588 0.55326146 1052729
0.10127174 -0.076827176 0.55313617 723514
0.10376669 -0.076827615 0.55313897 657981
0.10631777 -0.076369591 0.55343395 789310
0.1089313 -0.075952224 0.55403227 1249861
0.11053827 -0.075526148 0.55457473 1709898
0.086498916 -0.073165886 0.55437756 789558
0.088613942 -0.074028872 0.55384815 789303
0.091056637 -0.073902801 0.55290604 1710648
0.093190283 -0.074253216 0.55254632 2105660
0.10713576 -0.074247569 0.5525043 1381700
0.10874256 -0.073825233 0.55307198 1578566
0.11097075 -0.07398051 0.55423528 1841736
0.11256611 -0.073043093 0.55470848 3421514
0.084187724 -0.070851229 0.55452234 1381943
0.086488508 -0.071263231 0.55351198 1842232
0.088584632 -0.071964778 0.55283117 1776696
0.10917464 -0.072284579 0.55273545 1775430
0.11116921 -0.071243078 0.55335575 2631495
0.11387628 -0.070860006 0.55459112 4276807
0.081581727 -0.067567684 0.55493861 920631
0.083475389 -0.068980351 0.55422378 1973818
0.08577463 -0.068819478 0.55293125 1052470
0.1118705 -0.068983994 0.55291826 3947335
0.11391217 -0.068946846 0.55395418 4144967
0.11609264 -0.06805414 0.55482495 2302026
0.082097858 -0.066298522 0.55436975 657464
0.083838321 -0.066372462 0.55331725 657720
0.085236438 -0.066793561 0.55267376 460602
0.1121267 -0.067276023 0.55254316 4342854
0.11384203 -0.066549346 0.55312848 3750213
0.11583863 -0.066265061 0.55408829 2170697
0.11758526 -0.065547526 0.55478495 1973324
0.081495091 -0.063663043 0.55435365 460345
0.083788574 -0.06383913 0.55298895 591930
0.11413047 -0.064291835 0.55259353 3223618
0.11609501 -0.063787095 0.55340302 2170695
0.11856429 -0.063784435 0.55468261 2894410
0.081593998 -0.061352037 0.55417645 1183811
0.08377225 -0.061333377 0.55288094 1644358
0.11681887 -0.061552025 0.55305094 3158087
0.11881515 -0.061256431 0.55398631 4013128
0.12058656 -0.061043993 0.55478096 3421000
0.081347384 -0.058778919 0.55432075 2105160
0.083808035 -0.058865242 0.55311704 1907271
0.085222147 -0.05830989 0.55258113 1972806
0.11710482 -0.059299886 0.55251819 4276807
0.11874054 -0.058871385 0.55317271 3618629
0.12098497 -0.058992721 0.55431271 2894920
0.12255619 -0.057526376 0.55463701 4079178
0.081791334 -0.056503978 0.55442345 2631239
0.083860539 -0.056406137 0.55346358 1973319
0.085500747 -0.056086533 0.55277187 1973319
0.11914496 -0.056830794 0.55273563 3421506
0.12119626 -0.056291975 0.55356383 2829126
0.12357219 -0.056032933 0.55470675 3618375
0.081578881 -0.054552753 0.5549193 3026247
0.083353266 -0.053611051 0.55424184 2170696
0.085787594 -0.053866673 0.55301476 2039367
0.1217142 -0.053873543 0.55308294 3223623
0.12396936 -0.053986713 0.55424446 3487048
0.12555403 -0.0525226 0.55462134 4210763
0.084097914 -0.051298566 0.5543707 2960710
0.086320199 -0.051393058 0.5532338 2565702
0.088207498 -0.050333094 0.55255044 4277058
0.12212399 -0.051840525 0.55268109 4013383
0.12376547 -0.051402908 0.55333298 2565446
0.12599209 -0.050996862 0.55434668 3355209
0.084547848 -0.049027637 0.55469668 3816008
0.086271286 -0.048737232 0.55383593 3552838
0.088569015 -0.048688103 0.55273396 4276804
0.12413273 -0.048855595 0.55274731 2039112
0.12615249 -0.048842717 0.55373299 1973321
0.1282534 -0.048532903 0.55475777 2762828
0.08675193 -0.046481885 0.55416971 4408133
0.088797562 -0.046394084 0.55312294 4342596
0.090211585 -0.045853317 0.55261594 3618631
0.12651713 -0.046544161 0.55320662 1973576
0.12898138 -0.045993432 0.55430144 4078670
0.087028787 -0.04451485 0.55456769 4276550
0.088441819 -0.043637812 0.55402303 4408133
0.09073963 -0.043874104 0.55279756 3487046
0.12710959 -0.043865412 0.55268514 2236998
0.12880468 -0.043933459 0.55354226 2565448
0.13087015 -0.043512318 0.55453855 2960201
0.088988125 -0.04149425 0.55431026 4408133
0.091177717 -0.041285731 0.55318844 4276805
0.12889773 -0.041636433 0.55287141 3223613
0.13073587 -0.041248396 0.5536868 3420988
0.13256615 -0.041020676 0.55465949 2959927
0.089557938 -0.039025113 0.55474162 3947592
0.091262579 -0.038745463 0.5538131 3815751
0.093227357 -0.038886182 0.5527662 2894663
0.13145891 -0.039028287 0.55336553 3289905
0.13386823 -0.038510133 0.55452722 3421233
0.091751814 -0.036486436 0.55418086 2499912
0.093780875 -0.036414724 0.55309159 3618630
0.095201768 -0.03538914 0.55265146 4342344
0.13187671 -0.036646504 0.55281758 3420979
0.13373683 -0.036255963 0.55370635 3026221
0.1355661 -0.036017746 0.55465317 3881531
0.092039376 -0.034514863 0.55462158 3947593
0.093442343 -0.033645634 0.5540455 3486535
0.095570393 -0.03374055 0.55286241 2499399
0.13384655 -0.034085121 0.55305916 2960951
0.13595104 -0.033987869 0.55418193 3487035
0.13753536 -0.032508358 0.55452532 4211268
0.093995698 -0.031498298 0.55435878 2236233
0.096165724 -0.031306878 0.55318147 2104903
0.13407093 -0.032396324 0.55261421 3355709
0.13627949 -0.031449102 0.55348533 4145734
0.13854557 -0.031010408 0.55456519 4540231
0.094572037 -0.029021962 0.55480528 2236490
0.096263669 -0.028757596 0.55384916 2236488
0.098210149 -0.028914561 0.55275136 3091784
0.13681549 -0.02909199 0.55296266 3948614
0.13891968 -0.028983377 0.55406123 4276803
0.14056879 -0.02801393 0.55465412 4802887
0.096757606 -0.02649216 0.55422467 3091786
0.098769009 -0.026437959 0.55309033 4078920
0.10018447 -0.025419939 0.55264217 4671049
0.13880165 -0.026642967 0.55319291 4211525
0.14093247 -0.025987688 0.55411601 4671303
0.097498737 -0.024499683 0.55437553 3354696
0.09859135 -0.023648353 0.55396259 3815497
0.10055294 -0.023767093 0.55284184 4407881
0.13904063 -0.024419323 0.55255717 4211525
0.14105885 -0.023859154 0.55343449 4539974
0.14307286 -0.024012072 0.55466467 4605770
0.099224575 -0.021494264 0.55424178 3157321
0.10114848 -0.02132719 0.55314648 3289160
0.14175761 -0.021647951 0.55304623 4671302
0.14381705 -0.021287998 0.55406231 4473924
0.14564121 -0.020519895 0.55492073 4671301
0.099556863 -0.019511145 0.55469954 2301770
0.10125996 -0.018767403 0.55385548 2236232
0.10318909 -0.018942816 0.55271733 2236487
0.14367388 -0.018957118 0.55312616 4342336
0.14582922 -0.018832812 0.55436623 4408128
0.10195684 -0.0164927 0.55414957 2302025
0.10375945 -0.016461564 0.5531016 2236231
0.10516673 -0.015451036 0.55263144 2302023
0.14409514 -0.017450968 0.55282944 4276798
0.14597873 -0.016331052 0.55348778 3552563
0.14807704 -0.016008187 0.55467081 3881529
0.10344993 -0.013778865 0.55411762 2499656
0.10554835 -0.013796096 0.55289066 2170950
0.14684106 -0.014135358 0.55315548 3223858
0.14879946 -0.013830206 0.55425578 3092272
0.15064862 -0.012512345 0.55493021 4013370
0.10424729 -0.011499462 0.55436933 2630984
0.10616343 -0.011352251 0.55328262 2236743
0.14703988 -0.012461007 0.55265331 3223865
0.14884306 -0.011680143 0.5534265 4013630
0.15082292 -0.010832601 0.55434352 4276542
0.10458685 -0.0095078945 0.55484343 2565448
0.10628404 -0.0087793013 0.55400568 2631494
0.10819465 -0.008974554 0.55282253 3619138
0.14904711 -0.0094712209 0.55270326 4474180
0.15077792 -0.008986962 0.5535661 4408129
0.15308209 -0.0080041382 0.55467963 4737093
0.10698321 -0.0064986371 0.55429703 4014144
0.10877093 -0.0064860396 0.55321878 4474943
0.11016706 -0.005483428 0.55271232 4540224
0.15150349 -0.0068185865 0.55317658 4342336
0.15379463 -0.0058318977 0.55424237 4671300
0.10847516 -0.0037846032 0.55425882 4408893
0.11055107 -0.0038235725 0.5529716 4343355
0.15202095 -0.0044858642 0.55264121 4408385
0.15374383 -0.0039935512 0.55345929 4408384
0.1559269 -0.0035022236 0.55471545 4737094
0.10927589 -0.0015000952 0.55451512 4408894
0.11116921 -0.0013722904 0.55336106 3948602
0.1131166 -0.00049831101 0.55251002 2565697
0.1540899 -0.0019948599 0.55291116 4144956
0.15568842 -0.0012985499 0.55362952 4474434
0.15754999 -0.0005001587 0.55455869 4605510
0.11155597 0.0012134156 0.5539543 2960699
0.11358509 0.0016954585 0.55285072 2499907
0.15499412 0.00049837335 0.55257916 3882040
0.15680687 0.0012972851 0.55334747 4539970
0.15849732 0.0014993292 0.55437332 4671045
0.11184415 0.0031669897 0.55443722 3223869
0.11354562 0.0040947096 0.55363315 3750207
0.11513551 0.0039874949 0.55263323 3684405
0.15702829 0.0034895174 0.55272233 4276542
0.15893516 0.0036955047 0.55380678 4408130
0.16057403 0.0045020757 0.55463845 4013628
0.11379642 0.0061647124 0.55420524 3881787
0.11591784 0.0066261031 0.55297029 3487026
0.15886687 0.0062350654 0.55304825 3618869
0.11424708 0.0085060075 0.55477339 3947836
0.116313 0.0089857457 0.55349612 3881784
0.11810933 0.0094686802 0.55255502 3552818
0.11658486 0.011208854 0.55411023 4145213
0.11858988 0.011669673 0.55293763 3881784
0.11688673 0.013172719 0.55463701 4079420
0.11857466 0.014085461 0.55380046 4078907
0.12013887 0.013958172 0.55272126 4078909
0.11896807 0.015995894 0.55423522 3355441
0.12093963 0.016605413 0.55312854 3618615
0.11954895 0.018007535 0.55460978 3223855
0.12135554 0.018977676 0.55372691 3289393
0.12312681 0.019441076 0.55270749 4013371
0.12180466 0.0211618 0.55425441 3092270
0.12363957 0.021654634 0.55321819 4210494
0.12510054 0.022428384 0.55261815 4276799
0.12162345 0.022522861 0.55494601 2829097
0.12364809 0.023890117 0.55415231 3421235
0.12553804 0.024110036 0.55308229 3882041
0.12424884 0.025850594 0.55475003 2895152
0.091959119 -0.085929014 0.55716443 3027520
0.093492746 -0.085952938 0.55731952 4277319
0.086363778 -0.082849234 0.5567295 3619653
0.088972844 -0.083524272 0.55644619 3619649
0.091371216 -0.083840765 0.55664378 3553088
0.093803875 -0.083758071 0.55692858 2434108
0.095995329 -0.083681926 0.55725819 1315642
0.098046146 -0.082962126 0.55748808 657215
0.084075585 -0.081064254 0.55654019 3488576
0.086268187 -0.081252664 0.55611175 3750974
0.088776596 -0.081253089 0.55611485 2631224
0.091325477 -0.081289701 0.55636525 1118261
0.093846105 -0.081299998 0.55643487 723515
0.096321367 -0.081271484 0.55623865 526394
0.098848678 -0.081287049 0.55634463 526392
0.10138136 -0.081306256 0.55647588 1052985
0.10371617 -0.081226423 0.55661649 1776700
0.10643898 -0.080833316 0.55667818 1513277
0.10856563 -0.080921464 0.55728519 855100
0.079940677 -0.077929594 0.55745572 4342855
0.081484161 -0.078670949 0.55700958 3684928
0.083813526 -0.078794867 0.5564658 2697272
0.08627566 -0.078751594 0.55615991 1381174
0.088750273 -0.07872235 0.55595136 789048
0.091114983 -0.078886531 0.55569375 657467
0.093488522 -0.079260096 0.55550325 460600
0.096148036 -0.079622634 0.55523789 525879
0.098623186 -0.079599433 0.55507606 855352
0.10113482 -0.079606108 0.55512261 1973563
0.10366735 -0.079628438 0.55527836 1710652
0.1062395 -0.079679571 0.55563498 789308
0.10877046 -0.078863107 0.55576426 657727
0.11112887 -0.078828551 0.55669838 920900
0.11306081 -0.077886336 0.55714631 1907533
0.081590056 -0.076564007 0.55727488 1775927
0.083849542 -0.076318458 0.55670571 789048
0.08623863 -0.076211177 0.55592203 591929
0.087976776 -0.076291203 0.55528837 526391
0.11137444 -0.076308995 0.55541801 1710156
0.11345829 -0.076308288 0.55662954 2829133
0.11514001 -0.075922012 0.55748147 4539723
0.081916489 -0.073875912 0.55721569 460342
0.083764561 -0.073733918 0.55614352 525878
0.085961878 -0.074277923 0.55521363 526134
0.1139312 -0.073671095 0.55567163 4079177
0.11601396 -0.073575906 0.55684882 3881549
0.079938881 -0.070889197 0.5574432 395316
0.081324592 -0.071285002 0.55660641 460341
0.082998596 -0.071308851 0.55548984 591924
0.11468346 -0.071614563 0.55527097 4210762
0.11634675 -0.071212247 0.55603838 3091788
0.11809601 -0.071360387 0.55719483 3816014
0.079465218 -0.068615742 0.55694407 525877
0.081103057 -0.068872824 0.55577576 591925
0.11637781 -0.069292314 0.55538958 2368074
0.11841542 -0.06874153 0.55633289 3421260
0.12008641 -0.067831233 0.55710316 3618638
0.07900925 -0.066159502 0.55656618 460342
0.080631837 -0.066108182 0.55529058 591671
0.11899581 -0.066264465 0.55576158 2433868
0.12105982 -0.065804303 0.55695826 2565455
0.078754187 -0.063706487 0.55618382 394553
0.080590539 -0.064572543 0.55500621 460344
0.11971322 -0.064114392 0.55537188 2894669
0.12142817 -0.063725129 0.55634254 2960206
0.12312975 -0.062821299 0.55723268 2829390
0.076902524 -0.061320998 0.55729973 460090
0.078721717 -0.061172888 0.55595374 591932
0.12173982 -0.061120611 0.55547702 4013388
0.12332004 -0.06107429 0.55657816 3487052
0.076891892 -0.058799688 0.55722272 1381698
0.078714147 -0.058660056 0.55590004 2170950
0.12364181 -0.058646232 0.55576742 4079179
0.12545662 -0.058792204 0.55715054 4605773
0.076917499 -0.056808349 0.55740827 3487050
0.078760013 -0.056185912 0.55622423 4013383
0.080617458 -0.055580981 0.55519164 3881800
0.12474021 -0.056108251 0.55545235 4539722
0.12632494 -0.056051388 0.55654746 4605516
0.079113461 -0.053866141 0.55669218 3684167
0.081067458 -0.053410303 0.5555315 3618631
0.12638155 -0.053820133 0.55561936 4605770
0.12832877 -0.053491637 0.55689383 4605517
0.079887457 -0.051248409 0.55708456 3223881
0.08125551 -0.051160909 0.55613339 3421257
0.082627565 -0.051078737 0.55523992 3618376
0.12833057 -0.051131789 0.55581278 4013389
0.13008784 -0.05072923 0.55689919 2828624
0.081453755 -0.048912369 0.55680233 4013384
0.083397731 -0.048463803 0.55560768 3618376
0.12955408 -0.048864968 0.55568647 3025998
0.13133471 -0.048466101 0.5568611 2894670
0.081927501 -0.046743911 0.55729067 4473930
0.083768986 -0.046148449 0.5561735 3749960
0.085612938 -0.045560099 0.55511498 4342342
0.13134536 -0.04612137 0.55584264 3881293
0.13315138 -0.04572368 0.5571081 3553606
0.084145792 -0.043830447 0.5567683 3816009
0.086080939 -0.043391123 0.55555171 3947592
0.13171472 -0.044072054 0.55528796 2697033
0.13333265 -0.043441195 0.55618608 3421759
0.08493109 -0.041209012 0.55721098 3947338
0.086285532 -0.041136112 0.55622518 3552584
0.087645017 -0.041067816 0.55530155 3947593
0.13414812 -0.040929269 0.5556854 3158071
0.13565937 -0.041199997 0.55708963 3619895
0.086499229 -0.038879327 0.55695462 3223625
0.088423833 -0.038448244 0.55570233 3026249
0.13471857 -0.03906361 0.55528355 3684409
0.13638449 -0.038436867 0.55635786 3947835
0.086980112 -0.036702592 0.55745977 2631242
0.088806748 -0.036124941 0.55630922 2302537
0.090633124 -0.035552219 0.55519819 2302538
0.13679251 -0.036077417 0.55557072 4342080
0.13843797 -0.035990503 0.55681354 4737096
0.089226402 -0.033983219 0.55683893 2697289
0.091108315 -0.033376187 0.55565441 3487049
0.13843915 -0.033783108 0.55574304 4342081
0.14047676 -0.032984395 0.55693251 4473924
0.089955606 -0.031660352 0.55720484 3881546
0.09132617 -0.031111058 0.55637157 3223369
0.092669621 -0.031056698 0.5553993 2433609
0.13976863 -0.031059979 0.55545032 4737095
0.14141694 -0.030961091 0.55667895 4408130
0.091678426 -0.028884813 0.55698627 2499402
0.093456373 -0.028430717 0.55582517 2367818
0.14160836 -0.028823353 0.55578876 4671302
0.14346002 -0.027955443 0.55681396 4474187
0.093847118 -0.026096588 0.55644554 2433610
0.095661528 -0.025543131 0.55532038 2433611
0.14337085 -0.026067629 0.55581868 4605516
0.1451949 -0.025622629 0.55704874 3158091
0.094519183 -0.023805406 0.55685365 2433867
0.096220203 -0.023553578 0.55565602 2565450
0.097609915 -0.022525365 0.5550077 3091532
0.14443487 -0.02354387 0.55541402 4276810
0.1461347 -0.023602646 0.55680001 3421259
0.096099734 -0.021188276 0.55670214 2499658
0.098001964 -0.020869285 0.5553394 2433866
0.14658792 -0.02122768 0.55597943 4671561
0.14818531 -0.020595247 0.5569585 4934475
0.09664017 -0.019261071 0.55711365 2499658
0.098628744 -0.018422302 0.55581635 2433866
0.14672673 -0.019530179 0.55524069 4802630
0.14847963 -0.018560676 0.55617756 4737094
0.15023355 -0.017585868 0.55710292 4803146
0.099060223 -0.016158868 0.55640972 2499658
0.10065006 -0.016023738 0.55521047 2433865
0.14932337 -0.016034525 0.55558521 4473922
0.15061203 -0.016065082 0.55664396 4605509
0.099597268 -0.01422821 0.55679125 2828618
0.10107006 -0.013394249 0.55595088 3421001
0.10263517 -0.012516484 0.55511379 3420999
0.14970338 -0.014519727 0.55513692 3552564
0.15162262 -0.013747799 0.55629909 3947579
0.15322287 -0.012559253 0.55701059 4145213
0.1014121 -0.011044748 0.55664659 4539467
0.1030334 -0.010854423 0.55546236 3815752
0.15174286 -0.011518435 0.55527139 4276543
0.15359846 -0.011043292 0.55654931 4539715
0.10199052 -0.009043308 0.55706191 4078667
0.1036676 -0.0083985291 0.55595535 3025993
0.15383388 -0.0087688854 0.55558729 4802887
0.1555286 -0.0085383207 0.55687195 4868680
0.10410999 -0.0061241472 0.55657804 2828617
0.10568587 -0.0060104225 0.55535948 3553349
0.15471867 -0.0065091993 0.55516732 4934216
0.15658511 -0.0060227942 0.55646026 4737350
0.10465661 -0.0041862628 0.55699134 3618885
0.10612247 -0.003367139 0.55615145 4277055
0.10767078 -0.0025039718 0.55526346 4343360
0.15685719 -0.0040094373 0.55564797 4868679
0.15836143 -0.0032630628 0.55653095 4605764
0.10648157 -0.0010043683 0.55690306 4014139
0.10808053 -0.00083523634 0.55565459 4277053
0.15851301 -0.0011692733 0.55559564 4671558
0.16024658 -0.0010050142 0.55697763 4737094
0.10702782 0.00050247804 0.55713028 3882552
0.10879257 0.0010028733 0.55588204 3750456
0.1598559 0.0010019555 0.55561972 4868936
0.16118094 0.0010039043 0.5567348 4868680
0.10922056 0.0033708492 0.55660146 3750463
0.11094193 0.0037567215 0.55534399 3421498
0.16155441 0.0033089959 0.5559451 4474178
0.11090072 0.0060219839 0.55639768 3948099
0.11265942 0.0065092114 0.55516833 3816511
0.11159454 0.0083372071 0.55685169 4013893
0.1131653 0.0087206941 0.55568653 3882046
0.1121143 0.010557849 0.55743706 3355450
0.11386029 0.011035177 0.55614668 3750201
0.11431857 0.013222876 0.55674851 3158064
0.11600523 0.013780568 0.55560565 3618357
0.11613141 0.015959382 0.55645287 3092270
0.1176767 0.016024228 0.55521643 3815992
0.11679143 0.018335266 0.55696529 3158063
0.11849523 0.018687481 0.55570257 3750199
0.1189317 0.021076838 0.55640644 3750199
0.1206838 0.021532796 0.55522835 3289648
0.11952491 0.023101706 0.55682969 3552820
0.12102023 0.02390375 0.55600989 2895147
0.12265307 0.024530616 0.55507547 2368549
0.12123211 0.026014352 0.55682951 2170916
0.12310877 0.026225455 0.55562645 2039593
0.096249841 -0.088186927 0.55873495 3817286
0.098760076 -0.088665396 0.55963373 4277063
0.091206372 -0.08616735 0.5587098 3553350
0.09356638 -0.087026879 0.55775946 3224639
0.096276499 -0.086353913 0.55805385 3619138
0.098821908 -0.086217135 0.55903077 2170942
0.1008055 -0.085659504 0.55978101 986430
0.096568957 -0.084497735 0.55766803 1578811
0.098824419 -0.083724231 0.55809754 723261
0.10124046 -0.083611786 0.55846602 591930
0.10385223 -0.083687216 0.55896926 592186
0.10637509 -0.083184011 0.55897909 1579324
0.10905668 -0.083307058 0.55980599 1184059
0.084107623 -0.082093067 0.5584169 4737873
0.10613985 -0.081994057 0.55774343 2105660
0.10879472 -0.082099617 0.55846143 1513277
0.11137704 -0.081307523 0.55878264 723519
0.11387736 -0.080572188 0.5595116 1052741
0.079062961 -0.07855995 0.55836129 3356740
0.080980599 -0.079974629 0.55769247 3685711
0.11392807 -0.078692533 0.55811167 2236750
0.1158568 -0.078527056 0.55932289 3816014
0.076286823 -0.076035112 0.55923861 3750979
0.078897558 -0.076129258 0.55808163 3223870
0.08096306 -0.075934298 0.55757171 1183546
0.11635624 -0.076311462 0.55849159 4211023
0.11791319 -0.076198071 0.55950677 4210767
0.076869957 -0.073842265 0.55950218 2236474
0.078628331 -0.07358814 0.55884987 920633
0.08050961 -0.073968433 0.55791557 657719
0.1167116 -0.074453771 0.55778301 4013391
0.1189731 -0.073602021 0.55895203 3553102
0.077208482 -0.071153097 0.55951697 591671
0.078749865 -0.07136225 0.55852264 525878
0.11930136 -0.071480408 0.55813175 3158093
0.12089523 -0.071124829 0.55929512 3684429
0.076669678 -0.068599641 0.55927032 394292
0.078338005 -0.068944186 0.55797809 525877
0.12083042 -0.068973973 0.55821812 3749966
0.12263672 -0.068636522 0.55956936 2960718
0.076135159 -0.066051491 0.55905205 328758
0.077957071 -0.066892199 0.55765229 394550
0.12196976 -0.066605084 0.55805582 2763087
0.12395262 -0.066096939 0.55943412 3026767
0.076194122 -0.063675717 0.55843031 329016
0.12389027 -0.063959569 0.55839431 3421262
0.12562418 -0.063064344 0.55938852 4605773
0.074240744 -0.060099646 0.55996984 394555
0.075566515 -0.061461203 0.55857354 394554
0.12422728 -0.061862167 0.55764741 4079438
0.12604028 -0.061507702 0.55899423 4539981
0.1277096 -0.060068943 0.55968374 3815759
0.074223422 -0.058570899 0.55983925 591420
0.075553529 -0.058932032 0.55847722 789310
0.12672283 -0.058913633 0.55830133 4013391
0.12812644 -0.058514126 0.55929887 3355213
0.07576327 -0.056108862 0.55878955 2960456
0.12725355 -0.056836568 0.55768514 3750223
0.12885314 -0.056278646 0.55880386 3750221
0.13078931 -0.055042606 0.55990219 3355470
0.076398917 -0.053933043 0.55887371 4144968
0.07797116 -0.053322062 0.55775309 3091786
0.12939864 -0.054377966 0.55825973 4342606
0.13092911 -0.053279132 0.55906004 3223631
0.076863013 -0.051634613 0.55945283 3354698
0.078525186 -0.051343426 0.55811763 2499658
0.13106541 -0.051519874 0.558209 2894671
0.13270016 -0.050960898 0.5594424 2631247
0.07725367 -0.04998767 0.55984443 2565451
0.078844011 -0.049034264 0.55885172 2499658
0.080350347 -0.048143234 0.55797446 3816009
0.13234113 -0.048810229 0.5579288 2565710
0.13361928 -0.048657112 0.55906355 2697293
0.079245754 -0.046436813 0.55964935 3026762
0.080874324 -0.04622864 0.55835211 4342344
0.13413166 -0.04650113 0.55839849 3289927
0.13577615 -0.045931708 0.55964273 3223882
0.081294045 -0.043987162 0.55898803 4276295
0.083019182 -0.043270439 0.55787146 3092042
0.13428867 -0.044762887 0.55765778 3553850
0.13590047 -0.043621462 0.55849278 3290435
0.13786264 -0.042924266 0.55991697 3421766
0.081925265 -0.041551527 0.5595656 4013384
0.083579674 -0.041286334 0.55825663 2894666
0.13691923 -0.04127688 0.55812907 3685435
0.13823724 -0.04136996 0.55938834 3422019
0.083805121 -0.039028246 0.55908847 3289416
0.085308455 -0.038501877 0.55803651 4078921
0.13732135 -0.039737683 0.55771858 3750715
0.13892443 -0.038584873 0.55849963 3487046
0.14089046 -0.037873778 0.55990851 2763084
0.084300332 -0.036849845 0.55969638 4408135
0.085940786 -0.036169957 0.55855179 3289162
0.13937919 -0.036731701 0.55790192 4276555
0.14100051 -0.036132395 0.55900866 3157835
0.086515918 -0.033929177 0.55910522 2433866
0.088386148 -0.033040047 0.55787325 2631243
0.14112425 -0.034400076 0.55816883 3881802
0.14307173 -0.033119988 0.55922174 3157835
0.087322325 -0.031294517 0.55965304 2433864
0.088650011 -0.031228915 0.55847985 3420746
0.090011954 -0.030674465 0.55755389 4012875
0.14237164 -0.03169404 0.55779773 4079173
0.1440047 -0.031086177 0.55892777 3092042
0.088891044 -0.028957522 0.55936205 3420745
0.090507701 -0.028491125 0.55813164 2565195
0.14412148 -0.029361196 0.55807883 3552842
0.14607726 -0.02807237 0.55914265 2828876
0.089391962 -0.026767084 0.55997014 2367817
0.091191135 -0.026198639 0.55862206 2367819
0.14618368 -0.026350001 0.55826539 2894667
0.14784145 -0.025733495 0.55945903 2894412
0.091875896 -0.023901667 0.55910593 2433610
0.093360424 -0.023402797 0.55803198 2499660
0.14742066 -0.023647681 0.55786663 3026252
0.14877336 -0.023703024 0.55916727 2894668
0.092379563 -0.021706672 0.55971181 2762566
0.093733758 -0.021165578 0.55875874 2565194
0.095087752 -0.020627502 0.55783075 2565196
0.14918359 -0.021311961 0.55818629 4013643
0.15085049 -0.020685185 0.55939066 3092042
0.094109498 -0.018922593 0.55949324 2367560
0.095834114 -0.018294156 0.55827409 2433611
0.15127788 -0.018847225 0.55873168 3618378
0.15292986 -0.017665165 0.55961496 2697290
0.096278124 -0.016130332 0.55890501 2302281
0.098059334 -0.01558892 0.55756307 2499660
0.15192032 -0.016097281 0.55776083 4079175
0.15328373 -0.016134873 0.55906391 3026248
0.096967138 -0.013823405 0.55938643 2302024
0.098563991 -0.013389997 0.55814415 2762827
0.15410013 -0.013597183 0.55836815 4013633
0.15547734 -0.013629781 0.55970144 3684678
0.097474396 -0.011616119 0.55998051 2170439
0.098816812 -0.011091539 0.5590055 3091273
0.10011633 -0.011067953 0.55781674 4341836
0.15602411 -0.010916679 0.55864495 4408386
0.099400178 -0.0090820529 0.5594492 2762568
0.10093046 -0.0084166517 0.5583477 3354698
0.15652639 -0.0090597682 0.55804193 4605508
0.15809147 -0.0083211744 0.5591265 4408385
0.10152495 -0.0061500059 0.55892843 2433097
0.10311733 -0.0055331253 0.55772161 2697034
0.15903296 -0.0058777132 0.558595 4211006
0.10208684 -0.0042045582 0.55942649 2630726
0.1034505 -0.0031903142 0.55861944 3289409
0.15953314 -0.0040264395 0.55799633 4211006
0.16111386 -0.0032783214 0.55911505 4276799
0.10404945 -0.0011766356 0.55912787 3882051
0.10519443 -0.0010064365 0.55806673 3355960
0.161625 -0.0010073715 0.55826855 4605764
0.16292834 -0.00050442212 0.55928582 4408129
0.10447859 0.00050472748 0.55962437 3750721
0.10605539 0.001107921 0.55836356 3355703
0.1624449 0.0015087762 0.55762631 4802887
0.1635543 0.00084040966 0.55912495 4408385
0.10666351 0.0033853117 0.55898601 3026482
0.10817486 0.0040253056 0.557863 3816258
0.16402291 0.003189923 0.55843073 3947578
0.10745801 0.0055494751 0.55936962 2631465
0.10852642 0.0061472361 0.55864155 3026737
0.10905363 0.008373512 0.55927485 3224375
0.11048534 0.0088088904 0.55809784 4013893
0.10958637 0.010605132 0.55993354 3684929
0.11115295 0.011185924 0.55867344 3553343
0.1117863 0.013279978 0.55915242 2828851
0.11355504 0.014257323 0.55792993 2565672
0.11359878 0.016026918 0.55880755 2433832
0.11516172 0.016595356 0.55758661 2894634
0.11427217 0.018415008 0.55938709 2894638
0.11569571 0.018829811 0.55822319 2894891
0.1164085 0.021165559 0.55874807 3487027
0.11700989 0.023200504 0.5592109 3881784
0.11834862 0.024073219 0.55838937 3092268
0.11870144 0.026120553 0.55910319 2631462
0.12025899 0.026668312 0.55790383 2236708
0.11959641 0.028259352 0.55951208 1842208
0.099800624 -0.090681791 0.56170297 3487817
0.10137651 -0.0907318 0.56201273 3751240
0.097490251 -0.089408152 0.56007159 3817035
0.09953405 -0.089429066 0.5602026 4211529
0.10130191 -0.08875291 0.56103772 3421252
0.10325334 -0.088043988 0.56211209 1775935
0.10108881 -0.086936057 0.56041789 1841470
0.10375328 -0.086039305 0.56115836 723260
0.10636463 -0.085598044 0.56158674 526138
0.10804074 -0.085722469 0.56240302 526138
0.10610378 -0.084377646 0.56020963 723771
0.10883203 -0.084534116 0.56124854 723515
0.11132878 -0.083496325 0.56107783 657725
0.11348648 -0.083089113 0.56174284 526142
0.11513542 -0.082674325 0.56237078 526400
0.11378928 -0.081927814 0.56073415 657728
0.11632815 -0.080872707 0.5615983 1710667
0.11678743 -0.079375006 0.56056219 3816271
0.11836427 -0.078853138 0.56164527 4013902
0.074031301 -0.075717978 0.5609355 3751495
0.11918518 -0.076366402 0.5607428 4013390
0.12062432 -0.076023296 0.56194866 3881807
0.072477669 -0.073998109 0.56196314 3619394
0.073606893 -0.073606953 0.56130427 4013634
0.075615346 -0.073594488 0.56017691 2697020
0.12133799 -0.073747598 0.56134146 3487055
0.074069299 -0.071637571 0.56173533 1644347
0.075836621 -0.071286768 0.56056887 789050
0.12185984 -0.071801662 0.5606389 3552847
0.12300662 -0.070868485 0.56125712 2828879
0.074150503 -0.06874565 0.56184006 394550
0.075327739 -0.068755567 0.56054223 394547
0.12394899 -0.068804741 0.56094021 2500175
0.12521482 -0.068437248 0.56208038 2565969
0.073935598 -0.066340193 0.56149179 329013
0.075282082 -0.067198098 0.56020248 394550
0.12489589 -0.066746332 0.5606488 3158095
0.12645562 -0.065675676 0.56158531 4079182
0.07386478 -0.063746825 0.5609538 459831
0.12658249 -0.063881032 0.56065184 4013647
0.12821609 -0.063347869 0.56190342 3881806
0.073280729 -0.061384521 0.56132984 394551
0.12851922 -0.061223701 0.56101334 4210766
0.13031682 -0.060341254 0.56222099 4210765
0.072934672 -0.058753382 0.56158364 525881
0.12940612 -0.058636799 0.56047177 3684430
0.13071263 -0.058769658 0.56174177 3816013
0.073513195 -0.056306127 0.56117111 1183809
0.12981685 -0.057079006 0.56006396 3881806
0.13160011 -0.056183089 0.56120527 3289422
0.073936224 -0.05367991 0.56149614 2368326
0.075289115 -0.053056087 0.56025481 4144965
0.13192217 -0.054083034 0.56042427 2763087
0.13356394 -0.053526729 0.56165844 2763086
0.074511699 -0.051194575 0.56201363 3816258
0.075771905 -0.050885469 0.56083822 4078917
0.13374612 -0.051324569 0.56065357 2434127
0.13529599 -0.05067303 0.56184089 2302542
0.076443933 -0.048600595 0.56132162 3091782
0.13499962 -0.049044803 0.56061012 2565711
0.13625771 -0.048627671 0.56162763 3355471
0.077010691 -0.046611771 0.56175828 2105156
0.078174636 -0.045791045 0.56102163 1973575
0.13680197 -0.04672515 0.56108826 3881551
0.13837758 -0.045619413 0.56200826 3420750
0.07905598 -0.043829631 0.56117201 2828613
0.080354631 -0.042956877 0.56034237 4276803
0.13691624 -0.044965111 0.56017709 2960716
0.13889472 -0.04371044 0.56136537 2697291
0.07956472 -0.041555859 0.56190193 3354949
0.080705181 -0.040984798 0.56102467 4145219
0.1390027 -0.041953541 0.56044137 3027015
0.14083332 -0.041034237 0.56169355 2434124
0.08175806 -0.038963292 0.56106067 4144964
0.083345003 -0.037884094 0.56006098 4079176
0.13994743 -0.039912805 0.56017643 2697290
0.1419331 -0.038647633 0.56136757 2368333
0.081650965 -0.037021864 0.56230909 4079426
0.08327347 -0.036324952 0.56094533 4342339
0.14202946 -0.036897335 0.56041765 2565709
0.14328352 -0.036454152 0.56137031 2631245
0.083863974 -0.034081005 0.5616079 3354948
0.085414886 -0.033357106 0.56038505 2367815
0.14379795 -0.034558687 0.56074256 2697293
0.14538141 -0.03343311 0.56165111 2762828
0.08465182 -0.031934518 0.56203002 1710404
0.085996024 -0.031363185 0.5608815 1907526
0.14588802 -0.031538796 0.56100053 2499661
0.14762758 -0.030945988 0.56248921 2631246
0.086742938 -0.02919542 0.56135255 3223364
0.088003963 -0.027817473 0.56078279 3223110
0.14681989 -0.02949883 0.56069475 2565709
0.14841861 -0.028367143 0.561643 3289421
0.088389352 -0.02622341 0.56130582 2104901
0.1489145 -0.026477451 0.5609653 3947341
0.15066722 -0.025872149 0.56247342 4473678
0.089259304 -0.024011629 0.56167972 2104645
0.090720013 -0.023501033 0.56037533 2565190
0.15086384 -0.023794062 0.56131637 3026252
0.089788496 -0.021813024 0.5624541 3749704
0.091382697 -0.021150757 0.56103498 3749957
0.1516583 -0.021231841 0.56051052 2631243
0.15311331 -0.021293566 0.56214046 2434124
0.09171629 -0.019255113 0.56183344 4012870
0.092971548 -0.018513117 0.56084859 2630980
0.15390024 -0.018731395 0.56131232 2434123
0.093844496 -0.016298909 0.56123245 1907525
0.15408951 -0.01667198 0.56016105 2631498
0.15541649 -0.016200207 0.56130433 2565706
0.094524011 -0.01393754 0.56195772 1841475
0.095837593 -0.013401781 0.56074715 1973061
0.15668781 -0.013661888 0.56102246 3289415
0.15767968 -0.013689233 0.56215364 2960457
0.096254058 -0.011145025 0.5617035 1841731
0.097563967 -0.010615768 0.56049508 2104390
0.15712012 -0.011619817 0.56015873 4408133
0.15844899 -0.011137435 0.56128681 4276549
0.096853927 -0.0091273636 0.56224233 1710145
0.098359771 -0.0084553389 0.56091893 1973315
0.15936892 -0.0091072321 0.56096113 4276544
0.1605944 -0.0081062485 0.56170827 4211008
0.099241272 -0.0060757869 0.56140703 1841474
0.10054846 -0.0055579552 0.56022441 2104645
0.16105402 -0.0062398664 0.56095475 4079421
0.099849865 -0.004054579 0.56198007 1841217
0.10109129 -0.0033390392 0.56099528 2038850
0.16227192 -0.0035386398 0.56050307 4211006
0.16331396 -0.0035468068 0.56176847 4342593
0.10151765 -0.0011823879 0.56186146 2434111
0.10294602 -0.00084241299 0.56044167 3289664
0.16413434 -0.0011809071 0.56110758 4342336
0.10195685 0.00050724798 0.56241906 3289663
0.10352033 0.001113157 0.56100047 3355965
0.1655333 0.001011917 0.56127703 4013627
0.10439968 0.0033419307 0.56137288 3026996
0.10563546 0.0040436802 0.56040645 2829102
0.10494917 0.0055770092 0.56214499 2039328
0.10624415 0.0060713459 0.5609538 2170657
0.10666831 0.0083614895 0.56185418 2237478
0.10796487 0.0088498723 0.56069261 2698286
0.10864399 0.011239137 0.56133109 3158586
0.10952352 0.013475495 0.56168473 2960698
0.11103997 0.014322359 0.56047457 2434097
0.11110665 0.016104022 0.56149566 1907757
0.11264523 0.016669473 0.56007683 2104871
0.11198199 0.018241646 0.56181788 1907753
0.11319906 0.01891746 0.56082016 2170920
0.1140884 0.021157663 0.56121689 3355187
0.11452086 0.022802919 0.56184644 3224110
