# .PCD v0.7 - Point Cloud Data file format
VERSION 0.7
FIELDS x y z rgb
SIZE 4 4 4 4
TYPE F F F U
COUNT 1 1 1 1
WIDTH 1103
HEIGHT 1
VIEWPOINT 0 0 0 1 0 0 0
POINTS 1103
DATA ascii
0.10025617 -0.0072983415 0.42590258 6574403
0.10085391 -0.0072860238 0.42518374 6574403
0.10144964 -0.0072737476 0.42446736 6574403
0.10204335 -0.0072615123 0.42375335 6574403
0.10263508 -0.0072493176 0.42304173 6574403
0.10322482 -0.0072371648 0.42233253 6574403
0.10381259 -0.007225052 0.42162567 6574403
0.10439839 -0.0072129802 0.42092121 6574403
0.10498224 -0.007200948 0.42021906 6574403
0.10556415 -0.0071889563 0.41951928 6574403
0.10614412 -0.0071770046 0.41882181 6574403
0.10671545 -0.0071646413 0.41810036 6574403
0.10728297 -0.0071521983 0.41737422 6574403
0.10784712 -0.0071397051 0.41664517 6574403
0.10840878 -0.0071272207 0.41591662 6574403
0.10896847 -0.0071147797 0.41519061 6574403
0.10952621 -0.0071023824 0.41446716 6574403
0.11008201 -0.0070900274 0.41374618 6574403
0.11063588 -0.0070777163 0.41302773 6574403
0.11118782 -0.007065447 0.41231176 6574403
0.11173781 -0.0070532174 0.41159809 6574403
0.11227222 -0.0070401723 0.41083682 6574403
0.11280466 -0.0070271753 0.41007838 6574403
0.11342889 -0.0070200292 0.40966135 6574403
0.11407786 -0.0070144963 0.40933847 6574403
0.11472581 -0.0070089721 0.4090161 6574403
0.11537273 -0.0070034564 0.40869424 6574403
0.11601865 -0.0069979504 0.40837291 6574403
0.11666355 -0.0069924518 0.40805206 6574403
0.11730742 -0.0069869626 0.40773171 6574403
0.1179503 -0.0069814818 0.40741187 6574403
0.11859217 -0.0069760098 0.40709254 6574403
0.11923303 -0.0069705462 0.40677372 6574403
0.11986331 -0.006964535 0.40642291 6640196
0.12047211 -0.0069573559 0.40600398 6640196
0.12107966 -0.0069501917 0.40558591 6640196
0.12168594 -0.0069430419 0.40516868 6640196
0.122291 -0.0069359075 0.40475234 6640196
0.12289481 -0.0069287876 0.40433684 6640196
0.12349737 -0.0069216816 0.40392217 6640196
0.1240987 -0.0069145905 0.40350837 6640196
0.12469881 -0.0069075143 0.40309542 7036499
0.1253349 -0.0069025019 0.40280291 6576978
0.12611717 -0.0069055506 0.40298083 5591630
0.12690012 -0.0069086025 0.40315893 4934473
0.12768377 -0.0069116578 0.40333721 4408387
0.12846813 -0.0069147148 0.40351561 4473922
0.12925316 -0.0069177747 0.40369418 5592402
0.13001078 -0.0069193412 0.40378559 5855831
0.13076328 -0.0069206189 0.40386015 5723990
0.13151604 -0.0069218972 0.40393475 5853514
0.13231 -0.0069253175 0.40413433 3553082
0.13316739 -0.0069320006 0.40452436 1385008
0.13402641 -0.0069386968 0.40491512 5418
0.1348871 -0.0069454066 0.40530667 5418
0.13574946 -0.0069521288 0.40569896 5418
0.13661349 -0.0069588642 0.40609199 5418
0.13747919 -0.0069656125 0.4064858 5418
0.13834658 -0.0069723739 0.40688038 5418
0.13921565 -0.0069791484 0.40727571 5418
0.14003231 -0.0069832387 0.40751439 5419
0.14100568 -0.00699506 0.40820426 5419
0.14209671 -0.0070125652 0.40922579 5676
0.14324017 -0.0070324633 0.41038695 5676
0.14439014 -0.0070524742 0.41155472 5676
0.14554664 -0.0070725996 0.41272914 5676
0.1467098 -0.0070928405 0.41391033 5676
0.14850092 -0.0071430826 0.41684225 924973
0.086164981 -0.0068770172 0.44852936 6115657
0.086729608 -0.0068576904 0.44726881 7828078
0.087291077 -0.0068384712 0.44601533 7828078
0.087849408 -0.0068193604 0.44476888 7432288
0.088404618 -0.0068003554 0.44352934 7365981
0.088956743 -0.0067814556 0.44229668 7564132
0.089501932 -0.0067623686 0.44105178 7629926
0.090019546 -0.0067415521 0.43969411 7630183
0.090533987 -0.0067208637 0.43834478 7762284
0.091045283 -0.006700302 0.43700373 7629926
0.091664016 -0.0066879322 0.43619695 7498083
0.092302509 -0.0066772024 0.43549713 7234138
0.092938945 -0.0066665066 0.43479952 6970192
0.093573354 -0.0066558453 0.43410417 6772555
0.09420348 -0.0066450587 0.43340066 6640454
0.094829075 -0.0066341329 0.43268806 6574403
0.095452614 -0.0066232425 0.43197778 6574403
0.096074104 -0.006612388 0.43126982 6574403
0.096693568 -0.0066015688 0.43056419 6574403
0.097311005 -0.006590785 0.42986086 6574403
0.097926214 -0.0065800222 0.4291589 6574403
0.098537594 -0.0065691732 0.4284513 6574403
0.09914697 -0.0065583596 0.42774603 6574403
0.099751927 -0.0065474235 0.42703277 6574403
0.1003521 -0.0065363441 0.42631012 6574403
0.10095025 -0.0065253014 0.42558992 6574403
0.10154638 -0.0065142959 0.42487213 6574403
0.1021405 -0.0065033277 0.42415676 6574403
0.10273263 -0.0064923968 0.42344382 6574403
0.10332277 -0.0064815017 0.42273325 6574403
0.10391092 -0.0064706434 0.42202505 6574403
0.10449712 -0.0064598219 0.42131925 6574403
0.10508136 -0.0064490363 0.42061579 6574403
0.10566365 -0.006438287 0.41991469 6574403
0.10623573 -0.0064270725 0.41918328 6574403
0.10680556 -0.0064158817 0.4184534 6574403
0.10737341 -0.0064047296 0.41772604 6574403
0.10793917 -0.0063936096 0.41700077 6574403
0.10850114 -0.0063824197 0.41627097 6574403
0.10906114 -0.0063712695 0.41554374 6574403
0.1096192 -0.0063601583 0.41481903 6574403
0.11017531 -0.0063490858 0.41409686 6574403
0.11072948 -0.0063380511 0.41337717 6574403
0.11128174 -0.0063270554 0.41266 6574403
0.11182202 -0.0063155293 0.41190827 6574403
0.11235668 -0.0063038399 0.41114587 6574403
0.11288935 -0.0062921932 0.41038626 6574403
0.11346815 -0.0062832525 0.40980312 6574403
0.11411731 -0.0062782988 0.40948004 6574403
0.11476546 -0.006273353 0.40915745 6574403
0.11541258 -0.0062684147 0.40883538 6574403
0.11605867 -0.0062634838 0.40851378 6574403
0.11670376 -0.0062585613 0.40819272 6574403
0.11734784 -0.0062536462 0.40787217 6574403
0.1179909 -0.0062487391 0.40755212 6574403
0.11863295 -0.0062438394 0.40723255 6574403
0.11926223 -0.006238332 0.40687335 6640196
0.11987232 -0.0062318947 0.40645349 6640196
0.12048116 -0.00622547 0.40603447 6640196
0.12108874 -0.0062190592 0.40561634 6640196
0.12169507 -0.006212661 0.40519905 6640196
0.12230016 -0.0062062768 0.40478265 6640196
0.122904 -0.0061999052 0.40436709 6640196
0.12350661 -0.0061935466 0.40395236 6640196
0.12410797 -0.006187201 0.4035385 6640196
0.12470812 -0.0061808685 0.40312549 7168601
0.12535667 -0.0061769956 0.40287289 6707792
0.12613909 -0.0061797248 0.4030509 5459272
0.12692219 -0.0061824564 0.40322906 4473665
0.12770599 -0.0061851903 0.40340737 4210750
0.12848456 -0.006187642 0.40356725 5329230
0.12923637 -0.0061887838 0.40364173 5855574
0.12998846 -0.0061899265 0.40371627 5789781
0.13074082 -0.0061910693 0.4037908 5853515
0.13149345 -0.0061922125 0.40386537 3553082
0.13230768 -0.0061962274 0.40412721 1516337
0.13316503 -0.0062022069 0.4045172 5418
0.13402404 -0.0062081981 0.40490797 5418
0.13488472 -0.006214201 0.40529948 5418
0.13574706 -0.0062202159 0.40569177 5418
0.13661107 -0.0062262421 0.40608481 5418
0.13747676 -0.0062322794 0.40647858 5418
0.13834411 -0.0062383288 0.40687314 5418
0.13915984 -0.0062419982 0.40711245 5676
0.13996233 -0.006245038 0.40731072 5419
0.1409644 -0.0062569059 0.40808475 5419
0.14197031 -0.0062688184 0.40886173 5419
0.14307055 -0.0062847524 0.40990096 5676
0.14421865 -0.0063026147 0.41106597 5676
0.14537331 -0.006320579 0.41223761 5676
0.14653458 -0.0063386462 0.41341597 5419
0.1486599 -0.0063980212 0.41728851 924973
0.086954579 -0.0060665985 0.44842899 7564133
0.087516867 -0.0060495529 0.44716901 7893871
0.088075995 -0.0060326024 0.44591606 7234137
0.088632002 -0.0060157469 0.44467014 6772554
0.089184918 -0.0059989854 0.44343117 6970449
0.089723602 -0.0059815734 0.44214413 7102293
0.090241812 -0.0059631155 0.44077975 6904398
0.090756834 -0.0059447708 0.43942374 7234138
0.091268696 -0.0059265387 0.43807608 7102036
0.091777429 -0.005908418 0.43673664 6904142
0.092396721 -0.0058976631 0.43594167 6706504
0.093033664 -0.0058882064 0.43524265 6574403
0.093668565 -0.00587878 0.43454587 6574403
0.094297923 -0.0058691655 0.43383518 6574403
0.094923981 -0.0058595054 0.43312111 6574403
0.095547996 -0.0058498774 0.43240944 6574403
0.096169949 -0.0058402801 0.43170005 6574403
0.096789487 -0.0058306921 0.43099132 6574403
0.097405352 -0.0058210371 0.43027765 6574403
0.09801919 -0.0058114142 0.42956635 6574403
0.098631002 -0.0058018235 0.42885742 6574403
0.099240787 -0.0057922639 0.4281508 6574403
0.09984763 -0.0057826811 0.42744246 6574403
0.10044821 -0.0057728859 0.42671841 6574403
0.10104677 -0.0057631237 0.42599684 6574403
0.10164331 -0.0057533947 0.42527768 6574403
0.10223784 -0.0057436987 0.42456096 6574403
0.10283037 -0.0057340353 0.42384666 6574403
0.1034209 -0.005724404 0.42313474 6574403
0.10400945 -0.0057148049 0.42242521 6574403
0.10459603 -0.0057052383 0.42171806 6574403
0.10517936 -0.0056956331 0.42100808 6574403
0.10575351 -0.0056856726 0.42027181 6574403
0.10632566 -0.0056757471 0.41953814 6574403
0.10689582 -0.0056658564 0.41880703 6574403
0.10746399 -0.0056559998 0.41807845 6574403
0.10803019 -0.0056461766 0.41735238 6574403
0.10859367 -0.0056363493 0.41662595 6574403
0.10915398 -0.0056264941 0.41589746 6574403
0.10971235 -0.0056166733 0.41517153 6574403
0.11026876 -0.0056068865 0.41444811 6574403
0.11082325 -0.0055971337 0.41372722 6574403
0.11136945 -0.0055870963 0.4129853 6574403
0.11190635 -0.0055767284 0.4122189 6574403
0.11244126 -0.0055663986 0.41145536 6574403
0.11297417 -0.005556107 0.41069463 6574403
0.11350743 -0.0055459659 0.40994501 6574403
0.11415679 -0.0055415919 0.40962169 6574403
0.11480512 -0.0055372245 0.40929887 6574403
0.11545244 -0.0055328645 0.40897658 6574403
0.11609872 -0.005528511 0.40865478 6574403
0.11674401 -0.0055241645 0.40833351 6574403
0.11738827 -0.0055198246 0.40801272 6574403
0.11803152 -0.0055154916 0.40769243 6574403
0.11865981 -0.0055105174 0.40732476 6640196
0.11927121 -0.0055048252 0.40690398 6640196
0.11988134 -0.0054991436 0.40648404 6640196
0.12049021 -0.0054934747 0.40606499 6640196
0.12109783 -0.0054878169 0.40564677 6640196
0.1217042 -0.0054821712 0.40522945 6640196
0.12230932 -0.0054765367 0.40481296 6640196
0.1229132 -0.0054709138 0.40439734 6640196
0.12351583 -0.0054653022 0.40398255 6640196
0.12411724 -0.0054597026 0.40356863 6640196
0.12471741 -0.0054541142 0.40315557 7300702
0.12537846 -0.0054512373 0.4029429 6838862
0.12616101 -0.0054536457 0.40312093 5590084
0.12694427 -0.0054560574 0.40329918 4604993
0.12771112 -0.0054577398 0.40342355 5263436
0.12846251 -0.005458747 0.40349799 5855573
0.1292142 -0.0054597547 0.40357247 5855573
0.12996614 -0.005460762 0.40364695 5853772
0.13071837 -0.0054617706 0.40372148 3750204
0.13147087 -0.0054627787 0.40379602 1319216
0.13230534 -0.0054671629 0.40412009 5418
0.13316268 -0.0054724389 0.40451008 5418
0.13402167 -0.0054777251 0.40490082 5418
0.13488233 -0.005483022 0.40529233 5418
0.13574466 -0.0054883286 0.40568459 5418
0.13660865 -0.0054936451 0.40607759 5418
0.13747431 -0.0054989727 0.40647137 5418
0.13828909 -0.0055022184 0.40671131 5676
0.13908528 -0.0055046943 0.40689433 5676
0.13992144 -0.0055087181 0.40719175 5419
0.14092316 -0.0055191838 0.40796533 5419
0.14192869 -0.0055296891 0.40874186 5419
0.14293805 -0.005540234 0.40952134 5419
0.14404759 -0.0055545345 0.41057837 5676
0.14520039 -0.0055703474 0.41174725 5676
0.14640546 -0.0055879946 0.41305169 5418
0.14881924 -0.0056513632 0.41773576 990766
0.087180719 -0.0052713919 0.44959518 6379858
0.087743819 -0.0052565425 0.44832864 7828078
0.08830376 -0.0052417754 0.4470692 7234394
0.088860564 -0.0052270922 0.44581684 6706247
0.089414254 -0.0052124904 0.44457147 6640453
0.089946374 -0.0051969015 0.44324189 6706247
0.090465173 -0.005180825 0.44187075 6574660
0.090980776 -0.0051648477 0.44050804 6640454
0.091493212 -0.0051489687 0.43915373 6640454
0.092002504 -0.0051331869 0.43780771 6640453
0.092508681 -0.0051175016 0.43646991 6574403
0.093128577 -0.0051083183 0.43568668 6574403
0.093763947 -0.005100131 0.43498838 6574403
0.094392553 -0.0050917142 0.43427053 6574403
0.095019087 -0.0050833258 0.43355507 6574403
0.095643006 -0.005074935 0.43283942 6574403
0.096263416 -0.0050664959 0.43211964 6574403
0.096881777 -0.0050580846 0.43140227 6574403
0.097498082 -0.0050497013 0.43068725 6574403
0.098112337 -0.0050413455 0.42997459 6574403
0.098724574 -0.0050330171 0.42926428 6574403
0.099334784 -0.0050247167 0.42855632 6574403
0.09994299 -0.0050164433 0.42785069 6574403
0.10054451 -0.0050079641 0.42712751 6574403
0.10114349 -0.0049994881 0.42640457 6574403
0.10174043 -0.0049910401 0.42568403 6574403
0.10233535 -0.00498262 0.42496592 6574403
0.10292828 -0.0049742293 0.42425025 6574403
0.10351921 -0.0049658665 0.42353699 6574403
0.10410816 -0.0049575316 0.42282611 6574403
0.10469229 -0.0049490901 0.42210615 6574403
0.10526878 -0.0049404125 0.42136604 6574403
0.10584328 -0.0049317656 0.42062855 6574403
0.10641576 -0.0049231485 0.41989362 6574403
0.10698623 -0.0049145618 0.41916126 6574403
0.10755473 -0.0049060048 0.41843143 6574403
0.10812125 -0.004897478 0.41770416 6574403
0.1086858 -0.0048889806 0.41697943 6574403
0.10924698 -0.0048804488 0.41625178 6574403
0.10980565 -0.004871923 0.4155246 6574403
0.11036237 -0.0048634266 0.41479996 6574403
0.11091453 -0.0048548444 0.41406798 6574403
0.11145367 -0.0048458115 0.41329756 6574403
0.1119908 -0.0048368121 0.41253 6574403
0.11252595 -0.0048278463 0.41176531 6574403
0.11305913 -0.0048189135 0.41100344 6574403
0.11359032 -0.0048100138 0.41024438 6574403
0.1141963 -0.0048043751 0.40976346 6574403
0.11484482 -0.0048005874 0.4094404 6574403
0.11549232 -0.0047968058 0.40911788 6574403
0.11613881 -0.0047930302 0.40879586 6574403
0.11678428 -0.0047892607 0.40847436 6574403
0.11742873 -0.0047854972 0.40815336 6574403
0.11805607 -0.0047810869 0.40777722 6640196
0.11866876 -0.0047761421 0.40735549 6640196
0.11928019 -0.0047712075 0.40693462 6640196
0.11989035 -0.0047662831 0.40651461 6640196
0.12049927 -0.0047613694 0.4060955 6640196
0.12110692 -0.0047564651 0.40567723 6640196
0.12171332 -0.004751571 0.40525982 6640196
0.12231848 -0.0047466871 0.40484327 6640196
0.12292239 -0.0047418135 0.40442759 6640196
0.12352507 -0.0047369497 0.40401277 6640196
0.12412652 -0.0047320956 0.40359879 6640453
0.12472672 -0.0047272518 0.40318564 7432803
0.12540025 -0.0047252267 0.4030129 6574403
0.12618294 -0.0047273152 0.40319103 6180933
0.12693822 -0.0047283578 0.40327996 5788492
0.1276892 -0.00472923 0.40335435 5855572
0.12844047 -0.0047301021 0.40342876 5921365
0.12919201 -0.0047309753 0.40350321 5854028
0.12994383 -0.0047318479 0.40357766 3947581
0.13069592 -0.0047327215 0.40365216 1319472
0.1314483 -0.0047335951 0.40372667 5418
0.13230301 -0.0047381246 0.40411296 5418
0.13316032 -0.0047426964 0.40450293 5418
0.13401932 -0.0047472781 0.40489367 5418
0.13487995 -0.0047518681 0.40528515 5418
0.13574225 -0.004756467 0.40567741 5418
0.13660623 -0.0047610751 0.40607041 5418
0.13742006 -0.0047638956 0.40631098 5676
0.13821508 -0.0047660372 0.40649363 5676
0.1390108 -0.0047681807 0.40667644 5676
0.13988058 -0.0047728284 0.40707284 5419
0.14088193 -0.004781893 0.40784597 5419
0.14188708 -0.0047909925 0.40862206 5419
0.14289607 -0.0048001264 0.40940109 5419
0.14390892 -0.0048092953 0.4101831 5419
0.14502788 -0.0048218989 0.41125804 71212
0.14656077 -0.0048480663 0.41348988 136747
0.1489789 -0.0049031032 0.41818395 202539
0.087971956 -0.0044594081 0.4494943 7629927
0.088532709 -0.0044468483 0.44822833 7168087
0.08909031 -0.0044343593 0.44696948 6640197
0.089644782 -0.0044219401 0.44571766 6574403
0.090170249 -0.0044083232 0.44434512 6574403
0.090689644 -0.0043946523 0.44296715 6574403
0.091205835 -0.0043810662 0.4415977 6574403
0.09171883 -0.0043675634 0.44023666 6574403
0.092228681 -0.004354144 0.43888402 6574403
0.09273541 -0.0043408065 0.43753964 6574403
0.093239047 -0.0043275505 0.43620351 6574403
0.093858294 -0.0043198378 0.43542609 6574403
0.094486654 -0.0043126689 0.43470347 6574403
0.095111668 -0.0043054665 0.43397748 6574403
0.095734596 -0.0042982879 0.43325391 6574403
0.096355453 -0.0042911335 0.43253276 6574403
0.096974239 -0.0042840024 0.43181399 6574403
0.097590975 -0.0042768954 0.4310976 6574403
0.098205671 -0.0042698118 0.43038359 6574403
0.098818325 -0.0042627514 0.42967194 6574403
0.099428967 -0.0042557144 0.42896265 6574403
0.10003759 -0.0042487006 0.42825568 6574403
0.100641 -0.004241575 0.42753741 6574403
0.10124037 -0.0042343885 0.42681304 6574403
0.10183772 -0.0042272266 0.42609113 6574403
0.10243306 -0.0042200885 0.42537168 6574403
0.10302639 -0.004212975 0.42465463 6574403
0.10361771 -0.0042058853 0.42394 6574403
0.10420267 -0.004198642 0.42320994 6574403
0.10478154 -0.0041912613 0.42246598 6574403
0.10535837 -0.0041839066 0.42172462 6574403
0.10593319 -0.0041765776 0.42098588 6574403
0.106506 -0.0041692737 0.4202497 6574403
0.1070768 -0.0041619958 0.41951609 6574403
0.10764562 -0.0041547432 0.41878504 6574403
0.10821246 -0.0041475156 0.41805655 6574403
0.10877732 -0.0041403132 0.41733056 6574403
0.10934013 -0.0041331323 0.41660672 6574403
0.10989912 -0.0041259052 0.4158783 6574403
0.11045615 -0.0041187042 0.41515243 6574403
0.11099861 -0.0041110595 0.41438189 6574403
0.111538 -0.0041034049 0.41361031 6574403
0.11207539 -0.0040957783 0.41284159 6574403
0.11261079 -0.0040881801 0.41207573 6574403
0.1131442 -0.0040806103 0.4113127 6574403
0.11367564 -0.0040730685 0.4105525 6574403
0.11423583 -0.0040666475 0.40990528 6574403
0.11488455 -0.0040634405 0.40958205 6574403
0.11553224 -0.0040602386 0.40925929 6574403
0.11617892 -0.0040570418 0.40893707 6574403
0.11682458 -0.0040538497 0.40861532 6574403
0.11745097 -0.0040500332 0.40823063 6640196
0.11806497 -0.0040458404 0.40780798 6640196
0.11867771 -0.0040416555 0.40738618 6640196
0.11928917 -0.0040374794 0.40696526 6640196
0.11989937 -0.0040333122 0.40654519 6640196
0.12050832 -0.0040291538 0.40612602 6640196
0.12111601 -0.0040250034 0.40570769 6640196
0.12172244 -0.0040208618 0.40529022 6640196
0.12232764 -0.0040167286 0.40487361 6640196
0.12293159 -0.0040126038 0.40445787 6640196
0.1235343 -0.0040084878 0.40404296 6640196
0.12413578 -0.0040043802 0.40362892 6706246
0.12473602 -0.0040002805 0.40321571 7630183
0.12541556 -0.0039987573 0.40306216 6640196
0.12616587 -0.0039994945 0.40313646 6705989
0.12691644 -0.0040002316 0.40321079 6378827
0.12766731 -0.0040009697 0.40328518 6051922
0.12841845 -0.0040017078 0.40335956 5854029
0.12916984 -0.0040024458 0.40343395 4210238
0.12992153 -0.0040031844 0.40350839 1516337
0.1306735 -0.0040039234 0.40358287 5419
0.13144502 -0.0040052501 0.40371662 5418
0.13230067 -0.0040091113 0.40410581 5418
0.13315797 -0.00401298 0.40449578 5418
0.13401695 -0.0040168567 0.40488651 5418
0.13487756 -0.0040207403 0.40527797 5418
0.13573985 -0.0040246318 0.40567023 5418
0.13655274 -0.0040270244 0.40591142 5676
0.13734658 -0.004028833 0.40609372 5676
0.13814114 -0.004030643 0.40627617 5676
0.1389364 -0.0040324549 0.40645877 5676
0.13983975 -0.0040373681 0.40695402 5419
0.14084072 -0.0040450338 0.40772671 5419
0.14184551 -0.0040527289 0.40850231 5419
0.14285412 -0.0040604528 0.4092809 5419
0.14386658 -0.0040682065 0.41006243 71211
0.14488292 -0.0040759901 0.41084698 71212
0.14671643 -0.0041065668 0.41392902 333868
0.14913891 -0.0041532358 0.4186331 399661
0.088201284 -0.0036581177 0.45066604 6379858
0.088762842 -0.0036477882 0.44939348 7035986
0.089321241 -0.0036375166 0.44812807 6640197
0.089872003 -0.003627121 0.44684738 6574403
0.090395242 -0.0036158096 0.44545385 6574403
0.090915225 -0.0036045685 0.444069 6574403
0.091431998 -0.0035933973 0.44269276 6574403
0.091945574 -0.003582295 0.44132498 6574403
0.092455976 -0.003571261 0.43996564 6574403
0.092963248 -0.0035602949 0.43861464 6574403
0.093431294 -0.003548024 0.43710291 6574403
0.093947761 -0.0035377818 0.43584111 6574403
0.094577082 -0.0035319244 0.43511951 6574403
0.095202982 -0.0035260364 0.43439415 6574403
0.095826358 -0.0035201518 0.43366918 6574403
0.096447647 -0.0035142866 0.43294662 6574403
0.097066872 -0.0035084412 0.43222648 6574403
0.097684041 -0.003502615 0.43150872 6574403
0.098299176 -0.0034968085 0.43079337 6574403
0.098912254 -0.0034910208 0.43008035 6574403
0.099523321 -0.0034852524 0.42936972 6574403
0.10013237 -0.0034795031 0.42866141 6574403
0.10073767 -0.0034737126 0.42794806 6574403
0.10133746 -0.0034678217 0.42722231 6574403
0.10193522 -0.0034619507 0.42649904 6574403
0.10253095 -0.0034560994 0.42577818 6574403
0.10312468 -0.0034502679 0.42505977 6574403
0.10371048 -0.0034442595 0.42431954 6574403
0.10429173 -0.0034381889 0.42357168 6574403
0.10487094 -0.0034321398 0.42282644 6574403
0.10544811 -0.003426112 0.42208382 6574403
0.10602326 -0.003420105 0.4213438 6574403
0.10659639 -0.0034141191 0.42060637 6574403
0.10716753 -0.0034081545 0.41987154 6574403
0.10773666 -0.0034022103 0.41913924 6574403
0.10830382 -0.0033962869 0.4184095 6574403
0.10886901 -0.0033903844 0.41768232 6574403
0.10943224 -0.0033845019 0.41695765 6574403
0.10999274 -0.0033786166 0.41623259 6574403
0.11054116 -0.0033724424 0.41547194 6574403
0.11108282 -0.0033661462 0.41469628 6574403
0.11162247 -0.0033598738 0.41392353 6574403
0.11216011 -0.0033536244 0.41315365 6574403
0.11269575 -0.0033473985 0.41238663 6574403
0.11322941 -0.0033411956 0.41162246 6574403
0.11376109 -0.0033350156 0.4108611 6574403
0.11429081 -0.0033288584 0.41010258 6574403
0.1149243 -0.0033257836 0.40972376 6574403
0.11557219 -0.003323162 0.40940079 6574403
0.11621906 -0.0033205445 0.40907833 6574403
0.11684453 -0.0033173526 0.40868509 6640196
0.11745984 -0.0033139139 0.40826148 6640196
0.11807388 -0.0033104825 0.40783873 6640196
0.11868665 -0.0033070582 0.40741688 6640196
0.11929815 -0.003303641 0.40699589 6640196
0.11990839 -0.003300231 0.40657577 6640196
0.12051738 -0.0032968279 0.40615654 6640196
0.1211251 -0.0032934318 0.40573815 6640196
0.12173158 -0.0032900427 0.40532061 6705732
0.1223368 -0.0032866604 0.40490395 6705988
0.12293437 -0.0032831139 0.40446702 6771525
0.1235297 -0.0032795495 0.40402791 6771525
0.12412374 -0.003275993 0.40358976 6969676
0.12474571 -0.003273211 0.40324703 6838348
0.1254195 -0.0032718128 0.40307477 6639939
0.12614425 -0.0032717525 0.40306735 6771525
0.1268947 -0.003272356 0.40314168 6705990
0.1276454 -0.0032729593 0.403216 6050377
0.12839641 -0.0032735628 0.40329036 4407359
0.12914768 -0.0032741665 0.40336475 1713458
0.12989923 -0.0032747707 0.40343916 71211
0.13065107 -0.0032753749 0.40351361 5419
0.13144271 -0.0032769651 0.4037095 5418
0.13229834 -0.0032801242 0.40409869 5418
0.13315563 -0.0032832895 0.40448865 5418
0.13401458 -0.0032864609 0.40487936 5418
0.13487518 -0.0032896383 0.40527081 5418
0.13568711 -0.0032916013 0.40551263 5676
0.13647979 -0.0032930782 0.40569457 5676
0.13727318 -0.0032945562 0.40587667 5676
0.13806728 -0.0032960358 0.40605894 5676
0.13886209 -0.0032975164 0.40624136 5676
0.13979894 -0.0033023371 0.40683526 5419
0.14079955 -0.0033086056 0.4076075 5419
0.14180395 -0.0033148977 0.40838265 5419
0.14281219 -0.0033212136 0.40916076 71211
0.14382428 -0.0033275539 0.40994185 71211
0.14482179 -0.0033334938 0.41067365 202540
0.14698616 -0.003366095 0.41468999 531246
0.14929926 -0.0034017556 0.41908321 728368
0.088994175 -0.0028445628 0.45056468 6838348
0.089553371 -0.0028365322 0.44929269 6640196
0.090097517 -0.0028281731 0.44796866 6574403
0.090621367 -0.0028193314 0.44656816 6574403
0.091141939 -0.0028105446 0.44517636 6574403
0.091659293 -0.0028018123 0.44379324 6574403
0.092173427 -0.0027931342 0.44241866 6574403
0.092671722 -0.002784129 0.44099227 6574403
0.09306132 -0.0027720395 0.43907735 6574403
0.093476869 -0.0027609202 0.43731612 6574403
0.094041064 -0.0027543406 0.43627396 6574403
0.094662309 -0.0027495276 0.43551159 6574403
0.095289975 -0.0027449785 0.43479106 6574403
0.095915563 -0.0027404448 0.43407291 6574403
0.096539095 -0.0027359256 0.43335712 6574403
0.097159691 -0.0027313968 0.43263978 6574403
0.097777292 -0.0027268569 0.43192065 6574403
0.098392852 -0.002722332 0.43120393 6574403
0.09900637 -0.0027178219 0.43048957 6574403
0.099617854 -0.0027133268 0.42977756 6574403
0.10022732 -0.0027088465 0.42906791 6574403
0.10083453 -0.0027043743 0.42835954 6574403
0.10143473 -0.0026997835 0.42763239 6574403
0.10203289 -0.0026952084 0.42690772 6574403
0.10262904 -0.0026906489 0.42618549 6574403
0.10321571 -0.0026859106 0.42543498 6574403
0.10379936 -0.0026811643 0.42468318 6574403
0.10438095 -0.0026764346 0.42393401 6574403
0.10496049 -0.0026717216 0.42318749 6574403
0.105538 -0.0026670252 0.42244363 6574403
0.10611348 -0.0026623453 0.42170236 6574403
0.10668694 -0.0026576819 0.42096367 6574403
0.10725839 -0.0026530344 0.42022756 6574403
0.10782786 -0.0026484034 0.41949403 6574403
0.10839534 -0.0026437887 0.41876307 6574403
0.10896122 -0.0026391991 0.4180361 6574403
0.10952522 -0.0026346273 0.41731194 6574403
0.1100897 -0.0026301295 0.41659951 6574403
0.11063266 -0.0026251818 0.41581583 6574403
0.11116982 -0.0026201641 0.41502103 6574403
0.11170707 -0.0026152155 0.41423723 6574403
0.11224495 -0.0026103477 0.41346619 6574403
0.11278084 -0.0026054978 0.412698 6574403
0.11331474 -0.0026006661 0.41193268 6574403
0.11384666 -0.0025958521 0.41117015 6574403
0.11437662 -0.0025910561 0.41041049 6574403
0.11496408 -0.002587616 0.40986559 6574403
0.11561217 -0.0025855757 0.40954241 6574403
0.11623674 -0.0025830385 0.40914056 6640196
0.11685336 -0.0025803582 0.40871599 6640196
0.11746871 -0.0025776834 0.40829232 6640196
0.11808279 -0.002575014 0.40786952 6705732
0.1186956 -0.0025723504 0.40744761 6705732
0.11930387 -0.0025696219 0.40701541 6771525
0.11990691 -0.0025668147 0.40657076 6771525
0.12050864 -0.0025640137 0.4061271 6837317
0.12110905 -0.0025612186 0.40568438 6837317
0.12170815 -0.0025584297 0.40524262 6837317
0.12230596 -0.0025556469 0.40480185 6837317
0.12290246 -0.0025528702 0.40436202 6837317
0.12349767 -0.0025500995 0.40392315 6837317
0.12412937 -0.0025481102 0.40360808 6640196
0.12480402 -0.0025470208 0.40343553 6574403
0.12547809 -0.0025459323 0.40326309 6574403
0.12615159 -0.0025448448 0.40309083 6443075
0.12687294 -0.0025447293 0.40307257 6377539
0.12762353 -0.0025451984 0.40314686 4735294
0.12837438 -0.0025456678 0.40322119 1844786
0.12912554 -0.0025461374 0.40329558 71211
0.12987696 -0.0025466071 0.40336996 5419
0.13062865 -0.0025470767 0.40344438 5419
0.13144039 -0.0025487056 0.40370238 5418
0.13229601 -0.0025511626 0.40409157 5418
0.13315327 -0.0025536246 0.4044815 5418
0.13401221 -0.0025560912 0.40487221 5418
0.1348232 -0.0025576218 0.40511465 5676
0.13561471 -0.0025587683 0.40529624 5676
0.13640693 -0.0025599154 0.40547797 5676
0.13719985 -0.0025610637 0.40565985 5676
0.13799348 -0.0025622132 0.40584192 5676
0.13878784 -0.0025633636 0.40602416 5419
0.13975815 -0.002567735 0.40671656 5419
0.1407584 -0.0025726077 0.40748835 5419
0.14176242 -0.0025774986 0.40826306 71211
0.14277029 -0.0025824083 0.40904072 71211
0.14375617 -0.0025868721 0.40974775 137004
0.14509843 -0.0025976701 0.4114581 597039
0.14737096 -0.0026249283 0.41577566 991280
0.14960623 -0.0026512495 0.41994482 1517367
0.089226723 -0.0020371398 0.45174202 5917761
0.089786716 -0.0020313738 0.45046338 6574660
0.090324171 -0.0020252056 0.44909558 6574403
0.090848617 -0.0020188582 0.44768801 6574403
0.091369793 -0.0020125504 0.44628927 6574403
0.09188772 -0.0020062821 0.44489923 6574403
0.092294976 -0.0019977267 0.44300207 6574403
0.092687987 -0.0019890126 0.44106969 6574403
0.093077585 -0.0019803741 0.43915409 6574403
0.093585148 -0.0019743703 0.4378227 6574403
0.094149746 -0.0019696599 0.43677816 6574403
0.094747685 -0.0019657195 0.43590438 6574403
0.095375769 -0.0019624645 0.43518254 6574403
0.096001789 -0.00195922 0.43446311 6574403
0.09662573 -0.0019559865 0.43374604 6574403
0.097247623 -0.0019527634 0.43303132 6574403
0.097867467 -0.0019495512 0.43231899 6574403
0.098485276 -0.0019463494 0.43160897 6574403
0.099100657 -0.0019431501 0.43089953 6574403
0.099712566 -0.0019399333 0.43018618 6574403
0.10032246 -0.001936727 0.42947519 6574403
0.10093034 -0.0019335314 0.42876655 6574403
0.10153218 -0.0019302696 0.42804325 6574403
0.10213017 -0.0019269844 0.42731473 6574403
0.10271832 -0.0019235641 0.42655629 6574403
0.10330439 -0.0019201559 0.4258005 6574403
0.10388838 -0.0019167599 0.42504743 6574403
0.10447031 -0.0019133758 0.42429698 6574403
0.1050502 -0.0019100037 0.42354921 6574403
0.10562834 -0.0019066487 0.42280525 6574403
0.1062046 -0.0019033083 0.42206448 6574403
0.10677885 -0.0018999797 0.42132634 6574403
0.10735109 -0.0018966624 0.42059073 6574403
0.10792134 -0.0018933568 0.41985771 6574403
0.1084896 -0.0018900628 0.41912726 6574403
0.10905589 -0.00188678 0.4183993 6574403
0.1096213 -0.0018835275 0.41767803 6574403
0.11018971 -0.0018803704 0.41697794 6574403
0.11074285 -0.0018769975 0.41622999 6574403
0.11128033 -0.0018734062 0.41543362 6574403
0.11181576 -0.0018698287 0.41464028 6574403
0.11234913 -0.0018662647 0.41384995 6574403
0.11288049 -0.0018627144 0.41306266 6574403
0.11340982 -0.0018591774 0.41227832 6574403
0.11393715 -0.0018556539 0.411497 6574403
0.11446257 -0.0018521451 0.41071889 6574403
0.1150039 -0.0018489372 0.41000754 6574403
0.11562733 -0.0018470821 0.40959615 6705988
0.11623824 -0.0018450514 0.40914583 6771525
0.1168478 -0.0018430252 0.40869653 6771525
0.11745602 -0.0018410034 0.40824819 6837317
0.11806291 -0.0018389862 0.40780085 6837317
0.11866847 -0.0018369734 0.4073545 6837317
0.11927272 -0.0018349648 0.40690911 6837317
0.11987563 -0.0018329608 0.4064647 6837317
0.12047723 -0.001830961 0.40602124 6837317
0.12107752 -0.0018289656 0.40557876 6837317
0.1216765 -0.0018269746 0.40513724 6837317
0.12227419 -0.0018249879 0.4046967 6837317
0.12287057 -0.0018230055 0.40425709 6771524
0.12351193 -0.0018217099 0.40396979 6311490
0.12418745 -0.0018209304 0.40379694 6048833
0.1248624 -0.0018201515 0.40362421 5851712
0.12553675 -0.0018193732 0.40345162 5654847
0.12621054 -0.0018185956 0.40327919 4932157
0.12688375 -0.0018178186 0.4031069 4275258
0.12760164 -0.0018176872 0.40307775 2041907
0.12835237 -0.0018180222 0.40315205 137003
0.12910339 -0.0018183576 0.40322641 5419
0.12985468 -0.0018186929 0.40330076 5419
0.13060623 -0.0018190284 0.40337515 5419
0.13143808 -0.0018204721 0.40369529 5418
0.13229367 -0.0018222269 0.40408444 5418
0.13315094 -0.0018239854 0.40447438 5418
0.13396098 -0.0018250814 0.40471745 5676
0.13475132 -0.0018258988 0.40489867 5676
0.13554238 -0.0018267166 0.40508005 5676
0.13633412 -0.0018275352 0.40526158 5676
0.13712659 -0.0018283547 0.40544328 5676
0.13791978 -0.0018291748 0.40562516 5676
0.1387213 -0.0018300964 0.40582952 5419
0.1397174 -0.0018335616 0.40659794 5419
0.14071725 -0.0018370398 0.40736926 71211
0.14171474 -0.0018404512 0.40812573 71211
0.14269534 -0.001843609 0.40882599 268333
0.14367931 -0.0018467777 0.40952867 728882
0.14547533 -0.0018602983 0.41252691 1188401
0.14773379 -0.0018795647 0.41679928 2240316
0.14910044 -0.0018873473 0.4185251 3490124
0.15047848 -0.0018951949 0.42026532 4146765
0.090021282 -0.0012220083 0.45164019 6574403
0.090551965 -0.0012181879 0.45022818 6574403
0.091077015 -0.0012143602 0.44881353 6574403
0.091514811 -0.0012094468 0.44699761 6574403
0.09191478 -0.0012041238 0.44503027 6574403
0.092311256 -0.0011988475 0.44308022 6574403
0.092704266 -0.0011936171 0.44114715 6574403
0.093126006 -0.0011888426 0.43938252 6574403
0.093693696 -0.0011859961 0.4383305 6574403
0.094258673 -0.0011831633 0.43728352 6574403
0.094833218 -0.0011804965 0.43629789 6574403
0.095461734 -0.0011785399 0.43557477 6574403
0.096088164 -0.0011765898 0.434854 6574403
0.096712522 -0.0011746461 0.43413565 6574403
0.097334832 -0.0011727088 0.43341967 6574403
0.097955085 -0.0011707779 0.43270603 6574403
0.098573305 -0.0011688534 0.43199474 6574403
0.09918949 -0.0011669352 0.4312858 6574403
0.099803656 -0.0011650232 0.43057916 6574403
0.10041581 -0.0011631176 0.42987484 6574403
0.10102598 -0.0011612182 0.42917284 6574403
0.10162771 -0.0011592516 0.42844599 6574403
0.10221855 -0.0011571911 0.42768449 6574403
0.10280749 -0.0011551403 0.42692655 6574403
0.10339435 -0.0011530968 0.4261713 6574403
0.10397913 -0.0011510606 0.4254187 6574403
0.10456186 -0.0011490313 0.42466876 6574403
0.10514253 -0.0011470094 0.42392147 6574403
0.10572117 -0.0011449945 0.4231768 6574403
0.10629777 -0.0011429868 0.42243475 6574403
0.10687236 -0.001140986 0.42169529 6574403
0.10744494 -0.0011389923 0.42095843 6574403
0.10801552 -0.0011370055 0.42022413 6574403
0.10858411 -0.0011350255 0.41949236 6574403
0.10915073 -0.0011330525 0.41876316 6574403
0.10972112 -0.0011311456 0.4180584 6574403
0.11028989 -0.0011292479 0.41735703 6574403
0.11085326 -0.0011273213 0.41664496 6574403
0.11139106 -0.0011251622 0.415847 6574403
0.11192681 -0.0011230115 0.41505209 6574403
0.11246051 -0.0011208688 0.41426021 6574403
0.11299217 -0.0011187344 0.41347134 6574403
0.11352181 -0.001116608 0.41268545 6574403
0.11404946 -0.0011144897 0.41190258 6574403
0.1145751 -0.0011123796 0.41112268 6574403
0.11510425 -0.0011103303 0.41036531 6574403
0.11565979 -0.0011085602 0.40971109 6574403
0.11622646 -0.0011069188 0.40910441 6705732
0.11681715 -0.0011055251 0.40858933 6705732
0.11742524 -0.0011043126 0.40814123 6837317
0.11803202 -0.0011031029 0.40769413 6837317
0.11863745 -0.0011018958 0.40724799 6837317
0.11924156 -0.0011006914 0.40680283 6837317
0.11984436 -0.0010994895 0.40635866 6837317
0.12044584 -0.0010982903 0.40591544 6837317
0.12104601 -0.0010970937 0.4054732 6837317
0.12164487 -0.0010958997 0.40503192 6837317
0.12224244 -0.0010947083 0.40459159 6574404
0.12289339 -0.0010940065 0.40433216 5326142
0.12356977 -0.0010935378 0.40415898 4603707
0.12424558 -0.0010930697 0.40398595 3552823
0.12492081 -0.0010926018 0.40381303 2698548
0.12559547 -0.0010921344 0.4036403 1910321
0.12626953 -0.0010916673 0.40346768 1056558
0.12694302 -0.0010912009 0.40329525 465195
0.12761594 -0.0010907346 0.40312293 70954
0.12833036 -0.0010906263 0.40308294 5419
0.12908125 -0.0010908275 0.40315726 5419
0.1298324 -0.0010910286 0.40323159 5419
0.13058384 -0.0010912298 0.40330598 5418
0.13143577 -0.001092264 0.40368816 5418
0.13229135 -0.0010933169 0.40407732 5418
0.13310045 -0.0010939762 0.40432101 5676
0.13388963 -0.0010944656 0.40450189 5676
0.13467951 -0.0010949554 0.4046829 5676
0.13547012 -0.0010954457 0.4048641 5676
0.13626142 -0.0010959364 0.40504545 5676
0.13705343 -0.0010964274 0.40522695 5676
0.13784616 -0.0010969189 0.40540862 5676
0.13868093 -0.0010977383 0.40571141 70955
0.13967666 -0.0010998162 0.40647939 71211
0.14066269 -0.0011017965 0.40721127 71211
0.14163928 -0.0011036827 0.40790841 334382
0.14261922 -0.0011055754 0.40860793 860211
0.14360909 -0.0011075251 0.40932852 1582902
0.14585419 -0.0011190859 0.41360125 3094851
0.14723806 -0.0011239547 0.41540068 4607830
0.14859807 -0.001128593 0.41711494 5462365
0.14996935 -0.0011332697 0.41884342 6251107
0.090251923 -0.00040837974 0.45279732 6574403
0.090720445 -0.00040681812 0.45106587 6574403
0.091127567 -0.00040501141 0.44906265 6574403
0.091531098 -0.00040322068 0.44707716 6574403
0.091931067 -0.00040144572 0.44510913 6574403
0.092327535 -0.00039968631 0.44315836 6574403
0.092720546 -0.00039794223 0.4412246 6574403
0.09323439 -0.00039674208 0.4398939 6574403
0.093802489 -0.00039579108 0.43883947 6574403
0.094367862 -0.0003948446 0.43779004 6574403
0.09493053 -0.00039390262 0.43674561 6574403
0.09554784 -0.00039320099 0.43596765 6574403
0.096174695 -0.00039254979 0.43524563 6574403
0.096799478 -0.00039190071 0.43452597 6574403
0.097422197 -0.00039125379 0.43380868 6574403
0.098042868 -0.00039060903 0.43309379 6574403
0.09866149 -0.00038996636 0.43238121 6574403
0.099278077 -0.00038932581 0.43167099 6574403
0.099892654 -0.00038868736 0.4309631 6574403
0.10050542 -0.00038805179 0.43025842 6574403
0.10111626 -0.00038741861 0.42955637 6574403
0.10171631 -0.00038675405 0.42881951 6574403
0.10230914 -0.00038607224 0.42806354 6574403
0.10289872 -0.00038538847 0.4273054 6574403
0.10348593 -0.00038470607 0.42654878 6574403
0.10407107 -0.00038402612 0.42579487 6574403
0.10465416 -0.00038334855 0.42504361 6574403
0.10523518 -0.00038267337 0.42429501 6574403
0.10581416 -0.00038200058 0.42354903 6574403
0.10639111 -0.00038133014 0.42280567 6574403
0.10696603 -0.00038066204 0.4220649 6574403
0.10753895 -0.00037999626 0.42132673 6574403
0.10810986 -0.00037933284 0.42059115 6574403
0.10867879 -0.00037867174 0.41985813 6574403
0.10925013 -0.00037802811 0.41914451 6574403
0.10982114 -0.00037739225 0.41843948 6574403
0.11039025 -0.00037675851 0.41773683 6574403
0.11095744 -0.00037612693 0.41703653 6574403
0.11150201 -0.00037542765 0.4162612 6574403
0.11203808 -0.00037470929 0.4154647 6574403
0.11257209 -0.00037399365 0.41467124 6574403
0.11310408 -0.00037328078 0.41388083 6574403
0.11363403 -0.00037257062 0.41309342 6574403
0.11416198 -0.00037186311 0.41230896 6574403
0.11469164 -0.00037117038 0.41154087 6574403
0.11522373 -0.00037049429 0.41079128 6574403
0.11576209 -0.00036984694 0.41007349 6574403
0.11632912 -0.0003692988 0.40946573 6574403
0.11689447 -0.00036875225 0.40885976 6574403
0.11745814 -0.00036820734 0.40825558 6574403
0.11802016 -0.00036766403 0.40765318 6705732
0.11860645 -0.00036720262 0.40714157 6705732
0.11921044 -0.00036680134 0.40669665 6837317
0.11981311 -0.00036640093 0.40625268 6837317
0.12041446 -0.00036600139 0.4058097 6837317
0.12101451 -0.00036560273 0.40536767 6837317
0.12161325 -0.00036520496 0.40492663 5917505
0.12227373 -0.0003649962 0.40469518 2238770
0.12295099 -0.00036483974 0.40452167 1450543
0.12362766 -0.00036468336 0.40434831 662316
0.12430377 -0.00036452716 0.40417513 202282
0.12497929 -0.00036437108 0.40400207 5161
0.12565422 -0.00036421514 0.40382916 5161
0.12632859 -0.00036405932 0.40365639 5161
0.12700237 -0.00036390364 0.40348378 5161
0.12767558 -0.00036374808 0.40331131 5161
0.12834822 -0.00036359267 0.403139 5161
0.12905912 -0.00036354683 0.40308815 5419
0.12981014 -0.00036361383 0.40316245 5419
0.13057953 -0.00036373126 0.40329266 5418
0.13143344 -0.00036408156 0.40368104 5418
0.13224159 -0.0003643019 0.40392536 5676
0.13302962 -0.00036446471 0.40410587 5676
0.13381834 -0.00036462766 0.40428653 5676
0.13460779 -0.00036479076 0.40446737 5676
0.13539793 -0.000364954 0.40464836 5676
0.13618879 -0.00036511739 0.40482953 5676
0.13698034 -0.00036528092 0.40501085 5676
0.1377726 -0.00036544458 0.40519232 5676
0.13864058 -0.00036580628 0.40559337 71211
0.13961533 -0.00036644441 0.4063009 71211
0.14058794 -0.00036707034 0.40699491 465712
0.14156389 -0.00036769843 0.4076913 991796
0.14254318 -0.00036832865 0.40839007 2240831
0.14398019 -0.00037012901 0.41038626 3883850
0.14540328 -0.00037187539 0.41232258 5791072
0.14674565 -0.00037339862 0.41401148 6514278
0.14809908 -0.00037493437 0.41571426 7237484
0.14946367 -0.00037648281 0.41743112 6842212
0.1508396 -0.00037804409 0.41916221 5328974
0.090736732 0.00040689117 0.45114687 6574403
0.091143861 0.00040508382 0.44914293 6574403
0.091547385 0.00040329245 0.44715673 6574403
0.091947354 0.00040151682 0.44518799 6574403
0.092343822 0.0003997568 0.44323653 6574403
0.092771806 0.00039816226 0.44146854 6574403
0.093343034 0.00039720439 0.4404065 6574403
0.093911529 0.00039625115 0.43934959 6574403
0.094477296 0.00039530252 0.43829775 6574403
0.095040366 0.00039435836 0.43725091 6574403
0.09563411 0.00039355599 0.43636128 6574403
0.09626139 0.00039290363 0.43563795 6574403
0.09688659 0.00039225339 0.434917 6574403
0.097509719 0.00039160528 0.43419841 6574403
0.0981308 0.00039095938 0.43348223 6574403
0.098749958 0.00039031604 0.43276894 6574403
0.099367239 0.00038967544 0.43205866 6574403
0.0999825 0.00038903696 0.43135074 6574403
0.10059574 0.00038840054 0.43064511 6574403
0.10120698 0.00038776622 0.42994177 6574403
0.10180423 0.00038708831 0.42919013 6574403
0.1023974 0.0003864053 0.42843285 6574403
0.1029885 0.00038572474 0.42767826 6574403
0.10357752 0.00038504656 0.42692631 6574403
0.10416318 0.00038436599 0.42617172 6574403
0.10474661 0.00038368721 0.42541912 6574403
0.10532798 0.00038301083 0.42466918 6574403
0.10590731 0.00038233685 0.42392188 6574403
0.1064846 0.00038166522 0.42317721 6574403
0.10705987 0.00038099597 0.42243516 6574403
0.10763312 0.00038032906 0.42169571 6574403
0.10820437 0.00037966445 0.42095882 6574403
0.10877667 0.00037901278 0.42023626 6574403
0.10934997 0.0003783736 0.41952756 6574403
0.10992134 0.00037773658 0.41882125 6574403
0.11049079 0.00037710168 0.41811731 6574403
0.11105835 0.00037646896 0.41741577 6574403
0.11161319 0.00037580199 0.41667625 6574403
0.11214957 0.00037508216 0.41587815 6574403
0.11268391 0.00037436516 0.41508314 6574403
0.1132162 0.00037365084 0.41429111 6574403
0.11374647 0.00037293925 0.41350216 6574403
0.11427667 0.00037223671 0.41272318 6574403
0.11481103 0.00037155676 0.41196927 6574403
0.11534345 0.00037087928 0.41121811 6574403
0.11587393 0.00037020424 0.41046968 6574403
0.11643195 0.00036962522 0.40982768 6574403
0.11699764 0.00036907775 0.40922064 6574403
0.11756166 0.00036853185 0.40861538 6574403
0.11812402 0.00036798761 0.40801194 6574403
0.11868472 0.00036744497 0.40741026 6574403
0.11924376 0.0003669039 0.40681034 6574403
0.11980117 0.00036636443 0.40621221 6705732
0.12038311 0.0003659061 0.40570402 6705732
0.12098303 0.00036550764 0.40526223 3618360
0.12165295 0.0003653242 0.40505883 5161
0.12233109 0.00036516742 0.40488502 5161
0.12300865 0.00036501081 0.40471137 5161
0.12368561 0.00036485432 0.40453786 5161
0.12436201 0.00036469797 0.4043645 5161
0.1250378 0.00036454172 0.40419126 5161
0.12571305 0.00036438563 0.40401819 5161
0.1263877 0.00036422969 0.40384528 5161
0.12706178 0.00036407387 0.40367252 5161
0.12773527 0.00036391817 0.40349987 5161
0.12840821 0.00036376261 0.40332741 5161
0.12908055 0.00036360716 0.40315506 5161
0.12978789 0.00036355152 0.40309334 5418
0.13057724 0.00036372486 0.40328556 5418
0.13138442 0.00036394576 0.40353048 5676
0.13217129 0.00036410824 0.40371063 5676
0.13295886 0.00036427088 0.40389094 5676
0.13374715 0.00036443365 0.40407142 5419
0.13453613 0.00036459658 0.40425208 5419
0.13532665 0.00036476189 0.40443537 5418
0.13614354 0.00036499609 0.40469503 5162
0.13696148 0.0003652306 0.40495506 5162
0.13778847 0.00036548666 0.40523899 5162
0.13868974 0.00036593599 0.40573719 5161
0.13960849 0.00036642645 0.40628099 202540
0.14057061 0.00036702512 0.40694475 859954
0.14153591 0.0003676257 0.40761068 1911867
0.14250435 0.0003682283 0.40827879 4147020
0.14359549 0.00036914006 0.40928975 6448225
0.1449206 0.00037064092 0.41095385 7434862
0.14625654 0.00037215403 0.41263151 6513504
0.14760341 0.00037367953 0.41432294 5526610
0.1489614 0.00037521761 0.41602832 4539458
0.15033059 0.00037676838 0.41774777 3421234
0.090753026 0.0012208926 0.45122787 5851969
0.091160156 0.0012154687 0.44922325 6574403
0.091563687 0.0012100927 0.44723633 6574403
0.091963656 0.001204764 0.4452669 6574403
0.092360117 0.001199482 0.44331473 6574403
0.092880294 0.0011958836 0.4419848 6574403
0.093451932 0.0011930034 0.44092029 6574403
0.094020821 0.001190137 0.43986091 6574403
0.094586991 0.0011872844 0.43880662 6574403
0.095150441 0.0011844453 0.43775734 6574403
0.09572053 0.001181735 0.43675563 6574403
0.096348226 0.0011797742 0.43603095 6574403
0.096973896 0.0011778206 0.4353089 6574403
0.097597718 0.0011758761 0.43459028 6574403
0.098219499 0.0011739383 0.43387404 6574403
0.098839223 0.0011720066 0.43316013 6574403
0.099456921 0.0011700814 0.4324486 6574403
0.10007258 0.0011681624 0.43173936 6574403
0.10068623 0.0011662497 0.43103248 6574403
0.10129665 0.0011643292 0.43032268 6574403
0.10189229 0.0011622695 0.42956141 6574403
0.10248583 0.001160217 0.42880282 6574403
0.10307728 0.0011581717 0.42804691 6574403
0.10366665 0.0011561336 0.42729366 6574403
0.10425394 0.0011541027 0.42654306 6574403
0.10483918 0.0011520789 0.42579508 6574403
0.10542095 0.0011500467 0.42504403 6574403
0.10600063 0.0011480212 0.42429543 6574403
0.10657827 0.0011460028 0.42354944 6574403
0.10715387 0.0011439915 0.42280608 6574403
0.10772746 0.0011419873 0.42206532 6574403
0.10830073 0.0011400076 0.4213337 6574403
0.10887633 0.0011380801 0.42062131 6574403
0.10945 0.0011361592 0.41991132 6574403
0.11002173 0.0011342446 0.41920373 6574403
0.11059153 0.0011323364 0.41849852 6574403
0.11115941 0.0011304348 0.41779566 6574403
0.11172459 0.0011285312 0.41709211 6574403
0.11226129 0.0011263675 0.41629243 6574403
0.11279594 0.0011242121 0.41549581 6574403
0.11332855 0.0011220649 0.41470224 6574403
0.1138593 0.0011199276 0.41391233 6574403
0.11439597 0.0011178759 0.41315407 6574403
0.11493067 0.0011158318 0.41239858 6574403
0.11546344 0.0011137952 0.41164586 6574403
0.11599424 0.0011117659 0.41089585 6574403
0.11653496 0.0011098568 0.41019028 6574403
0.11710101 0.0011082115 0.40958217 6574403
0.11766537 0.0011065708 0.40897584 6574403
0.11822807 0.0011049352 0.40837133 6574403
0.11878911 0.0011033043 0.40776858 6574403
0.11934849 0.0011016784 0.40716761 6574403
0.11990622 0.0011000572 0.40656844 6574403
0.12046232 0.0010984406 0.40597099 6574403
0.12108944 0.0010974873 0.40561867 6574403
0.12176541 0.0010969857 0.40543327 6574403
0.12244077 0.0010964845 0.40524805 6574403
0.12311552 0.0010959839 0.405063 6574403
0.12378965 0.0010954837 0.40487814 6574403
0.12446317 0.0010949839 0.40469342 6574403
0.12513608 0.0010944846 0.40450889 4932156
0.12580836 0.0010939856 0.4043245 4340794
0.12648003 0.0010934873 0.40414029 3289910
0.12715109 0.0010929893 0.40395626 2172978
0.12782153 0.0010924918 0.40377238 1121837
0.12849139 0.0010919948 0.40358868 530731
0.12916063 0.0010914982 0.40340516 333866
0.12982924 0.001091002 0.40322179 70954
0.13056886 0.0010911047 0.40325972 5162
0.13138032 0.0010918033 0.4035179 5162
0.13219282 0.0010925026 0.40377638 5161
0.13300636 0.001093203 0.40403521 5161
0.13382094 0.0010939041 0.40429437 5161
0.13463657 0.0010946062 0.40455386 5161
0.13545324 0.0010953093 0.40481368 5161
0.13627097 0.0010960132 0.40507385 5161
0.13712525 0.001097002 0.40543929 5161
0.13802615 0.0010983513 0.40593797 5161
0.13892926 0.0010997039 0.4064379 5161
0.13983461 0.00110106 0.40693906 5418
0.14074218 0.0011024192 0.40744144 70954
0.141652 0.0011037819 0.40794507 596783
0.1426072 0.0011054822 0.40857348 2043195
0.14357969 0.0011072984 0.40924475 4869970
0.14455539 0.0011091207 0.40991822 5131851
0.14577065 0.0011127531 0.41126072 4145214
0.14711106 0.0011172992 0.41294092 3158062
0.14846247 0.0011218827 0.41463491 2105376
0.14982501 0.0011265038 0.41634282 1118481
0.091176458 0.0020261435 0.44930357 6574403
0.091579981 0.0020171802 0.44731593 6574403
0.091979951 0.0020082959 0.44534582 6574403
0.09241423 0.0020003079 0.44357446 6574403
0.092989042 0.0019954729 0.44250229 6574403
0.093561083 0.0019906615 0.44143531 6574403
0.094130374 0.0019858729 0.44037345 6574403
0.094696939 0.0019811075 0.43931669 6574403
0.095260784 0.0019763648 0.438265 6574403
0.095817752 0.0019715587 0.43719923 6574403
0.096435748 0.0019680765 0.43642703 6574403
0.097062074 0.0019648194 0.43570474 6574403
0.097686321 0.0019615728 0.4349848 6574403
0.098308511 0.0019583369 0.43426725 6574403
0.098928653 0.0019551117 0.43355206 6574403
0.099546753 0.0019518972 0.43283921 6574403
0.10016283 0.0019486931 0.4321287 6574403
0.10077688 0.0019454996 0.43142053 6574403
0.1013845 0.0019422318 0.43069589 6574403
0.10198051 0.0019387929 0.42993331 6574403
0.10257441 0.0019353661 0.42917341 6574403
0.10316621 0.0019319515 0.42841619 6574403
0.10375593 0.0019285488 0.42766166 6574403
0.10434357 0.0019251581 0.42690974 6574403
0.10492915 0.0019217792 0.42616048 6574403
0.10551269 0.0019184124 0.42541388 6574403
0.10609411 0.001915056 0.42466959 6574403
0.10667209 0.0019116862 0.4239223 6574403
0.10724804 0.001908328 0.42317763 6574403
0.10782231 0.0019049878 0.42243692 6574403
0.10840023 0.0019017584 0.42172077 6574403
0.10897619 0.0018985398 0.42100707 6574403
0.10955021 0.0018953322 0.42029577 6574403
0.11012229 0.0018921356 0.4195869 6574403
0.11069245 0.0018889497 0.4188804 6574403
0.11126068 0.0018857743 0.41817626 6574403
0.11182701 0.0018826096 0.41747448 6574403
0.11237323 0.0018791511 0.41670755 6574403
0.1129082 0.0018755514 0.41590932 6574403
0.11344112 0.0018719658 0.41511419 6574403
0.11397851 0.0018685001 0.41434568 6574403
0.11451552 0.0018650737 0.41358584 6574403
0.11505057 0.0018616597 0.41282877 6574403
0.11558366 0.0018582582 0.41207448 6574403
0.1161148 0.001854869 0.41132292 6574403
