# .PCD v0.7 - Point Cloud Data file format
VERSION 0.7
FIELDS x y z rgb
SIZE 4 4 4 4
TYPE F F F U
COUNT 1 1 1 1
WIDTH 1108
HEIGHT 1
VIEWPOINT 0 0 0 1 0 0 0
POINTS 1108
DATA ascii
0.12104676 -0.034946553 0.56155843 2105376
0.12222321 -0.034993365 0.56231064 4079166
0.12342519 -0.035046659 0.56316704 5066061
0.12468512 -0.035115402 0.56427163 5131854
0.12593643 -0.035180625 0.56531972 3815994
0.12719242 -0.035246093 0.56637174 4802889
0.12845309 -0.035311807 0.56742769 5395026
0.12982129 -0.035405803 0.56893814 6118233
0.13130395 -0.035529304 0.57092267 6968903
0.13311096 -0.035737958 0.57427555 5458500
0.069022164 -0.036413267 0.6025936 6575435
0.069721706 -0.036212049 0.59926373 6574403
0.070499033 -0.036056757 0.59669381 6574403
0.07138136 -0.035959031 0.59507656 6574403
0.072321907 -0.035893094 0.59398538 6574403
0.073259786 -0.035827778 0.59290451 6574403
0.07419426 -0.035762701 0.59182757 6574403
0.075125344 -0.035697859 0.59075451 6574403
0.0760445 -0.035629243 0.58961898 6574403
0.076953635 -0.035557888 0.58843815 6309691
0.077862538 -0.035488367 0.58728766 5515554
0.078772329 -0.035421114 0.58617473 5250328
0.079678684 -0.035354119 0.58506602 5184022
0.08058165 -0.035287388 0.58396173 5118485
0.081482626 -0.035221521 0.58287174 5118229
0.082382433 -0.035156835 0.58180124 5118228
0.083284207 -0.035094604 0.58077139 5118229
0.084182784 -0.035032589 0.57974511 5118229
0.085078195 -0.034970794 0.57872248 5118486
0.085970461 -0.034909219 0.57770348 5118229
0.086859584 -0.034847856 0.57668805 4857374
0.087745592 -0.034786712 0.5756762 4596520
0.088628493 -0.034725782 0.57466787 5848116
0.089508086 -0.034664981 0.57366168 6508097
0.090379216 -0.034602329 0.57262486 6640453
0.09124729 -0.034539934 0.57159233 6904398
0.092112251 -0.03447777 0.57056355 7432031
0.092974089 -0.034415822 0.56953841 7762027
0.09383285 -0.034354102 0.56851703 7893871
0.09468852 -0.034292597 0.56749922 7893872
0.095552795 -0.034235492 0.56655419 7894128
0.096423954 -0.034182034 0.56566954 7894128
0.097292408 -0.034128752 0.56478775 7893871
0.098158151 -0.034075629 0.56390864 7893872
0.099021211 -0.03402267 0.56303227 7893871
0.099864572 -0.033964094 0.56206286 7894128
0.10078442 -0.033932444 0.56153911 7894128
0.10171373 -0.033904579 0.56107795 7894128
0.10264152 -0.033876758 0.56061757 7762027
0.10356777 -0.033848979 0.5601579 7168600
0.10450078 -0.033823922 0.55974323 6840151
0.10543545 -0.033799879 0.55934536 6973024
0.1063688 -0.033775873 0.5589481 7631469
0.10730083 -0.033751905 0.55855143 7564904
0.10834903 -0.033764578 0.55876118 6315611
0.10936241 -0.033766273 0.55878919 6513249
0.11038346 -0.033770282 0.55885553 6381920
0.11140823 -0.033775344 0.55893934 6316128
0.11243331 -0.033780411 0.55902314 6052956
0.11345868 -0.033785474 0.55910695 5855577
0.11448437 -0.03379054 0.55919081 5263440
0.11551037 -0.03379561 0.55927467 2171169
0.11653925 -0.033801425 0.55937093 2631720
0.11757073 -0.033807892 0.55947793 3552822
0.118699 -0.033841841 0.56003976 3421236
0.11984911 -0.033881392 0.56069428 3684408
0.12100191 -0.033921037 0.56135035 3421236
0.12215742 -0.033960775 0.56200796 5000268
0.12330993 -0.033999033 0.56264108 5526612
0.12454493 -0.034059227 0.5636372 5460819
0.12579459 -0.034122419 0.56468296 5000268
0.12704891 -0.034185849 0.56573266 4013373
0.12830786 -0.034249511 0.56678617 5197647
0.12962356 -0.03432719 0.56807166 5263440
0.13110329 -0.034446746 0.57005018 6444879
0.13259335 -0.03456714 0.57204252 6969161
0.069981754 -0.035262126 0.60149884 6574403
0.070674747 -0.035067622 0.59818101 6574403
0.07144931 -0.034918837 0.59564304 6574403
0.072389036 -0.03485398 0.59453672 6574403
0.073325269 -0.034789361 0.59343445 6574403
0.074259847 -0.034725826 0.59235072 6574403
0.075191632 -0.034662809 0.59127575 6574403
0.076114662 -0.034597576 0.59016299 6574146
0.077032231 -0.03453169 0.58903915 6309947
0.077946313 -0.034466058 0.58791959 5316891
0.07885693 -0.034400675 0.58680427 5184278
0.079764083 -0.034335535 0.58569312 5118229
0.080668531 -0.034270946 0.58459139 5118229
0.08157032 -0.034206908 0.58349901 5118228
0.082468741 -0.034143109 0.58241075 5118228
0.083371155 -0.034082547 0.58137769 5118228
0.084270515 -0.034022257 0.58034927 5052950
0.085166708 -0.033962183 0.57932454 4726818
0.086059734 -0.033902321 0.5783034 4791839
0.086949624 -0.033842668 0.57728583 5052950
0.087836385 -0.033783227 0.57627189 3682371
0.088720478 -0.033724159 0.57526433 4729903
0.089603141 -0.033665922 0.5742709 6178106
0.090469547 -0.033602975 0.57319719 6706247
0.091338329 -0.033542324 0.57216263 7365981
0.092203982 -0.033481892 0.57113177 7827821
0.093066514 -0.033421677 0.5701046 7893871
0.093925953 -0.033361677 0.56908113 7894128
0.094782315 -0.033301894 0.56806135 7893872
0.095652469 -0.033248182 0.56714517 7762284
0.096524388 -0.033196218 0.56625873 7696233
0.09739358 -0.033144411 0.56537503 7828078
0.098260067 -0.033092771 0.56449413 7893871
0.09910477 -0.033034921 0.56350738 7893871
0.099945515 -0.032976944 0.56251842 7828077
0.10085516 -0.032942642 0.56193328 7893614
0.10178507 -0.03291557 0.56147146 7893871
0.10271344 -0.032888543 0.56101042 7893871
0.10364029 -0.032861557 0.56055009 7564390
0.10456563 -0.032834619 0.5600906 7036500
0.10548943 -0.032807719 0.55963176 6840665
0.10641175 -0.032780871 0.55917376 7236454
0.10733145 -0.032753728 0.55871081 7564647
0.1083133 -0.032745883 0.55857694 6641999
0.10933724 -0.032750789 0.55866063 6381919
0.1103615 -0.032755695 0.55874437 6315870
0.11138606 -0.032760605 0.55882812 6316127
0.11241093 -0.032765515 0.55891186 6513507
0.1134361 -0.032770429 0.55899566 6579300
0.11446158 -0.032775342 0.55907947 5658198
0.11548753 -0.032780305 0.55916411 3092271
0.11651843 -0.03278657 0.55927104 2631720
0.11754973 -0.032792844 0.55937803 2368548
0.11865514 -0.032819506 0.55983281 2368548
0.11980477 -0.032857846 0.56048685 3026478
0.12095709 -0.03289628 0.56114244 5197647
0.12210529 -0.032932959 0.56176811 5066061
0.1232263 -0.032961767 0.5622595 3815994
0.1244376 -0.033014059 0.56315148 5197647
0.12566289 -0.033069182 0.5640918 4473924
0.12690569 -0.033127993 0.56509495 4276545
0.12816298 -0.033189617 0.56614614 4671303
0.12942646 -0.033251859 0.56720787 4539717
0.13090323 -0.033367492 0.56918031 5986905
0.13239032 -0.033483934 0.57116657 6968903
0.13388933 -0.033601571 0.57317322 6180676
0.070243746 -0.034305088 0.60375071 6575435
0.070869386 -0.034082223 0.59982842 6574403
0.071584903 -0.033908639 0.59677345 6574403
0.072526157 -0.03384554 0.59566295 6574403
0.073463909 -0.033782672 0.59455651 6574403
0.074398182 -0.033720039 0.59345418 6574403
0.075314544 -0.033651181 0.5922423 6574403
0.076204136 -0.03357245 0.59085673 6574146
0.077115364 -0.033505298 0.58967483 6375484
0.078030273 -0.033441544 0.58855283 5383198
0.078941695 -0.033378035 0.58743507 5118229
0.079849675 -0.033314764 0.58632159 5052951
0.080755606 -0.033252306 0.58522236 4987672
0.081658192 -0.033190105 0.5841276 5118228
0.082557417 -0.033128135 0.58303702 5118229
0.083458275 -0.033068374 0.58198524 5118228
0.084358424 -0.033009816 0.58095467 5118229
0.085255392 -0.03295147 0.5799278 4726818
0.086149201 -0.03289333 0.57890457 3878204
0.087039851 -0.032835394 0.57788491 4987673
0.087928072 -0.03277792 0.57687342 4661283
0.088814579 -0.032721158 0.57587445 3747649
0.089698009 -0.032664593 0.57487893 5388084
0.090565994 -0.032603759 0.57380825 6640198
0.091429546 -0.03254272 0.572734 7563877
0.092295885 -0.032484028 0.57170105 7893871
0.093159117 -0.032425549 0.57067186 7893872
0.094019242 -0.032367278 0.56964636 7762027
0.09487693 -0.032309443 0.56862843 7431774
0.095752351 -0.032258812 0.5677374 7102036
0.096625023 -0.032208342 0.56684911 6970449
0.097493798 -0.032157641 0.56595683 6970193
0.09834104 -0.032100961 0.56495929 7234137
0.099185288 -0.032044478 0.5639652 7299930
0.10002658 -0.031988196 0.56297469 7299930
0.100926 -0.03195145 0.56232798 7168344
0.1018565 -0.031925172 0.56186551 7299930
0.10278547 -0.031898938 0.56140381 7432032
0.10371292 -0.031872749 0.56094289 7299931
0.10463883 -0.031846602 0.56048268 6970193
0.10556202 -0.03182013 0.56001681 6707019
0.10648234 -0.031793308 0.55954474 6774872
0.10740113 -0.03176653 0.55907351 7302247
0.10831837 -0.031739801 0.55860311 7564647
0.1093155 -0.031736758 0.55854952 6576721
0.11033954 -0.031741515 0.55863321 6381663
0.1113639 -0.031746272 0.55871695 6316127
0.11238855 -0.031751025 0.55880064 6447714
0.11341353 -0.031755786 0.55888444 6316128
0.11443879 -0.031760547 0.55896819 5329233
0.11546692 -0.031766009 0.55906433 4079166
0.11649764 -0.031772081 0.5591712 3684408
0.11752874 -0.031778157 0.55927813 2894892
0.1186113 -0.031797923 0.55962598 1907997
0.11976045 -0.031835057 0.56027955 1842204
0.12091224 -0.031872265 0.56093436 4539717
0.12203054 -0.0319001 0.56142426 4934475
0.12315082 -0.031927992 0.5619151 3947580
0.12434313 -0.031973947 0.56272393 5395026
0.12556733 -0.032027297 0.56366283 5197647
0.12679562 -0.032080818 0.56460482 4539717
0.12802802 -0.032134522 0.56554997 4408131
0.12927869 -0.032191928 0.56656027 4276545
0.13070379 -0.032291524 0.56831312 5263439
0.13219079 -0.032404747 0.57030576 6510929
0.13368841 -0.0325188 0.57231307 6968903
0.070976339 -0.033050053 0.6007337 6574403
0.071721025 -0.032894604 0.5979082 6574403
0.072663799 -0.032833274 0.59679341 6574403
0.073603071 -0.032772172 0.5956828 6574403
0.074529596 -0.032707233 0.59450245 6574403
0.075424418 -0.032630421 0.59310627 6574403
0.076315045 -0.032553971 0.59171665 6574403
0.077201508 -0.032477874 0.59033352 6375484
0.078114405 -0.032414824 0.58918744 5581346
0.079026662 -0.032353196 0.58806729 5184535
0.079936065 -0.032292053 0.5869559 4987930
0.08084286 -0.032231469 0.58585471 4530984
0.081746265 -0.032171112 0.58475763 4922652
0.082646295 -0.032110978 0.58366466 4987673
0.083545581 -0.032052077 0.58259404 5118229
0.08444652 -0.031995267 0.58156139 5118229
0.085344262 -0.03193865 0.58053231 5052951
0.086238839 -0.031882238 0.57950693 4400428
0.087131217 -0.031826373 0.57849151 3878204
0.088021584 -0.031771105 0.57748693 5052950
0.088908866 -0.031716026 0.57648581 3878205
0.089793079 -0.031661142 0.57548821 4336180
0.090662934 -0.031602506 0.57442242 6112316
0.091526553 -0.03154305 0.57334167 7299675
0.092387982 -0.031484172 0.57227153 7893871
0.093251914 -0.031427439 0.57124031 7695977
0.094112717 -0.031370904 0.57021272 7102036
0.094976261 -0.031316496 0.56922376 6838091
0.095852435 -0.031267371 0.56833082 6640453
0.096722566 -0.031217337 0.56742138 6640196
0.097573355 -0.031162171 0.56641865 6640197
0.098421142 -0.0311072 0.5654195 6574660
0.099265948 -0.031052426 0.56442386 6640454
0.10010777 -0.030997839 0.56343168 6640453
0.10099694 -0.030958863 0.56272322 6640453
0.10192803 -0.030933384 0.56226009 6640454
0.1028576 -0.030907949 0.5617978 6640196
0.10378429 -0.030882156 0.56132895 6574660
0.10470828 -0.030856062 0.56085467 6574403
0.10563071 -0.030830016 0.56038123 6574661
0.1065516 -0.030804014 0.55990863 6640969
0.10747091 -0.030778052 0.55943674 6906458
0.10838868 -0.030752137 0.55896568 7433832
0.10930492 -0.030726267 0.55849546 7300188
0.1103176 -0.030727733 0.55852211 6576979
0.11134174 -0.030732337 0.55860579 6381920
0.1123662 -0.030736942 0.55868948 6316128
0.11339096 -0.030741548 0.55877322 6250335
0.11441618 -0.030746199 0.55885774 5460819
0.11544631 -0.030752076 0.55896455 5658198
0.11647683 -0.030757951 0.55907136 4802889
0.11750775 -0.030763831 0.55917823 2960685
0.1185675 -0.030777095 0.55941933 1842204
0.11971618 -0.030813025 0.56007242 1776411
0.12083834 -0.030841585 0.56059152 3552822
0.1219559 -0.030868506 0.56108087 5592405
0.12307542 -0.030895475 0.56157106 5000268
0.1242488 -0.030935416 0.56229705 5066061
0.12547192 -0.030986991 0.56323451 5592405
0.1266991 -0.031038737 0.56417507 5131854
0.12793042 -0.031090658 0.56511879 4210752
0.12916584 -0.031142751 0.56606567 3421236
0.13050918 -0.031219842 0.56746691 4934218
0.13199341 -0.031329174 0.56945419 6052440
0.13348809 -0.031439282 0.57145554 6903367
0.13499331 -0.031550162 0.57347095 6246470
0.071083628 -0.032014761 0.60164171 6574403
0.071857654 -0.031876706 0.59904724 6574403
0.07280197 -0.031817157 0.59792823 6574403
0.073738627 -0.031756051 0.59677988 6574403
0.074638739 -0.031681191 0.59537303 6574403
0.075534604 -0.031606678 0.59397274 6574403
0.076426268 -0.031532519 0.59257907 6574403
0.077313766 -0.031458706 0.59119195 6574403
0.078198723 -0.031385884 0.58982342 5912365
0.079111807 -0.031326149 0.58870089 5250584
0.080022685 -0.03126714 0.58759195 5118485
0.0809303 -0.031208416 0.58648837 4008761
0.081834525 -0.031149914 0.58538896 4400171
0.082735352 -0.031091629 0.5842936 4530726
0.083633073 -0.031033656 0.58320415 4661282
0.084534794 -0.030978588 0.58216929 5118486
0.085433327 -0.030923719 0.58113813 5118229
0.086329885 -0.030869473 0.58011872 4792096
0.087224141 -0.030815715 0.57910848 3617092
0.088115297 -0.030762145 0.57810175 4465449
0.089003362 -0.030708762 0.57709855 4726560
0.089888349 -0.030655563 0.5760988 3421258
0.090760082 -0.030599114 0.57503796 5255472
0.091624439 -0.030541481 0.57395488 6705478
0.092485547 -0.030484064 0.57287586 7629927
0.093344882 -0.030427337 0.57180983 7497825
0.094206385 -0.030372549 0.57078022 6706504
0.095075801 -0.030321473 0.56982034 6640197
0.09594734 -0.030272156 0.56889355 6574660
0.096801706 -0.030218523 0.56788564 6574403
0.097653054 -0.030165078 0.5668813 6574403
0.098501384 -0.030111823 0.56588048 6574403
0.099346742 -0.030058756 0.56488323 6574403
0.10018911 -0.030005876 0.56388944 6574403
0.10106799 -0.029964881 0.56311905 6574403
0.10199821 -0.029939774 0.56264722 6574403
0.10292588 -0.02991442 0.56217074 6574403
0.10385199 -0.029889109 0.5616951 6574403
0.10477652 -0.02986384 0.56122023 6574403
0.1056995 -0.029838616 0.56074619 6574404
0.10662092 -0.029813433 0.56027293 6574661
0.10754078 -0.029788291 0.55980045 6706762
0.10845909 -0.029763192 0.55932879 6972508
0.10937586 -0.029738136 0.55885792 7499625
0.11029567 -0.029714357 0.55841106 7300444
0.11131962 -0.029718811 0.55849475 6577238
0.11234385 -0.029723261 0.55857837 6447456
0.1133684 -0.029727714 0.55866206 6447457
0.11439577 -0.02973282 0.55875802 6250334
0.11542571 -0.029738501 0.55886477 6118749
0.11645605 -0.029744184 0.55897158 5395026
0.11748678 -0.029749872 0.55907845 3684408
0.11852374 -0.029757023 0.55921286 2236962
0.11964968 -0.029786207 0.55976129 2039583
0.12076454 -0.029812166 0.56024915 2960685
0.12188136 -0.029838175 0.56073791 4671303
0.12300012 -0.029864227 0.5612275 5329233
0.1241546 -0.029898455 0.56187075 4539717
0.12537663 -0.029948264 0.56280679 5197647
0.12660274 -0.029998241 0.56374598 4408131
0.12783295 -0.030048383 0.56468827 3815994
0.12905626 -0.030096123 0.56558543 2894892
0.13027084 -0.030141095 0.56643057 4144959
0.13174583 -0.030245151 0.56838608 5591890
0.13328837 -0.030362986 0.57060051 6510414
0.13479063 -0.030469911 0.5726099 6968903
0.071191229 -0.030976336 0.60255247 6575435
0.071994804 -0.030854914 0.60019058 6574403
0.07294067 -0.03079717 0.59906733 6574660
0.073847026 -0.030724674 0.59765714 6640453
0.074748196 -0.030652136 0.59624612 6574660
0.075645119 -0.030579941 0.59484178 6574403
0.076537833 -0.030508086 0.59344405 6574403
0.077426352 -0.030436564 0.59205282 6574403
0.078310721 -0.030365381 0.59066814 6375740
0.079197332 -0.030296966 0.58933735 5515297
0.080109507 -0.030240012 0.58822948 5184535
0.081017941 -0.030183153 0.58712345 4922652
0.081922971 -0.030126512 0.58602166 3747648
0.082824603 -0.030070079 0.58492392 4530984
0.083722875 -0.030013859 0.58383036 3747649
0.084623262 -0.029959789 0.58277857 4857117
0.085524023 -0.029907174 0.5817551 5052950
0.08642222 -0.029854948 0.5807392 5052950
0.08731728 -0.029802904 0.57972682 3812926
0.088209212 -0.029751036 0.57871789 3617349
0.089098059 -0.029699352 0.57771254 4726560
0.089983821 -0.02964785 0.5767107 3747392
0.090857431 -0.029593565 0.57565475 4400943
0.091722533 -0.029537765 0.57456934 5979702
0.092584379 -0.029482178 0.57348806 6904142
0.093442984 -0.029426796 0.57241076 7102036
0.094300233 -0.029372204 0.57134885 6640453
0.095168084 -0.029322058 0.57037342 6574403
0.096026056 -0.029269973 0.56936026 6574403
0.09688098 -0.029218072 0.56835067 6574403
0.097732626 -0.029166281 0.56734324 6574403
0.098581202 -0.029114656 0.56633902 6574403
0.099426776 -0.029063212 0.56533831 6574403
0.10026936 -0.029011948 0.56434113 6574403
0.10112029 -0.028964104 0.56341046 6574403
0.10205391 -0.028940663 0.56295449 6574403
0.10298721 -0.028917592 0.56250572 6574403
0.10391903 -0.028894559 0.56205767 6574403
0.10484486 -0.028870324 0.56158626 6574403
0.10576838 -0.028845921 0.56111157 6574403
0.10669034 -0.02882156 0.56063771 6574404
0.10761074 -0.028797239 0.56016463 6574661
0.10852958 -0.028772959 0.55969232 6707276
0.10944689 -0.028748721 0.55922085 7104095
0.11036264 -0.028724523 0.55875015 7565419
0.11129748 -0.028705684 0.5583837 7036242
0.11232152 -0.028709983 0.55846733 6577496
0.113346 -0.02871432 0.55855167 6447199
0.11437536 -0.028719805 0.55865836 6447714
0.11540511 -0.028725289 0.55876505 6316128
0.11643527 -0.02873078 0.55887187 5789784
0.11747286 -0.028737998 0.55901223 4408131
0.1185152 -0.02874624 0.55917257 2960685
0.11957671 -0.028758956 0.55941993 2829099
0.12069083 -0.028784005 0.5599072 2500134
0.1218069 -0.028809102 0.56039536 3421236
0.12292492 -0.028834241 0.56088436 5658198
0.12406057 -0.028863071 0.56144518 5066061
0.12528151 -0.028911117 0.56237978 4737096
0.12650652 -0.028959323 0.56331748 3355443
0.12773548 -0.029007658 0.56425768 3815994
0.12894522 -0.0290509 0.56509882 2697513
0.13015859 -0.029094273 0.56594253 3223857
0.1313756 -0.029137779 0.56678879 5066061
0.13298392 -0.029266732 0.56929719 5788752
0.13458855 -0.029392902 0.57175148 6903367
0.13609843 -0.029496619 0.57376897 5392706
0.071299165 -0.029934764 0.60346603 6575692
0.072132483 -0.029829223 0.60133839 6640454
0.073049217 -0.029760791 0.59995884 6970449
0.073955737 -0.02969026 0.59853697 6970192
0.074857973 -0.029620063 0.59712183 6706504
0.075755171 -0.029549889 0.59570718 6640453
0.076647535 -0.029479822 0.59429467 6574403
0.077535689 -0.029410088 0.59288889 6574403
0.078414075 -0.029338598 0.59144771 6574403
0.079280145 -0.029264484 0.5899536 5978415
0.080193296 -0.029209478 0.58884472 5250585
0.081103012 -0.029154677 0.58773994 5118485
0.082009323 -0.029100081 0.58663934 4204594
0.082912244 -0.02904569 0.58554286 4204337
0.08381179 -0.0289915 0.58445042 4596262
0.084712319 -0.02893899 0.58339185 4335150
0.085615762 -0.028888753 0.5823791 4857374
0.086514749 -0.028838251 0.581361 5052951
0.087410599 -0.028787922 0.58034641 4661540
0.088303335 -0.02873777 0.57933539 3421258
0.089192957 -0.028687794 0.57832789 4530984
0.090079494 -0.028637988 0.57732385 3747648
0.090954997 -0.028585857 0.5762729 4074037
0.091820844 -0.0285319 0.57518518 5252642
0.092683427 -0.028478147 0.57410157 6375484
0.093543522 -0.028424827 0.57302666 6574146
0.094402261 -0.028372264 0.57196701 6574403
0.095244855 -0.028316038 0.5708335 6574403
0.096103065 -0.028265608 0.56981689 6574403
0.096958227 -0.028215356 0.56880385 6574403
0.09781035 -0.028165285 0.56779444 6574403
0.098659456 -0.028115388 0.56678855 6574403
0.099505566 -0.028065672 0.5657863 6574403
0.1003549 -0.028017865 0.56482255 6574403
0.1012096 -0.027972504 0.5639081 6574403
0.10209163 -0.02793552 0.56316251 6574403
0.10302524 -0.027913241 0.56271338 6574403
0.10395736 -0.027890997 0.56226498 6574403
0.10488799 -0.027868791 0.56181729 6574403
0.10581715 -0.027846618 0.56137031 6574403
0.10674483 -0.027824482 0.56092405 6574403
0.10767104 -0.02780238 0.56047851 6574404
0.10859577 -0.027780315 0.56003368 6574660
0.10951801 -0.027758021 0.55958426 6772813
0.11043431 -0.027734643 0.55911297 7170145
0.11134905 -0.027711302 0.55864245 7631212
0.11229918 -0.027697109 0.55835629 6970707
0.11332579 -0.027701858 0.55845207 6446425
0.11435787 -0.027707852 0.55857289 6381406
0.11540042 -0.027716259 0.55874234 6250335
0.1164436 -0.027724667 0.55891186 5789784
0.11748743 -0.027733084 0.55908155 4868682
0.11852614 -0.02774016 0.55922419 3618615
0.11956495 -0.027747141 0.55936491 2631720
0.12061721 -0.027757099 0.55956566 1776411
0.12173254 -0.027781283 0.56005323 3158064
0.12284981 -0.027805511 0.56054163 4671303
0.12396902 -0.027829779 0.56103086 5131854
0.12518653 -0.027875543 0.56195343 4934475
0.12641045 -0.027921986 0.5628897 2565927
0.12762582 -0.027965819 0.56377333 3947580
0.12883438 -0.028007476 0.5646131 3684408
0.13004655 -0.028049257 0.56545538 2763306
0.13126232 -0.028091159 0.56630009 4473924
0.13248678 -0.028134258 0.56716895 4408130
0.13422596 -0.028285166 0.57021117 6247757
0.13589399 -0.028418893 0.57290703 6969161
0.072244771 -0.028789271 0.60227448 6904141
0.073155373 -0.028720258 0.60083073 7563876
0.074061625 -0.028651576 0.5993939 7630184
0.07496354 -0.028583219 0.59796387 7432032
0.075861163 -0.02851519 0.59654069 7036243
0.076754533 -0.028447485 0.5951243 6640453
0.07764186 -0.028379438 0.59370077 6574660
0.078503847 -0.028304107 0.59212482 6574403
0.079363137 -0.028229842 0.59057117 6442047
0.080277078 -0.028176721 0.5894599 5647396
0.081187584 -0.028123803 0.58835286 5184535
0.082094677 -0.028071083 0.58724993 4987672
0.08299838 -0.028018562 0.58615118 4139059
0.083898157 -0.027966052 0.58505267 4465449
0.08479663 -0.02791442 0.58397251 4726561
0.085701078 -0.027865995 0.58295947 4400171
0.086602405 -0.027817741 0.58195001 4726560
0.087500609 -0.027769653 0.580944 4726562
0.088395707 -0.027721731 0.57994145 3812927
0.089287728 -0.027673973 0.57894236 4400428
0.090175375 -0.027625982 0.57793838 3878204
0.091052778 -0.027575985 0.57689244 3617349
0.091921456 -0.027524505 0.57581544 5052951
0.092787825 -0.027473489 0.57474822 5846059
0.093650974 -0.027422661 0.57368487 6508096
0.094505243 -0.027370371 0.57259095 6574147
0.095343411 -0.027314598 0.57142419 6574403
0.096179828 -0.027259523 0.57027203 6574403
0.097035535 -0.027211023 0.56925738 6574403
0.097888201 -0.027162695 0.56824636 6574403
0.098737836 -0.027114537 0.56723887 6574403
0.09958566 -0.027066872 0.56624174 6574403
0.10044377 -0.027022941 0.5653227 6574403
0.10129908 -0.026979152 0.56440663 6574403
0.10215164 -0.026935507 0.56349355 6574403
0.10306329 -0.026908148 0.56292123 6574403
0.10399572 -0.026886698 0.56247246 6574403
0.10492668 -0.026865283 0.56202447 6574403
0.10585614 -0.0268439 0.56157714 6574403
0.10678414 -0.026822554 0.56113058 6574403
0.10771064 -0.02680124 0.56068468 6574403
0.10863569 -0.026779959 0.56023949 6574660
0.10955926 -0.026758714 0.55979502 6640197
0.11048137 -0.026737502 0.55935127 6971479
0.11140203 -0.026716324 0.55890822 7367783
0.1123142 -0.02669351 0.55843097 7433318
0.11332998 -0.026695505 0.55847269 6445394
0.11437203 -0.026703602 0.55864209 6315612
0.11541472 -0.026711702 0.55881155 6316127
0.11645803 -0.026719809 0.55898112 6052956
0.11749869 -0.02672717 0.55913514 5921370
0.11853708 -0.026733894 0.55927581 4605510
0.119576 -0.026740624 0.55941659 2697513
0.12061544 -0.026747357 0.55955744 2565927
0.12165827 -0.026754722 0.55971152 2565927
0.12277478 -0.026778039 0.56019932 3421236
0.12389325 -0.026801396 0.56068796 4408131
0.12509169 -0.026841536 0.56152767 4144959
0.12631261 -0.026885817 0.56245404 5066061
0.12751639 -0.026925771 0.56328988 4605510
0.12872373 -0.026965842 0.56412816 5066061
0.1299347 -0.027006034 0.564969 3355443
0.13114925 -0.027046343 0.56581229 3552822
0.13236746 -0.027086776 0.56665814 4737096
0.13372339 -0.027154557 0.56807613 4276028
0.13547203 -0.027300445 0.57112813 6707276
0.072346978 -0.027742075 0.60312653 6839380
0.073258616 -0.027675478 0.60167867 7761770
0.074165896 -0.027609201 0.60023779 7828078
0.075068831 -0.027543239 0.59880376 7828078
0.075967468 -0.027477594 0.59737659 7695977
0.076861829 -0.02741226 0.59595621 7102293
0.077731088 -0.0273399 0.59438306 6838091
0.078593813 -0.027267242 0.59280342 6838091
0.079451978 -0.027194971 0.59123224 6838348
0.080361038 -0.027141808 0.59007645 6308666
0.081272341 -0.02709078 0.58896708 5316891
0.082180217 -0.027039943 0.58786184 5118486
0.083084702 -0.0269893 0.58676082 4857117
0.083984204 -0.026938329 0.58565271 4008760
0.084881112 -0.026887806 0.58455431 4792096
0.085786313 -0.026841117 0.58353925 4857117
0.086688384 -0.02679459 0.58252776 4335150
0.087587327 -0.026748227 0.58151978 4465706
0.08848317 -0.026702022 0.58051527 4269615
0.089375921 -0.026655976 0.57951421 3943482
0.090267323 -0.0266106 0.57852769 4269872
0.091157168 -0.026565803 0.57755381 3486793
0.092027567 -0.026516419 0.57648015 4792096
0.092894733 -0.026467213 0.57541043 5250584
0.093758687 -0.026418194 0.57434469 6177334
0.094608456 -0.026366292 0.57321632 6508353
0.095447324 -0.026312506 0.572047 6574403
0.096282765 -0.026258936 0.57088238 6574403
0.097114824 -0.026205588 0.56972253 6574403
0.097966164 -0.026158506 0.56869894 6574403
0.09881635 -0.026112093 0.5676899 6574403
0.099674061 -0.026068602 0.56674439 6574403
0.10053279 -0.026026255 0.56582373 6574403
0.10138872 -0.025984043 0.56490606 6574403
0.10224188 -0.02594197 0.56399137 6574403
0.10310136 -0.025902312 0.56312919 6574403
0.10403411 -0.025881657 0.56268013 6574403
0.10496537 -0.025861034 0.56223178 6574403
0.10589515 -0.025840444 0.56178415 6574403
0.10682346 -0.025819888 0.56133723 6574403
0.10775028 -0.025799364 0.56089103 6574403
0.10867563 -0.025778869 0.56044549 6574404
0.10959648 -0.025757698 0.55998522 6640197
0.11051074 -0.025735376 0.55949992 6904913
0.1114234 -0.025713092 0.55901545 7367782
0.11233449 -0.025690846 0.55853182 7433061
0.11334401 -0.025691308 0.55854183 6444880
0.11438619 -0.0256991 0.55871123 6315612
0.11542901 -0.025706897 0.55888075 6315871
0.11647157 -0.025714502 0.55904609 6316128
0.11750954 -0.025720973 0.55918676 6316128
0.11854803 -0.025727445 0.55932748 5460819
0.11958704 -0.025733922 0.55946827 3684408
0.12062658 -0.0257404 0.55960912 3092271
0.12166665 -0.025746884 0.55975008 1907997
0.12270722 -0.025753368 0.55989105 2500134
0.12381757 -0.02577427 0.56034547 2368548
0.12499698 -0.025809094 0.56110257 5395026
0.12620455 -0.025849124 0.56197286 6118749
0.12740713 -0.025887504 0.56280726 5921370
0.12861328 -0.025925998 0.56364411 5592405
0.12982303 -0.025964605 0.56448346 3355443
0.13103639 -0.026003329 0.56532532 2894892
0.13225335 -0.026042167 0.56616968 4802889
0.13347398 -0.026081122 0.5670166 5000268
0.13496397 -0.02617172 0.56898624 5262406
0.13719989 -0.026404507 0.57404715 5852742
0.073362149 -0.026627744 0.60252899 7827821
0.074270457 -0.026563887 0.60108405 7828078
0.075174414 -0.026500333 0.59964597 7762028
0.076074056 -0.026437085 0.59821481 7827821
0.076952413 -0.026368311 0.59665859 7761771
0.07782051 -0.026297966 0.59506685 7563875
0.078683995 -0.026227998 0.59348363 7432031
0.079542898 -0.026158402 0.59190881 7432032
0.080445178 -0.026104726 0.59069425 7497569
0.08135727 -0.026055597 0.58958256 5845805
0.082265943 -0.026006652 0.58847505 5250328
0.08317019 -0.025957577 0.58736455 5052950
0.084070422 -0.025908494 0.58625394 4726560
0.084967256 -0.0258596 0.58514756 4139316
0.085871719 -0.025814198 0.58412021 4791838
0.086774535 -0.025769407 0.5831067 4726561
0.087674223 -0.025724772 0.5820967 3486537
0.088570796 -0.025680291 0.58109015 4857374
0.089467458 -0.025636874 0.58010775 4726561
0.090363041 -0.025594156 0.57914114 4530727
0.09125565 -0.025551582 0.57817775 3943226
0.092133917 -0.025506001 0.57714635 4726561
0.093001887 -0.025458617 0.57607418 5052950
0.093866631 -0.025411408 0.57500595 5647396
0.0947119 -0.025360016 0.57384306 6441790
0.095551468 -0.025308227 0.57267118 6574146
0.096387617 -0.025256649 0.57150406 6574403
0.097220361 -0.025205279 0.57034165 6574403
0.098049723 -0.025154117 0.56918401 6574403
0.09890049 -0.025109451 0.56817329 6574403
0.099762633 -0.025068559 0.56724799 6574403
0.10062197 -0.025027798 0.56632566 6574403
0.10147852 -0.024987172 0.56540638 6574403
0.10233229 -0.024946678 0.56449008 6574403
0.10318329 -0.024906313 0.5635767 6574403
0.10407253 -0.024875872 0.56288791 6574403
0.10500411 -0.024856046 0.56243926 6574403
0.1059342 -0.024836248 0.56199127 6574403
0.10686282 -0.024816483 0.56154406 6574403
0.10778278 -0.0247951 0.56106019 6574403
0.10870036 -0.024773572 0.56057304 6574404
0.10961635 -0.024752079 0.56008673 6640197
0.11053075 -0.024730625 0.55960125 6838605
0.11144356 -0.024709206 0.5591166 7367525
0.11235479 -0.024687825 0.55863279 7367268
0.11335804 -0.024686862 0.55861098 6444621
0.11440036 -0.02469435 0.55878043 6249562
0.11544331 -0.024701843 0.55895001 6315871
0.11648232 -0.024708372 0.55909771 6381921
0.11752038 -0.024714587 0.55923837 6250335
0.11855897 -0.024720807 0.5593791 5460819
0.11959809 -0.024727032 0.55951995 3947580
0.12063773 -0.024733258 0.55966085 2894892
0.12167788 -0.024739485 0.55980176 1381653
0.12271857 -0.02474572 0.55994284 1907997
0.12375978 -0.024751956 0.56008393 2105376
0.12489884 -0.024777502 0.56066197 3947580
0.12609667 -0.024814202 0.56149244 5526612
0.12729806 -0.024851015 0.56232542 5921370
0.12850316 -0.024887964 0.56316149 5987163
0.12971261 -0.024925167 0.56400335 4605510
0.13092567 -0.024962483 0.56484771 2697513
0.13214236 -0.024999909 0.56569457 2500134
0.13336273 -0.025037447 0.566544 4868682
0.13468219 -0.025092879 0.56779832 5328716
0.13711894 -0.025354067 0.57370842 6246985
0.073465981 -0.025577044 0.60338175 7565164
0.074375317 -0.02551562 0.6019327 7695977
0.075280301 -0.025454491 0.60049063 7300188
0.076167755 -0.025389252 0.59895158 7498082
0.077041283 -0.02532126 0.59734762 7828078
0.077910155 -0.025253635 0.5957523 7893872
0.078774385 -0.025186367 0.59416538 7827821
0.079634026 -0.025119457 0.59258693 7828078
0.080529489 -0.025065469 0.5913133 7894128
0.081442378 -0.025018247 0.59019929 6968656
0.082351409 -0.024971072 0.58908641 5383198
0.083255827 -0.024923718 0.5879693 5184278
0.084156819 -0.024876544 0.58685642 4987673
0.085054412 -0.02482955 0.58574778 4596261
0.085957296 -0.024785232 0.58470231 4857116
0.086860858 -0.024742184 0.58368677 4987929
0.08776129 -0.024699284 0.58267474 4204336
0.088663206 -0.024657816 0.58169645 4008761
0.08956258 -0.024616616 0.58072454 4922394
0.090458967 -0.024575556 0.5797559 5052951
0.091352358 -0.024534633 0.57879049 4922394
0.09224052 -0.024493245 0.5778141 4922395
0.093109295 -0.024447693 0.57673949 5052950
0.093971841 -0.024401529 0.57565045 5184278
0.094815567 -0.024351539 0.57447118 6110771
0.095655844 -0.024301756 0.57329673 6508097
0.096492685 -0.024252173 0.57212704 6574403
0.097326227 -0.024202818 0.57096273 6574403
0.098159663 -0.024154471 0.56982219 6574403
0.099012785 -0.024111921 0.56881839 6574403
0.099871054 -0.024071485 0.56786448 6574403
0.10072645 -0.024031183 0.56691372 6574403
0.10157899 -0.023991019 0.56596619 6574403
0.10242867 -0.023950983 0.56502175 6574403
0.10327554 -0.023911085 0.56408054 6574403
0.10412333 -0.023872178 0.56316268 6574403
0.10503957 -0.023849564 0.56262916 6574403
0.1059621 -0.023828797 0.56213927 6574403
0.10688302 -0.023808066 0.56165022 6574403
0.10780235 -0.023787374 0.56116205 6574403
0.10872008 -0.023766715 0.56067473 6574403
0.10963622 -0.023746094 0.56018823 6640197
0.11055076 -0.023725506 0.55970258 6706761
0.11146373 -0.023704955 0.55921775 7301217
0.1123751 -0.023684438 0.55873376 7367011
0.11337207 -0.023682164 0.55868012 6509642
0.11441452 -0.02368935 0.55884963 6249562
0.11545543 -0.023696091 0.55900866 6381664
0.11649308 -0.023702053 0.55914932 6381921
0.11753123 -0.023708018 0.55928999 6118749
0.11856993 -0.023713985 0.55943078 4144959
0.11960914 -0.023719955 0.55957162 2894892
0.12064887 -0.023725929 0.55971253 1973790
0.12168913 -0.023731904 0.55985349 986895
0.12272943 -0.02373779 0.55999237 1447446
0.12376407 -0.023742495 0.56010336 2894892
0.12481819 -0.02375083 0.56029999 1842204
0.12599501 -0.02378219 0.56103981 4408131
0.12719615 -0.023817606 0.56187528 4342338
0.12840088 -0.023853129 0.56271327 5658198
0.12960921 -0.023888757 0.56355381 5789784
0.13082115 -0.023924492 0.5643968 5263440
0.13203673 -0.023960335 0.56524235 3092271
0.13325751 -0.023996564 0.56609702 3355443
0.13448992 -0.024034321 0.56698775 5855576
0.13685699 -0.024272749 0.57261246 6050378
0.13939624 -0.024537915 0.57886791 6115657
0.074480481 -0.024464391 0.6027838 7761770
0.07537704 -0.024402639 0.60126227 6904141
0.076256059 -0.02433704 0.59964597 6838091
0.077130362 -0.024271792 0.59803832 7300187
0.077999987 -0.024206894 0.59643924 7695976
0.078864984 -0.024142342 0.59484875 7893872
0.07972537 -0.024078133 0.59326667 7762028
0.080613978 -0.024024034 0.59193373 7827821
0.081527673 -0.023978727 0.59081739 7695720
0.08243645 -0.023933163 0.58969474 5977903
0.083341643 -0.023887731 0.58857536 5250328
0.084243394 -0.023842471 0.58746016 5118229
0.085141748 -0.023797384 0.58634925 5052950
0.086043037 -0.023754213 0.58528554 5118229
0.086948305 -0.023713175 0.58427441 5118229
0.087854549 -0.023673382 0.58329391 4922652
0.088757738 -0.023633717 0.58231664 3943482
0.089657918 -0.023594189 0.5813427 4530727
0.090555087 -0.023554793 0.58037198 5052950
0.091449268 -0.023515524 0.57940447 5118229
0.092340462 -0.023476388 0.57844019 5118229
0.093216948 -0.023434427 0.57740629 5118229
0.094075024 -0.023388818 0.5762825 5118228
0.094919465 -0.023340853 0.57510066 5515040
0.095760442 -0.02329308 0.57392359 6375740
0.096601188 -0.023246275 0.57277036 6574146
0.097438708 -0.023199692 0.57162261 6574403
0.098273233 -0.02315338 0.57048148 6574403
0.09913525 -0.023114437 0.56952196 6574403
0.099994376 -0.023075625 0.56856567 6574403
0.10085062 -0.023036944 0.56761259 6574403
0.101704 -0.022998393 0.56666273 6574403
0.10255454 -0.02295997 0.56571603 6574403
0.10339498 -0.02292007 0.56473291 6574403
0.1042181 -0.022877146 0.56367528 6574403
0.10510573 -0.022849072 0.56298357 6574403
0.10599948 -0.022822857 0.56233764 6574403
0.10690245 -0.022799101 0.56175232 6574403
0.10782192 -0.022779278 0.56126392 6574403
0.1087398 -0.022759493 0.56077641 6574403
0.10965608 -0.02273974 0.56028974 6640196
0.11057077 -0.022720022 0.5598039 6640454
0.11148389 -0.022700338 0.5593189 7234909
0.11239542 -0.022680691 0.55883479 7630956
0.11338611 -0.022677222 0.55874932 6574919
0.1144287 -0.022684105 0.55891889 6380633
0.11546609 -0.022689842 0.55906028 6316127
0.11650383 -0.022695551 0.55920094 6316128
0.1175421 -0.022701263 0.55934167 5921370
0.11858088 -0.022706976 0.55948246 4013373
0.11962018 -0.022712693 0.5596233 2236962
0.12065502 -0.022717472 0.55974108 1250067
0.12168878 -0.022721972 0.55985194 592137
0.12272295 -0.022726472 0.55996281 657930
0.12373959 -0.022727679 0.55999255 2302755
0.12477164 -0.022731675 0.56009102 1710618
0.12593329 -0.022759028 0.56076497 2631720
0.12709773 -0.022786444 0.56144047 4013373
0.12829877 -0.022819942 0.56226581 4276545
0.12950599 -0.022854 0.56310499 5000268
0.13071682 -0.022888159 0.56394666 5921370
0.13193128 -0.022922421 0.56479084 4802889
0.13315678 -0.022958064 0.56566906 3421236
0.13438809 -0.022994159 0.56655842 5592405
0.13647924 -0.02317572 0.57103193 5788237
0.13906899 -0.023438593 0.57750893 6838091
0.074595794 -0.02341328 0.60371709 7104614
0.075464763 -0.023345215 0.60196203 6838348
0.076344572 -0.023282386 0.60034198 6640196
0.077219643 -0.023219893 0.59873056 6706248
0.078090042 -0.023157736 0.59712785 7036242
0.078955784 -0.02309591 0.59553361 7299930
0.079816923 -0.023034414 0.59394795 7300188
0.080698647 -0.022980409 0.5925554 7365981
0.081612244 -0.022936774 0.59143031 7299930
0.082521662 -0.022893107 0.59030432 6441536
0.08342763 -0.022849604 0.58918262 5448990
0.084330156 -0.022806268 0.58806515 5184278
0.08522927 -0.022763098 0.58695197 5118229
0.086131133 -0.02272171 0.58588481 5118229
0.0870414 -0.022683516 0.58489996 5118229
0.087948471 -0.022645414 0.5839175 5052950
0.088852465 -0.022607433 0.58293813 4987673
0.089753449 -0.02256958 0.58196211 4791838
0.090651408 -0.022531854 0.5809893 5052950
0.091546379 -0.022494253 0.58001977 5118229
0.092438363 -0.022456778 0.57905346 5118228
0.093324855 -0.022418819 0.57807469 5118228
0.094178438 -0.022373883 0.57691598 5118228
0.095026501 -0.02232863 0.57574916 5118228
0.095871538 -0.022283655 0.57458943 5912622
0.096713178 -0.022238858 0.57343435 6508096
0.09755145 -0.022194244 0.57228398 6574403
0.098395154 -0.022151789 0.57118922 6574403
0.099258028 -0.022114484 0.57022732 6574403
0.10011801 -0.022077303 0.56926864 6574403
0.10097511 -0.022040252 0.56831324 6574403
0.10182613 -0.022002632 0.56734318 6574403
0.102656 -0.021961233 0.56627572 6574403
0.10348275 -0.021919992 0.56521231 6574403
0.10430888 -0.021879423 0.56416625 6574403
0.10520542 -0.021854265 0.56351751 6574403
0.1060999 -0.021829166 0.56287032 6574403
0.10699233 -0.021804124 0.56222463 6574403
0.10788271 -0.021779139 0.56158036 6574403
0.10877105 -0.021754211 0.56093758 6574403
0.10967596 -0.021733025 0.56039131 6574660
0.1105908 -0.021714175 0.55990529 6640453
0.11150407 -0.021695362 0.55942017 7102808
0.11241574 -0.021676578 0.55893582 7565162
0.11340015 -0.021672029 0.55881852 6574918
0.11443941 -0.02167795 0.55897123 6445395
0.11547673 -0.021683404 0.55911183 6315612
0.11651459 -0.021688862 0.55925256 6381921
0.11754999 -0.021693775 0.55937928 6250335
0.11858247 -0.021698069 0.55948997 5263440
0.11961535 -0.021702364 0.55960071 3815994
0.12064865 -0.021706661 0.55971152 1645082
0.12168235 -0.021710958 0.55982232 657930
0.12271316 -0.021714674 0.55991817 460551
0.12370548 -0.021711573 0.55983818 657930
0.12472511 -0.021713279 0.55988216 986895
0.12588626 -0.021739395 0.56055558 3618615
0.12705021 -0.021765575 0.5612306 5460819
0.12821697 -0.021791818 0.56190729 3684408
0.12940294 -0.021820888 0.56265688 5066061
0.13061264 -0.021853477 0.56349719 6118749
0.1318298 -0.021886799 0.56435645 5723991
0.13305618 -0.021921134 0.56524175 3092271
0.13428642 -0.021955574 0.5661298 4605510
0.13610356 -0.022084726 0.56946003 5723217
0.13863041 -0.022326246 0.57568765 6641226
0.14051454 -0.022461431 0.57917345 5458499
0.075777628 -0.022351675 0.60445768 6971480
0.076615639 -0.022278307 0.60247356 6640196
0.077448167 -0.022205418 0.60050243 6574403
0.078275256 -0.022133004 0.59854412 6640454
0.07909698 -0.022061063 0.59659863 6640710
0.07991337 -0.021989586 0.59466565 6706247
0.080783181 -0.021934506 0.59317613 6706505
0.081697673 -0.02189284 0.59204936 6640453
0.08260899 -0.021851409 0.59092897 6574147
0.083516866 -0.021810137 0.58981282 5846572
0.084421314 -0.021769017 0.58870083 5250328
0.085322894 -0.02172819 0.58759671 5118229
0.086226329 -0.021688832 0.58653235 5118228
0.087132528 -0.021651113 0.58551234 5118228
0.088040531 -0.021614742 0.58452874 5118228
0.088945493 -0.021578491 0.58354843 5118229
0.089847423 -0.021542365 0.58257145 5118228
0.090746336 -0.021506358 0.58159769 5118229
0.091642253 -0.02147047 0.5806272 5118229
0.092535183 -0.021434702 0.57965994 5118229
0.093418568 -0.02139755 0.57865518 5118228
0.094285153 -0.021357412 0.57756972 5118228
0.095137239 -0.0213149 0.57642013 5250067
0.095983043 -0.021271918 0.57525772 5448472
0.096825436 -0.021229105 0.57409996 6309176
0.097664453 -0.021186467 0.57294691 6508354
0.098517366 -0.021147707 0.5718987 6574403
0.099381112 -0.021112049 0.57093441 6574403
0.10024196 -0.021076513 0.56997341 6574403
0.10107941 -0.021036832 0.56890029 6574403
0.10191298 -0.020997146 0.56782705 6574403
0.10274339 -0.020957606 0.5667578 6574403
0.10357068 -0.020918217 0.56569254 6574403
0.10440801 -0.020881603 0.56470239 6574403
0.10530528 -0.020857569 0.56405246 6574403
0.1062005 -0.020833591 0.56340402 6574403
0.10709365 -0.020809667 0.56275707 6574403
0.10798477 -0.020785799 0.56211162 6574403
0.10887384 -0.020761987 0.56146765 6574403
0.10976087 -0.020738229 0.56082517 6574403
0.11064588 -0.020714525 0.56018412 6640197
0.11152887 -0.020690875 0.55954456 6970706
0.11243607 -0.020672103 0.55903691 7565161
0.11341308 -0.020666383 0.55888224 6640453
0.11444899 -0.020671403 0.55901796 6575949
0.11548018 -0.020675492 0.55912852 6380891
0.11651179 -0.020679582 0.55923915 6381664
0.11754379 -0.020683672 0.55934978 6381921
0.11857621 -0.020687765 0.55946046 6052956
0.11960905 -0.02069186 0.55957121 4210752
0.12064227 -0.020695956 0.55968195 1447446
0.12167592 -0.020700052 0.55979276 1250067
0.12267936 -0.020698987 0.55976391 1250067
0.12367141 -0.020696031 0.55968398 328965
0.12467863 -0.020695643 0.55967349 1579032
0.12583929 -0.020720527 0.56034642 5395026
0.12700275 -0.020745467 0.56102091 6184542
0.128169 -0.020770472 0.56169707 4868682
0.12933809 -0.020795535 0.56237489 6250335
0.13051024 -0.0208207 0.5630554 5921370
0.13173044 -0.020853082 0.56393111 6184542
0.13295574 -0.020885767 0.56481504 4342338
0.1341849 -0.020918557 0.56570178 3355443
0.13572994 -0.020999726 0.56789684 5526355
0.13815638 -0.021215025 0.5737192 6051150
0.14003117 -0.021343043 0.57718116 6969418
0.076962374 -0.021287464 0.60520011 6574403
0.07779751 -0.021217503 0.6032111 6574403
0.078627177 -0.021148 0.60123515 6574403
0.079451427 -0.02107895 0.59927207 6574403
0.080262288 -0.021008249 0.59726208 6574660
0.080872208 -0.020887524 0.59382987 6574403
0.081787825 -0.020847877 0.59270269 6574403
0.082699977 -0.020808382 0.59157985 6574403
0.083608672 -0.020769034 0.59046119 6375484
0.084513947 -0.020729836 0.58934683 5515040
0.085420251 -0.020691862 0.58826721 5184278
0.08632455 -0.020654339 0.58720046 5118228
0.087225564 -0.020616952 0.58613753 5118228
0.08813265 -0.020581877 0.58514035 5118228
0.089038402 -0.020547323 0.584158 5118228
0.089941114 -0.020512886 0.58317894 5118228
0.090840809 -0.020478563 0.58220315 5118229
0.091737494 -0.020444356 0.58123064 5118229
0.09262611 -0.020409143 0.58022952 5184020
0.093496531 -0.020370752 0.5791381 5579537
0.094363697 -0.02033251 0.57805085 5381906
0.095227607 -0.020294409 0.57696766 5381650
0.096088283 -0.020256449 0.57588845 6172940
0.096937954 -0.020217007 0.57476711 5977380
0.097777702 -0.020176351 0.57361132 6442303
0.098639891 -0.02014113 0.57260996 6574403
0.099488154 -0.020103823 0.57154936 6574403
0.10032859 -0.020065719 0.57046604 6574403
0.10116586 -0.020027759 0.56938684 6574403
0.10199997 -0.019989943 0.56831175 6574403
0.10283092 -0.019952269 0.56724066 6574403
0.10365876 -0.019914737 0.56617361 6574403
0.10450733 -0.019881884 0.56523961 6574403
0.10540535 -0.019858979 0.56458843 6574403
0.1063013 -0.019836128 0.5639388 6574403
0.10719518 -0.019813329 0.5632906 6640196
0.10808703 -0.019790582 0.56264395 6574660
0.10897682 -0.019767888 0.56199872 6574403
0.10986457 -0.019745246 0.56135499 6574403
0.11075029 -0.019722655 0.56071275 6574660
0.11163398 -0.019700114 0.56007195 6640453
0.11248893 -0.019672951 0.55929971 7300958
0.11341222 -0.019658118 0.558878 6970190
0.11444295 -0.019662006 0.55898851 6640711
0.11547409 -0.019665893 0.55909902 6380117
0.11650565 -0.019669784 0.55920964 6249820
0.1175376 -0.019673675 0.55932027 6250335
0.11856995 -0.019677566 0.5594309 6052956
0.11960272 -0.019681461 0.55954164 4144959
0.1206359 -0.019685358 0.55965239 1842204
0.1216535 -0.019686665 0.55968958 1776411
0.12264555 -0.019683853 0.55960965 3092271
0.12363733 -0.019681044 0.55952978 921102
0.12463216 -0.019678764 0.55946493 921102
0.12579235 -0.019702416 0.56013739 5855577
0.12695532 -0.019726124 0.5608114 6118749
0.12812109 -0.019749891 0.56148708 4802889
0.12928966 -0.019773712 0.56216431 6052956
0.13046519 -0.019798221 0.56286108 5921370
0.13164732 -0.019823341 0.56357527 6118749
0.13285546 -0.019851966 0.56438905 6250335
0.13408352 -0.019883107 0.56527442 5395026
0.13535836 -0.019920666 0.56634218 4737096
0.1376856 -0.02011138 0.57176417 5986647
0.13955113 -0.020232322 0.57520252 6641484
0.14143926 -0.020354725 0.57868248 6246727
0.078150019 -0.020220634 0.60594434 6574403
0.078982271 -0.020154098 0.60395044 6574403
0.07980907 -0.020087998 0.60196966 6574403
0.080407962 -0.019967079 0.59834611 6574403
0.080971867 -0.019840788 0.59456164 6574403
0.081878185 -0.019800607 0.5933575 6574403
0.082791165 -0.019763051 0.59223211 6574403
0.083700694 -0.019725641 0.59111106 6574403
0.084609389 -0.019688977 0.59001237 5978672
0.085517839 -0.019653168 0.58893925 5250585
0.086422987 -0.019617489 0.58787006 5118485
0.08732485 -0.019581936 0.58680469 5118228
0.088224962 -0.019546848 0.5857532 5118228
0.089131504 -0.019513998 0.58476883 5118228
0.090035006 -0.019481258 0.58378774 5118228
0.090935484 -0.019448629 0.58280993 5184276
0.091829315 -0.019415339 0.58181238 5250067
0.092703618 -0.019378722 0.58071506 5711375
0.093574628 -0.019342242 0.57962185 6634248
0.094442368 -0.019305898 0.57853276 6304779
0.095306844 -0.01926969 0.57744771 5711120
0.096168093 -0.019233618 0.57636678 6700040
0.097026654 -0.019197788 0.57529306 5843730
0.097886257 -0.019162918 0.57424814 6309431
0.098729424 -0.019125596 0.57312971 6574146
0.099573627 -0.019089244 0.57204038 6574660
0.10041464 -0.019053034 0.57095528 6640196
0.10125246 -0.019016959 0.56987423 6640196
0.1020871 -0.018981019 0.56879723 6640710
0.10291861 -0.018945217 0.56772435 6640453
0.10374699 -0.018909549 0.56665552 6574403
0.10460685 -0.018880261 0.56577784 6574403
0.10550561 -0.018858491 0.56512547 6574404
0.10640229 -0.018836768 0.56447452 6640197
0.10729691 -0.018815098 0.56382513 6970192
0.10818948 -0.018793477 0.56317723 7036242
0.10907999 -0.018771905 0.56253082 6706504
0.10995823 -0.018748637 0.56183356 6574660
0.11081041 -0.018721392 0.5610171 6574403
0.11166009 -0.018694224 0.56020296 6640453
0.1125362 -0.018671924 0.55953473 6904399
0.11342292 -0.018651769 0.5589307 7366752
0.11443692 -0.018652713 0.55895901 6705988
0.115468 -0.018656401 0.55906951 6444622
0.11649948 -0.018660091 0.55918008 6117976
0.11753138 -0.018663783 0.55929071 6250077
0.1185637 -0.018667476 0.55940139 6052956
0.11959641 -0.01867117 0.55951208 5526612
0.12062792 -0.018674614 0.55961531 1776411
0.12161999 -0.018671948 0.55953544 1579032
0.12261178 -0.018669283 0.55945557 1513239
0.12360328 -0.018666618 0.5593757 2303011
0.12459451 -0.018663956 0.55929589 2500134
0.12574543 -0.018685065 0.55992848 4737096
0.12690791 -0.01870754 0.56060201 6250335
0.12807319 -0.01873007 0.56127715 5263440
0.12924154 -0.018752694 0.56195509 5723991
0.13042018 -0.018776447 0.56266689 6184542
0.13160184 -0.018800264 0.5633806 6052956
0.13278648 -0.018824138 0.56409603 6316128
0.1339823 -0.018849222 0.56484771 6052956
0.13521314 -0.018878814 0.56573451 4408131
0.13721801 -0.01901523 0.56982243 6316127
0.13907439 -0.019129191 0.57323742 5789265
0.14095312 -0.019244522 0.57669353 6969418
0.07850574 -0.019214692 0.60870242 6575435
0.079340592 -0.019151179 0.60669041 6574403
0.079982944 -0.019043557 0.60328108 6574403
0.080554172 -0.01892212 0.59943408 6574403
0.081118166 -0.018802224 0.59563589 6574403
0.08196874 -0.01875102 0.59401375 6574403
0.082882561 -0.018715417 0.59288591 6574403
0.083793707 -0.018680125 0.59176791 6574403
0.084706336 -0.018646048 0.59068841 6442304
0.085615642 -0.018612096 0.58961284 5647910
0.08652164 -0.018578267 0.58854115 5184535
0.08742436 -0.018544562 0.58747339 5118228
0.088323802 -0.018510977 0.58640945 5118228
0.0892248 -0.018478509 0.58538091 5184020
0.090129085 -0.018447474 0.58439773 5381906
0.091028169 -0.018416103 0.58340394 6238987
0.091906369 -0.018381273 0.5823006 5975053
0.092781261 -0.018346576 0.58120143 5579537
0.093652852 -0.018312009 0.58010638 6634248
0.094523758 -0.018278075 0.57903135 6040845
0.095393568 -0.018244673 0.57797319 5513745
0.096260205 -0.018211389 0.57691884 6634504
0.097123682 -0.01817823 0.57586837 6107150
0.097984038 -0.018145192 0.57482177 5978154
0.098826908 -0.018109644 0.5736956 6574403
0.099666238 -0.018074188 0.57257241 6640454
0.10050228 -0.018038871 0.57145363 7036242
0.10133919 -0.018004425 0.57036239 7365981
0.10217439 -0.017970372 0.5692836 7366238
0.10300644 -0.017936446 0.56820887 7102293
0.10383536 -0.017902648 0.5671382 6706505
0.10470655 -0.017876728 0.56631708 6772554
0.10560605 -0.017856095 0.56566346 6772298
0.10650347 -0.017835509 0.56501132 6970449
0.10739882 -0.017814972 0.56436068 7498083
0.10826427 -0.017789904 0.56356657 7828077
0.10912153 -0.01776397 0.56274503 7102035
0.1099763 -0.017738113 0.56192589 6640197
