# .PCD v0.7 - Point Cloud Data file format
VERSION 0.7
FIELDS x y z rgb
SIZE 4 4 4 4
TYPE F F F U
COUNT 1 1 1 1
WIDTH 1118
HEIGHT 1
VIEWPOINT 0 0 0 1 0 0 0
POINTS 1118
DATA ascii
-0.14069001 0.080234356 0.41377246 3158582
-0.13910455 0.079753272 0.41129148 4275258
-0.13773876 0.079393655 0.40943694 6114625
-0.13672617 0.079234846 0.40861794 6508867
-0.13571763 0.079076663 0.40780219 6574403
-0.1347131 0.07891912 0.40698972 6574403
-0.13371257 0.078762196 0.40618047 6574403
-0.13278246 0.078645252 0.40557739 6245954
-0.1319125 0.078562848 0.40515241 6180418
-0.13104437 0.078480609 0.40472832 6180419
-0.13017806 0.078398548 0.40430513 6115140
-0.12931356 0.078316666 0.40388283 5984070
-0.12845086 0.078234941 0.4034614 6050635
-0.12764055 0.078184381 0.40320063 5920336
-0.1268755 0.07816112 0.4030807 5657937
-0.12611091 0.078137882 0.40296084 5329229
-0.12539087 0.078142136 0.4029828 4934730
-0.12473449 0.078186341 0.40321076 6250335
-0.12408119 0.078233011 0.40345141 6579300
-0.12341741 0.078273572 0.40366063 6710886
-0.12275244 0.078313865 0.40386841 6710885
-0.12208677 0.078354195 0.4040764 6513507
-0.12142044 0.078394577 0.40428463 6316128
-0.1207534 0.078434989 0.40449303 6250591
-0.12008568 0.078475446 0.40470168 6513506
-0.11941727 0.078515947 0.40491053 6776679
-0.11874817 0.078556485 0.4051196 6776679
-0.11808216 0.07859958 0.40534183 6776679
-0.11743291 0.078654438 0.40562475 6710886
-0.11678274 0.078709371 0.40590805 6710886
-0.11613167 0.078764379 0.40619174 6710886
-0.11547969 0.078819469 0.40647581 6710886
-0.11482679 0.078874633 0.40676031 6710886
-0.11417299 0.078929879 0.40704522 6710886
-0.11351826 0.078985192 0.40733048 6645093
-0.11286262 0.079040602 0.4076162 6118749
-0.11220606 0.079096071 0.40790227 4868682
-0.11154857 0.079151623 0.40818876 5395026
-0.11089016 0.079207256 0.40847567 5000268
-0.11021827 0.079253942 0.40871641 3750201
-0.10958721 0.079330802 0.40911281 1842204
-0.10900078 0.079441249 0.40968236 1315860
-0.10843381 0.07956747 0.41033331 3815994
-0.10786504 0.0796941 0.41098633 4473924
-0.10729445 0.079821125 0.41164142 3552822
-0.10672203 0.079948567 0.41229862 4144959
-0.1061478 0.080076404 0.41295791 5197647
-0.10557172 0.080204666 0.41361934 3684407
-0.10499379 0.08033333 0.41428286 2960683
-0.104414 0.080462404 0.41494852 4276542
-0.10386524 0.08061742 0.41574794 5853255
-0.1033496 0.0808006 0.41669261 6706247
-0.10283163 0.080984622 0.41764161 7034440
-0.10230664 0.081165783 0.41857588 7166025
-0.10172307 0.081302829 0.41928264 7297610
-0.10113754 0.081440344 0.41999179 7297610
-0.10055003 0.081578322 0.42070335 7297610
-0.099960506 0.081716768 0.42141733 7297610
-0.099368989 0.081855677 0.42213371 7297610
-0.1005079 0.083433203 0.43026906 3559762
-0.1563846 0.085912555 0.43897176 5161
-0.15451893 0.085319616 0.43594211 5161
-0.15268005 0.084735483 0.43295747 5161
-0.15101953 0.084244825 0.43045047 5161
-0.14937812 0.083759829 0.42797235 136746
-0.1477555 0.083280377 0.4255226 662060
-0.14614452 0.082802512 0.42308092 1319215
-0.14454709 0.082327351 0.42065307 2370099
-0.14288956 0.081812754 0.41802377 3486775
-0.14104858 0.081187122 0.41482705 4537915
-0.13948138 0.080713227 0.4124057 5786176
-0.13793238 0.080244839 0.41001245 6245953
-0.13683629 0.080036327 0.40894705 6574403
-0.13582672 0.079876423 0.40813002 6574403
-0.13482118 0.079717152 0.40731624 6574403
-0.13383488 0.079567589 0.40655205 6574403
-0.13296175 0.079484023 0.40612504 6574403
-0.13209043 0.079400621 0.40569893 6574403
-0.13122095 0.079317398 0.40527368 6508867
-0.13035329 0.079234354 0.40484935 6443331
-0.12948744 0.079151474 0.40442589 6443332
-0.1286234 0.079068772 0.40400332 6443332
-0.12776116 0.078986242 0.40358165 6377797
-0.12690072 0.078903891 0.40316084 6181447
-0.12604578 0.078824013 0.40275273 5525321
-0.12533504 0.078833915 0.40280333 5328976
-0.12467247 0.078874417 0.40301025 6513507
-0.1240092 0.078914948 0.40321735 6710886
-0.12334526 0.078955524 0.40342468 6776679
-0.12268065 0.078996144 0.40363222 6776678
-0.12201534 0.079036802 0.40383998 6645093
-0.12134935 0.079077505 0.40404794 6381921
-0.12068268 0.079118252 0.40425614 6316128
-0.12001531 0.079159036 0.40446451 6381921
-0.11934726 0.079199865 0.40467313 6710886
-0.11867852 0.079240732 0.40488195 6710886
-0.11802638 0.079293258 0.40515035 6710886
-0.11737739 0.079348579 0.405433 6710886
-0.1167275 0.079403974 0.40571603 6710886
-0.11607669 0.079459444 0.40599945 6710886
-0.11542499 0.079514995 0.40628329 6710886
-0.11477236 0.079570621 0.40656751 6710886
-0.11411883 0.079626322 0.40685213 6710886
-0.11346438 0.079682104 0.40713716 6710886
-0.11280901 0.079737961 0.40742257 6447714
-0.11215272 0.0797939 0.40770838 6381921
-0.11148223 0.079840407 0.40794602 6513507
-0.11080525 0.079882853 0.40816289 5855577
-0.11016634 0.079953499 0.40852386 3684408
-0.10953652 0.080031738 0.4089236 2039583
-0.10890546 0.080110118 0.40932411 3158064
-0.10828492 0.080197364 0.40976989 3487029
-0.10771669 0.080324821 0.41042113 4868682
-0.10714666 0.080452681 0.41107443 4276545
-0.1065748 0.08058095 0.41172981 4144959
-0.10600112 0.080709621 0.41238728 5921370
-0.1054256 0.08083871 0.41304687 5526612
-0.10484824 0.080968216 0.41370857 3421491
-0.10426903 0.081098132 0.41437238 4276542
-0.10375185 0.081278525 0.41529411 4802629
-0.10323653 0.081463009 0.41623673 5721927
-0.10270312 0.08163581 0.41711965 6837833
-0.10212225 0.081773169 0.4178215 7297610
-0.10153944 0.081910998 0.41852573 7297610
-0.10095465 0.082049288 0.41923231 7297610
-0.10036789 0.082188047 0.41994131 7297610
-0.099779136 0.082327269 0.42065269 7297610
-0.099188387 0.082466975 0.42136648 7231817
-0.098595627 0.08260715 0.42208272 6377797
-0.15654472 0.086793147 0.43942118 5161
-0.15469332 0.08620315 0.43643412 5161
-0.15292484 0.085653551 0.43365157 5161
-0.15122209 0.085135318 0.43102786 399403
-0.14957735 0.084644541 0.42854312 859181
-0.14795144 0.084159389 0.42608684 2172978
-0.14633884 0.08367677 0.42364344 3355447
-0.14473818 0.083195962 0.42120916 4341050
-0.14315581 0.082720637 0.41880268 5260605
-0.14143398 0.082159266 0.41596052 5786176
-0.13986027 0.081678398 0.41352597 6377282
-0.13830487 0.081203125 0.41111973 6574403
-0.1369466 0.080839105 0.40927672 6574403
-0.13593599 0.080677457 0.40845835 6574403
-0.13492942 0.080516465 0.40764326 6574403
-0.13401604 0.080409624 0.40710235 6574403
-0.13314152 0.080325052 0.40667415 6574403
-0.13226885 0.080240652 0.40624687 6574403
-0.13139801 0.080156446 0.40582052 6574403
-0.13052899 0.080072403 0.40539503 6574403
-0.12966178 0.079988539 0.40497044 6574403
-0.1287964 0.079904847 0.40454674 6574403
-0.12792879 0.079818822 0.40411118 6574403
-0.12705535 0.079728141 0.40365207 6574403
-0.12618181 0.079636365 0.40318742 6574403
-0.12530075 0.079538733 0.40269315 6117459
-0.1245997 0.079554915 0.40277505 6710885
-0.1239368 0.079595774 0.40298194 6776679
-0.12327321 0.079636678 0.403189 6776679
-0.12260894 0.079677619 0.40339631 6776679
-0.12194399 0.079718612 0.40360382 6710886
-0.12127835 0.079759635 0.40381154 6579300
-0.12061203 0.07980071 0.40401947 6447970
-0.11994503 0.079841822 0.40422764 6645093
-0.11927732 0.079882979 0.40443599 6776679
-0.11861847 0.079930596 0.40467709 6710886
-0.11797065 0.079986297 0.40495908 6710886
-0.11732194 0.080042072 0.40524146 6710886
-0.11667231 0.080097921 0.40552422 6710886
-0.11602178 0.080153845 0.40580738 6645093
-0.11537034 0.080209859 0.40609095 6645093
-0.11471798 0.080265939 0.40637487 6710886
-0.11406472 0.080322109 0.40665925 6710886
-0.11341054 0.080378346 0.40694398 6776679
-0.11274144 0.080424681 0.40717855 6842472
-0.1120664 0.080467351 0.40739459 6645093
-0.11139064 0.080510065 0.40761086 6184542
-0.11074382 0.080574408 0.4079366 5987163
-0.11011546 0.080653131 0.40833518 5921370
-0.10948589 0.080732018 0.40873456 4868682
-0.10885506 0.080811046 0.40913469 4868682
-0.10822301 0.080890238 0.40953562 3881787
-0.10758973 0.080969587 0.40993735 2960685
-0.10699928 0.081082493 0.41050899 5066061
-0.10642797 0.081211589 0.41116259 6052956
-0.10585485 0.081341095 0.41181824 6842472
-0.10527989 0.081471018 0.412476 6776679
-0.1047031 0.081601344 0.41313586 4605509
-0.10415141 0.081753261 0.41390496 3815992
-0.10363872 0.081938192 0.41484126 4342335
-0.10309685 0.082102582 0.41567352 5066058
-0.10251866 0.082240246 0.41637051 6181963
-0.10193854 0.08237838 0.41706985 7166283
-0.10135646 0.082516968 0.41777152 7297610
-0.10077242 0.082656033 0.41847557 7231817
-0.10019029 0.082798764 0.41919822 7100232
-0.099629693 0.082961611 0.42002267 7100232
-0.099066891 0.083125092 0.42085037 7034439
-0.098499119 0.083286904 0.42166957 7034696
-0.15674034 0.087695226 0.43997028 75065
-0.15488532 0.08709836 0.43697581 268075
-0.15316871 0.086573623 0.43434316 399403
-0.15162748 0.086143114 0.4321833 1253423
-0.1497775 0.085531853 0.42911658 2829876
-0.14814788 0.085040726 0.42665258 4143673
-0.14653367 0.084553368 0.42420748 5391934
-0.14492977 0.084066868 0.4217667 5917505
-0.14334422 0.083585948 0.41935387 6311746
-0.14180902 0.083129428 0.4170635 6508867
-0.14024122 0.082648829 0.41465232 6574403
-0.13867939 0.082166605 0.412233 6574403
-0.13713567 0.081689984 0.40984175 6574403
-0.13604544 0.081479795 0.40878722 6574403
-0.13507542 0.081339695 0.40808433 6574403
-0.13419768 0.081253938 0.40765411 6574403
-0.13332179 0.081168361 0.40722477 6574403
-0.13244775 0.08108297 0.40679634 6574403
-0.13157552 0.08099775 0.40636879 6574403
-0.13069358 0.080905549 0.40590623 6574403
-0.1298131 0.080813229 0.40544304 6574403
-0.12893464 0.080721118 0.40498093 6574403
-0.12805817 0.080629215 0.40451983 6574403
-0.1271833 0.080537274 0.40405858 6574403
-0.1262991 0.080438331 0.40356216 6574403
-0.12541707 0.080339625 0.40306696 6443333
-0.12453719 0.080241166 0.40257299 6249560
-0.12386447 0.080275804 0.40274677 6776678
-0.12320124 0.080317035 0.40295362 6710886
-0.12253732 0.080358304 0.40316066 6776679
-0.12187272 0.080399618 0.40336794 6776679
-0.12120744 0.080440968 0.40357542 6776679
-0.12054147 0.080482371 0.40378311 6776678
-0.11987482 0.080523811 0.40399104 6776679
-0.11920918 0.080566444 0.40420493 6710886
-0.11856253 0.080622524 0.40448627 6710886
-0.11791499 0.080678679 0.40476799 6710886
-0.11726653 0.080734901 0.40505007 6710886
-0.11661717 0.080791205 0.40533257 6579300
-0.11596692 0.080847599 0.40561548 6118749
-0.11531574 0.080904059 0.40589875 6447714
-0.11466366 0.080960602 0.40618244 6776679
-0.11399593 0.08100675 0.40641397 6842472
-0.11332282 0.081049651 0.4066292 6908265
-0.11264899 0.081092596 0.40684465 6645093
-0.11197446 0.081135593 0.40706035 5987163
-0.11131963 0.081193529 0.40735102 5658198
-0.11069275 0.081272744 0.40774846 5658198
-0.11006463 0.081352115 0.40814668 4737096
-0.10943529 0.08143165 0.40854567 4802889
-0.10880472 0.081511326 0.40894544 6118749
-0.10817291 0.081591174 0.40934601 4144959
-0.10753986 0.081671171 0.40974736 2960685
-0.10690557 0.081751317 0.41014948 4079166
-0.10628155 0.081840493 0.41059688 5526612
-0.10570898 0.081970826 0.41125074 6447714
-0.10513458 0.082101569 0.41190669 6776679
-0.10455836 0.082232736 0.41256475 5658197
-0.10403822 0.082410209 0.41345516 4144958
-0.10348786 0.082566127 0.41423741 4145214
-0.10291233 0.08270409 0.41492957 5000009
-0.10233487 0.082842514 0.41562405 5591629
-0.1017634 0.082987875 0.41635332 6313034
-0.10120971 0.083149977 0.41716662 7100232
-0.10065383 0.08331272 0.41798308 7034439
-0.10009577 0.083476096 0.41880277 7034439
-0.099535525 0.083640121 0.41962567 7034439
-0.098971121 0.083803132 0.42044351 7034696
-0.098402657 0.083965197 0.4212566 7034696
-0.097831987 0.084127896 0.42207286 7034696
-0.1550778 0.087995797 0.43751884 1516335
-0.15341339 0.087496631 0.43503696 1844529
-0.15195195 0.087108701 0.43310815 2764340
-0.15017778 0.086536549 0.43026337 4143930
-0.1483462 0.085925207 0.42722374 5589055
-0.14672902 0.085432298 0.42477301 6311746
-0.14512187 0.084940098 0.42232576 6574403
-0.14359602 0.08449053 0.4200905 6574403
-0.1421057 0.084057212 0.41793603 6574403
-0.1405741 0.083594732 0.41563654 6574403
-0.13903356 0.08312194 0.41328579 6574403
-0.13750586 0.082651772 0.4109481 6574403
-0.13615507 0.082283415 0.40911663 6574403
-0.13525893 0.08218731 0.40863878 6574403
-0.13437268 0.082096189 0.40818572 6574403
-0.13348305 0.082001984 0.40771732 6574403
-0.13259545 0.081907988 0.40724999 6574403
-0.13170987 0.081814215 0.40678373 6574403
-0.13082634 0.08172065 0.40631855 6574403
-0.12994482 0.081627302 0.4058544 6574403
-0.1290653 0.08153417 0.40539134 6574403
-0.12818779 0.081441253 0.40492934 6574403
-0.12730177 0.081341818 0.40443495 6574403
-0.12641659 0.081241786 0.40393761 6574403
-0.1255336 0.081142008 0.40344149 6574403
-0.12465277 0.081042469 0.40294659 6181190
-0.12379224 0.080955043 0.40251189 6249818
-0.12312936 0.080996603 0.40271851 6710886
-0.12246579 0.081038192 0.40292531 6776679
-0.12180154 0.081079833 0.40313235 6776679
-0.12113661 0.081121512 0.40333959 6842472
-0.12047099 0.081163235 0.40354705 6842472
-0.1198047 0.081205003 0.40375471 6842472
-0.11915303 0.081257269 0.40401456 6710886
-0.11850664 0.081313789 0.40429559 6710886
-0.11785936 0.081370398 0.40457705 6645093
-0.11721118 0.081427082 0.40485889 6250335
-0.11656209 0.081483841 0.40514112 5592405
-0.1159121 0.081540689 0.40542376 5000268
-0.1152457 0.081586644 0.40565223 6052956
-0.11457451 0.081629768 0.40586665 6645093
-0.11390262 0.081672944 0.40608132 6645093
-0.11323001 0.081716157 0.40629619 6645093
-0.1125567 0.081759423 0.40651131 6842472
-0.1118938 0.081810877 0.40676713 6316128
-0.11126837 0.081890583 0.40716344 5000268
-0.11064172 0.081970438 0.4075605 4408131
-0.11001385 0.082050458 0.40795836 2960685
-0.10938475 0.082130633 0.40835699 1644825
-0.10875441 0.082210958 0.40875638 4802889
-0.10812285 0.082291447 0.40915656 5658198
-0.10749005 0.082372099 0.40955755 4408131
-0.106856 0.082452901 0.40995932 5066061
-0.10622071 0.082533866 0.41036186 5066061
-0.10558417 0.082614988 0.4107652 5066061
-0.10498968 0.082730383 0.41133896 5789784
-0.10443506 0.082879066 0.41207823 6250335
-0.10387617 0.083026476 0.41281116 5197646
-0.10331532 0.08317443 0.41354677 4539459
-0.10276837 0.083335802 0.41434914 4342336
-0.10221928 0.0834978 0.41515461 5000009
-0.10166806 0.083660431 0.4159632 5460043
-0.10111469 0.083823703 0.41677499 6707019
-0.10055915 0.083987609 0.41758993 7034439
-0.10000144 0.084152155 0.41840807 7034439
-0.099440381 0.084316373 0.41922456 7034696
-0.098874472 0.084478959 0.42003295 7034696
-0.098306373 0.084642164 0.42084444 7034696
-0.097736076 0.08480601 0.42165908 7034696
-0.097163573 0.084970497 0.42247689 6246468
-0.15527076 0.08889547 0.4380632 2505795
-0.15365884 0.088422604 0.43573299 4275258
-0.15219398 0.088029936 0.43379802 5194814
-0.1505802 0.087546632 0.43141633 5589055
-0.1487409 0.086926505 0.42836046 6377282
-0.14693354 0.086318657 0.42536509 6574403
-0.1454062 0.085869804 0.42315319 6574403
-0.14389572 0.085426211 0.42096725 6574403
-0.14240076 0.084987193 0.41880381 6574403
-0.14089344 0.084536068 0.41658074 6574403
-0.1393476 0.084056869 0.41421932 6574403
-0.13781919 0.083583072 0.41188452 6574403
-0.13630573 0.083113253 0.40956935 6574403
-0.13540269 0.083012551 0.40907308 6574403
-0.13450994 0.082917087 0.40860265 6574403
-0.13361923 0.082821839 0.4081333 6574403
-0.13273057 0.082726814 0.40766501 6574403
-0.13184395 0.082631998 0.4071978 6574403
-0.13095936 0.082537405 0.40673167 6574403
-0.13007678 0.082443036 0.4062666 6574403
-0.12919624 0.082348876 0.40580261 6574403
-0.12830877 0.082249217 0.4053115 6574403
-0.12742046 0.082147859 0.40481201 6574403
-0.12653431 0.08204674 0.40431374 6574403
-0.12565035 0.081945881 0.4038167 6574403
-0.12476856 0.081845261 0.40332088 6574403
-0.12388893 0.081744894 0.40282628 6050377
-0.12305756 0.081675373 0.40248367 6644835
-0.12239434 0.08171729 0.40269023 6710886
-0.12173044 0.081759252 0.40289703 6776679
-0.12106586 0.081801251 0.40310401 6842472
-0.12040059 0.081843302 0.40331122 6842472
-0.11974216 0.081890531 0.40354395 6776679
-0.11909693 0.081947431 0.40382433 6645093
-0.11845081 0.082004406 0.40410513 6579300
-0.1178038 0.08206147 0.40438631 6316128
-0.11715588 0.082118608 0.40466788 4737096
-0.11649081 0.082164362 0.40489337 4210752
-0.11582154 0.082207717 0.40510699 5197647
-0.11515155 0.082251109 0.40532082 5921370
-0.11448087 0.082294554 0.40553492 5460819
-0.11380947 0.082338035 0.4057492 5592405
-0.11313736 0.082381576 0.40596375 6381921
-0.11246632 0.082426459 0.40618491 6645093
-0.11184235 0.082506649 0.40658009 6579300
-0.11121715 0.082586996 0.40697601 6316128
-0.11059074 0.082667492 0.40737271 5395026
-0.1099631 0.082748152 0.40777019 3223857
-0.10933425 0.082828976 0.40816846 2894892
-0.10870416 0.082909949 0.40856749 4079166
-0.10807283 0.082991086 0.40896732 5987163
-0.10744028 0.083072379 0.40936792 5197647
-0.10680647 0.083153829 0.4097693 4737096
-0.10617144 0.083235443 0.41017148 4737096
-0.10553514 0.083317213 0.41057444 4737096
-0.10489046 0.083393469 0.41095021 5197647
-0.10430612 0.083519131 0.41156945 5197647
-0.10376369 0.083680391 0.41236413 5789784
-0.10321917 0.083842285 0.4131619 4934474
-0.10267253 0.084004804 0.41396275 4737095
-0.10212378 0.08416795 0.41476673 5723733
-0.10157289 0.084331736 0.41557384 6184541
-0.10101985 0.084496155 0.41638407 6314838
-0.10046465 0.084661223 0.4171975 6838090
-0.099906929 0.084826641 0.41801265 7034439
-0.099343561 0.084989734 0.41881636 7034696
-0.098778017 0.085153461 0.41962317 7034696
-0.098210283 0.085317813 0.42043307 7034696
-0.097640365 0.085482806 0.42124614 7034696
-0.097068228 0.08564844 0.42206234 7034696
-0.15390506 0.089351535 0.43643123 6245954
-0.15243679 0.088954113 0.43449008 6377282
-0.15098152 0.088560216 0.43256611 6377282
-0.14913772 0.087933145 0.42950323 6574403
-0.14735362 0.087334916 0.4265812 6574403
-0.14572167 0.086821049 0.42407125 6574403
-0.14419667 0.086365812 0.4218477 6574403
-0.14269705 0.085921034 0.4196752 6574403
-0.14121281 0.085480817 0.41752499 6574403
-0.13966307 0.084996022 0.41515705 6574403
-0.13812943 0.084515855 0.4128117 6574403
-0.13660869 0.084038407 0.41047964 6574403
-0.1355413 0.083836176 0.40949187 6574403
-0.13464747 0.083739661 0.40902045 6574403
-0.1337557 0.083643377 0.40855014 6574403
-0.13286598 0.083547309 0.40808091 6574403
-0.1319783 0.083451457 0.40761274 6574403
-0.13109265 0.083355829 0.40714565 6574403
-0.13020903 0.083260424 0.40667963 6574403
-0.12932016 0.083160557 0.40619186 6574403
-0.12842865 0.083057851 0.40569019 6574403
-0.12753935 0.082955398 0.40518975 6574403
-0.12665224 0.082853198 0.40469056 6574403
-0.12576731 0.082751244 0.4041926 6574403
-0.12488457 0.082649551 0.40369588 6574403
-0.12400398 0.082548104 0.40320036 6509382
-0.12312555 0.082446903 0.40270606 6380372
-0.12232297 0.082395591 0.40245542 6842470
-0.12165941 0.082437873 0.40266195 6776679
-0.12099519 0.082480207 0.40286872 6842472
-0.12033028 0.082522579 0.4030757 6776679
-0.11968584 0.08257959 0.40335417 6579300
-0.11904088 0.082636945 0.40363431 5789784
-0.11839504 0.082694381 0.40391484 5000268
-0.11773126 0.082739927 0.40413731 4737096
-0.11706389 0.082783498 0.40435013 5000268
-0.11639582 0.082827114 0.40456319 5658198
-0.11572704 0.082870789 0.40477648 5460819
-0.11505755 0.082914494 0.40498996 5789784
-0.11438737 0.082958251 0.4052037 5197647
-0.11371647 0.083002053 0.40541765 4539717
-0.11304487 0.083045907 0.40563184 5921370
-0.11241467 0.08312095 0.40599838 6645093
-0.11179094 0.083201781 0.4063932 6645093
-0.11116598 0.083282761 0.40678877 5526612
-0.11053981 0.083363906 0.40718511 3487029
-0.10991242 0.083445214 0.40758222 4671303
-0.1092838 0.083526671 0.40798011 4408131
-0.10865395 0.083608292 0.40837878 4868682
-0.10802287 0.08369007 0.40877822 4671303
-0.10738332 0.083766371 0.4091509 3618615
-0.10674108 0.083841607 0.40951839 2434341
-0.10609768 0.083916977 0.40988654 2894892
-0.10545313 0.083992489 0.41025537 4539717
-0.10481618 0.084075175 0.41065922 4802889
-0.10420951 0.084183477 0.41118824 4868682
-0.1036674 0.084345877 0.41198146 5592405
-0.1031232 0.084508903 0.41277775 6316128
-0.10257689 0.084672555 0.41357711 6315871
-0.10202846 0.084836856 0.4143796 6316127
-0.1014779 0.085001782 0.41518518 5855577
-0.10092519 0.085167356 0.41599393 6052954
-0.10037033 0.085333578 0.4168058 6314065
-0.09980993 0.085497566 0.4176068 7034696
-0.099246919 0.085661791 0.41840896 7034696
-0.09868174 0.08582665 0.41921419 7034696
-0.098114379 0.085992143 0.42002252 7034696
-0.097544834 0.086158276 0.420834 7034696
-0.096973076 0.086325049 0.42164859 7034696
-0.096399099 0.086492471 0.42246637 7034696
-0.15419881 0.090310812 0.43726423 6574403
-0.15268037 0.089881241 0.43518433 6574403
-0.15122169 0.089482605 0.43325424 6574403
-0.14953664 0.088945173 0.43065211 6574403
-0.14777732 0.088357717 0.42780778 6574403
-0.14609811 0.087812245 0.42516673 6574403
-0.14451714 0.087320387 0.42278525 6574403
-0.14299458 0.086858779 0.42055026 6574403
-0.14150572 0.086412825 0.41839105 6574403
-0.13997996 0.085939437 0.41609904 6574403
-0.13844109 0.085452847 0.41374308 6574403
-0.13691297 0.084967673 0.41139397 6574403
-0.1356802 0.084661484 0.40991148 6574403
-0.13478529 0.084563926 0.40943912 6574403
-0.13389246 0.084466591 0.40896785 6574403
-0.13300166 0.084369473 0.40849763 6574403
-0.13211292 0.084272586 0.40802851 6574403
-0.13122623 0.084175922 0.4075605 6574403
-0.13033596 0.084075868 0.40707606 6574403
-0.12944125 0.083971806 0.40657219 6574403
-0.12854877 0.083868004 0.40606961 6574403
-0.12765849 0.083764449 0.40556824 6574403
-0.12677039 0.083661154 0.4050681 6574403
-0.1258845 0.083558112 0.40456921 6574403
-0.12500077 0.083455332 0.40407154 6574403
-0.12411924 0.083352797 0.40357512 6574403
-0.12323985 0.083250515 0.4030799 6576205
-0.12236261 0.083148479 0.40258586 6775902
-0.12158849 0.083115712 0.4024272 6973800
-0.12092461 0.083158359 0.4026337 6842472
-0.12027337 0.083210282 0.40288508 6776679
-0.11962958 0.083268009 0.40316457 6447714
-0.11896709 0.083313346 0.40338409 3750201
-0.11830162 0.08335714 0.40359613 2368548
-0.11763544 0.08340098 0.40380839 3421236
-0.11696856 0.083444864 0.40402088 5000268
-0.11630099 0.083488792 0.40423357 5723991
-0.11563271 0.083532773 0.40444651 5789784
-0.11496372 0.083576798 0.40465966 6052956
-0.11429402 0.083620869 0.40487304 6118749
-0.11362362 0.083664984 0.40508664 5855577
-0.11298537 0.083733499 0.40541837 6645093
-0.11236308 0.0838148 0.40581203 6645093
-0.11173958 0.083896272 0.40620649 6447714
-0.11111486 0.0839779 0.4066017 4802889
-0.11048892 0.084059678 0.40699765 1644825
-0.10985444 0.084136017 0.40736726 3092271
-0.10921722 0.084211253 0.40773156 5987163
-0.10857884 0.084286623 0.40809649 5723991
-0.10793933 0.084362142 0.40846211 4671303
-0.10729866 0.08443778 0.40882835 3552822
-0.10665686 0.084513567 0.40919527 2105376
-0.10601389 0.084589481 0.40956286 657930
-0.1053777 0.084671907 0.40996194 3092271
-0.10474303 0.084756725 0.41037261 4342338
-0.10411308 0.084846601 0.41080776 4868682
-0.10357129 0.085010126 0.41159952 5197647
-0.1030274 0.085174285 0.41239432 6447714
-0.10248142 0.085339077 0.41319221 6250335
-0.10193332 0.085504502 0.41399318 5066061
-0.10138309 0.085670583 0.41479728 4539717
-0.10083071 0.085837297 0.41560447 5395025
-0.10027362 0.086002469 0.41640422 5920596
-0.099713117 0.086167186 0.41720173 6903625
-0.099150471 0.086332537 0.41800234 7034696
-0.098585658 0.086498529 0.41880602 7034696
-0.098018661 0.086665154 0.41961277 7034696
-0.097449481 0.086832419 0.42042264 7034696
-0.096878111 0.08700034 0.42123568 7034696
-0.096304506 0.087168902 0.42205182 7034696
-0.095728695 0.087338127 0.42287117 6246726
-0.1545541 0.091309458 0.43827173 5002060
-0.15301083 0.090862468 0.43612626 6574403
-0.15148258 0.090419836 0.43400168 6574403
-0.14993773 0.089962639 0.43180719 6574403
-0.14820345 0.089386418 0.42904142 6574403
-0.14650293 0.088824607 0.42634481 6574403
-0.14488932 0.088309854 0.42387408 6574403
-0.14331989 0.0878167 0.421507 6574403
-0.14179985 0.087348714 0.41926074 6574403
-0.14029831 0.086887151 0.41704533 6574403
-0.13875246 0.086393036 0.41467366 6574403
-0.13721862 0.085901096 0.41231239 6574403
-0.13581938 0.085488491 0.41033196 6574403
-0.1349234 0.085389882 0.40985864 6574403
-0.13402949 0.08529149 0.4093864 6574403
-0.13313763 0.085193329 0.40891522 6574403
-0.13224782 0.085095391 0.40844515 6574403
-0.13135618 0.084995173 0.40796411 6574403
-0.13045827 0.084889747 0.40745807 6574403
-0.12956257 0.084784567 0.40695325 6574403
-0.1286691 0.084679663 0.40644971 6574403
-0.12777784 0.084575012 0.40594742 6574403
-0.12688877 0.084470622 0.40544635 6574403
-0.12600191 0.084366493 0.40494654 6574403
-0.12511721 0.084262617 0.40444794 6574403
-0.12423471 0.084158994 0.40395057 6574403
-0.12335436 0.084055625 0.40345442 6574660
-0.12247618 0.083952516 0.4029595 6642772
-0.12160015 0.083849654 0.40246579 6908004
-0.12085955 0.083839506 0.40241709 6776679
-0.12019832 0.083884627 0.40263367 6842472
-0.11953473 0.083928637 0.40284491 6908265
-0.11887044 0.0839727 0.40305638 5197647
-0.11820546 0.0840168 0.40326807 3815994
-0.11753977 0.084060952 0.40347999 4144959
-0.11687339 0.084105149 0.40369213 5263440
-0.1162063 0.08414939 0.40390447 5592405
-0.11553852 0.084193684 0.40411708 6052956
-0.11487002 0.084238015 0.40432987 5987163
-0.11420082 0.084282398 0.40454289 5723991
-0.11355444 0.084344298 0.40483999 5592405
-0.11293359 0.084426083 0.40523255 6645093
-0.11230411 0.084502444 0.40559909 6776679
-0.11167184 0.084577687 0.40596023 6645093
-0.11103843 0.084653065 0.40632203 5395026
-0.1104039 0.084728569 0.40668446 2500134
-0.10976823 0.084804215 0.40704754 1776411
-0.10913142 0.084879987 0.40741125 4868682
-0.10849348 0.084955908 0.40777564 5526612
-0.10785439 0.085031956 0.40814066 5197647
-0.10721415 0.085108139 0.40850633 4079166
-0.10657278 0.08518447 0.40887269 2763306
-0.10593732 0.085266627 0.40926704 1973790
-0.10530429 0.085351892 0.40967631 2829099
-0.10466998 0.085437335 0.41008642 3881787
-0.10403442 0.08552295 0.41049737 4473924
-0.10347535 0.085673138 0.41121826 4802889
-0.10293179 0.085838422 0.41201159 5658198
-0.10238613 0.086004347 0.412808 4868682
-0.10183835 0.086170912 0.41360748 3881786
-0.10128845 0.086338125 0.41441008 3947580
-0.10073464 0.086504474 0.41520852 4671303
-0.10017664 0.086669676 0.41600147 5855319
-0.099616498 0.086835511 0.41679746 6707278
-0.09905421 0.087001987 0.41759652 7034696
-0.098489761 0.087169096 0.41839862 7034696
-0.097923137 0.087336853 0.41920382 7034696
-0.09735433 0.087505251 0.42001212 7034696
-0.096783325 0.087674305 0.42082354 7034696
-0.096210107 0.087844007 0.4216381 7034696
-0.095634669 0.088014379 0.42245585 7034696
-0.15336245 0.091859773 0.43712851 6574403
-0.151829 0.091411263 0.43499419 6574403
-0.15031388 0.090969183 0.4328905 6574403
-0.14863205 0.090421058 0.43028218 6574403
-0.14692393 0.089851119 0.42757002 6574403
-0.14526343 0.089304432 0.42496854 6574146
-0.14368789 0.088804446 0.42258927 6508354
-0.14212987 0.088310026 0.4202365 6574146
-0.14061244 0.087835655 0.41797912 6574403
-0.13906468 0.087337121 0.4156068 6574403
-0.13752565 0.086838692 0.41323492 6574403
-0.13600408 0.086345911 0.41088995 6574403
-0.13506179 0.086217523 0.41027901 6574403
-0.13416679 0.08611808 0.4098058 6574403
-0.13327387 0.086018868 0.40933368 6574403
-0.13238086 0.085918494 0.40885603 6574403
-0.13147971 0.085811689 0.40834779 6574403
-0.1305808 0.085705146 0.40784079 6574403
-0.12968412 0.085598871 0.40733504 6574403
-0.12878966 0.085492849 0.40683055 6574403
-0.12789741 0.085387096 0.40632731 6574403
-0.12700738 0.08528161 0.40582532 6574403
-0.12611952 0.085176378 0.40532455 6574403
-0.12523387 0.085071407 0.40482503 6574403
-0.12435039 0.084966689 0.40432674 6574403
-0.12346379 0.084858596 0.40381235 6574403
-0.12256724 0.084742337 0.40325913 6575433
-0.12167247 0.08462593 0.40270516 6775646
-0.12081015 0.08453083 0.40225261 7105642
-0.12013656 0.084567428 0.40242678 6710886
-0.11947196 0.084610842 0.40263337 6710886
-0.11880668 0.084654301 0.4028402 6579300
-0.11814073 0.084697813 0.40304723 6052956
-0.11747408 0.084741361 0.40325448 4934475
-0.11680675 0.084784955 0.40346193 5066061
-0.11613873 0.0848286 0.4036696 5395026
-0.11547001 0.084872283 0.40387747 5658198
-0.11480062 0.08491601 0.40408558 4473924
-0.11413287 0.084961534 0.40430218 4144959
-0.11347672 0.085016325 0.40456292 5592405
-0.1128471 0.085091829 0.40492222 6447714
-0.11221635 0.08516746 0.40528214 6842472
-0.11158449 0.08524324 0.40564272 6710886
-0.11095151 0.085319147 0.40600395 5855577
-0.11031739 0.085395187 0.40636581 5197647
-0.10968214 0.085471362 0.4067283 3750201
-0.10904576 0.085547686 0.40709147 3947580
-0.10840824 0.085624129 0.40745527 5395026
-0.10776957 0.085700721 0.40781972 5197647
-0.10712977 0.085777447 0.40818483 4473924
-0.10649504 0.085859321 0.40857446 3158064
-0.10586364 0.08594504 0.40898237 3421236
-0.10523096 0.08603093 0.40939108 1973790
-0.10459703 0.086116992 0.40980062 3289650
-0.10396183 0.086203225 0.41021097 4210752
-0.10337959 0.086334929 0.41083771 5197647
-0.10283636 0.086501338 0.41162959 5789784
-0.10229101 0.086668387 0.4124245 5066061
-0.10174356 0.086836077 0.41322249 4013373
-0.10119303 0.087003604 0.41401967 4671303
-0.1006375 0.087169282 0.41480809 5658198
-0.10007985 0.087335594 0.41559952 6447713
-0.099520057 0.087502539 0.41639397 6380117
-0.098958135 0.087670133 0.41719148 7034696
-0.098394051 0.087838367 0.41799203 7034696
-0.097827792 0.088007241 0.41879565 7034696
-0.09725935 0.088176765 0.41960236 7034696
-0.096688725 0.088346951 0.42041221 7034696
-0.096115887 0.088517793 0.42122519 7100488
-0.095530286 0.088679507 0.42199475 7231817
-0.094935074 0.08883483 0.42273384 7232849
-0.15371571 0.092861682 0.43813542 6574403
-0.15217702 0.092407234 0.43599126 6574403
-0.1506623 0.091962703 0.43389389 6574403
-0.14904827 0.091452591 0.43148711 6574403
-0.14734738 0.090883546 0.42880228 6508353
-0.14565316 0.090312645 0.42610869 6442303
-0.14405777 0.089797273 0.42367709 6442303
-0.1424937 0.08929605 0.42131221 6508096
-0.14094698 0.088800386 0.41897359 6574146
-0.13937834 0.088285469 0.41654414 6574403
-0.13783404 0.087780483 0.41416156 6574403
-0.13630733 0.087281257 0.41180614 6574403
-0.13520046 0.087046869 0.41070026 6574403
-0.13430439 0.086946368 0.41022608 6574403
-0.13341004 0.086845867 0.40975189 6574403
-0.13250563 0.086737663 0.40924138 6574403
-0.13160348 0.086629741 0.40873218 6574403
-0.13070357 0.08652208 0.40822423 6574403
-0.12980589 0.086414687 0.40771753 6574403
-0.12891044 0.086307563 0.40721208 6574403
-0.12801722 0.086200707 0.40670791 6574403
-0.12712426 0.0860928 0.4061988 6574403
-0.12621738 0.085974157 0.40563902 6574403
-0.125313 0.085855842 0.4050808 6574403
-0.12441109 0.085737847 0.40452409 6574403
-0.12351166 0.08562018 0.4039689 6574403
-0.1226147 0.085502833 0.40341526 6574918
-0.12168129 0.085358515 0.40273434 6775903
-0.12085559 0.08528848 0.40240392 7302763
-0.12008844 0.085259169 0.40226561 6974057
-0.11942409 0.085302919 0.40247205 6710886
-0.11875906 0.085346721 0.4026787 6710886
-0.11809333 0.085390568 0.40288556 6513507
-0.11742692 0.085434452 0.40309262 5855577
-0.11675984 0.085478388 0.40329993 4473924
-0.11609207 0.085522369 0.40350744 4079166
-0.1154236 0.085566394 0.40371513 4671303
-0.11475445 0.085610464 0.40392306 4934475
-0.11409462 0.085662097 0.4041667 4868682
-0.11343628 0.085715517 0.40441874 4934475
-0.11277712 0.085769005 0.4046711 5526612
-0.11212874 0.085831448 0.4049657 5723991
-0.11149729 0.08590775 0.40532571 5855577
-0.11086471 0.085984185 0.40568635 5263440
-0.11023102 0.086060762 0.40604764 5460819
-0.10959619 0.086137474 0.40640959 4737096
-0.10896023 0.086214319 0.40677217 4276545
-0.10832313 0.086291306 0.4071354 4868682
-0.1076849 0.086368434 0.40749928 6316128
-0.10705088 0.086450025 0.40788424 5987163
-0.10642109 0.086536184 0.40829074 5131854
-0.10579005 0.086622514 0.40869808 5066061
-0.10515776 0.086709023 0.40910625 3552822
-0.10452419 0.086795703 0.4095152 2631720
-0.10388935 0.086882554 0.40992498 3289650
-0.10328402 0.086995497 0.41045788 4868682
-0.10274109 0.087163016 0.41124827 6381921
-0.10219608 0.087331191 0.41204172 6184542
-0.10164881 0.087499887 0.41283765 5263440
-0.10109572 0.087666027 0.41362154 3684408
-0.10054054 0.087832808 0.41440845 4408131
-0.099983238 0.08800023 0.41519836 5723991
-0.099423818 0.088168286 0.41599128 5920854
-0.098862238 0.088336982 0.41678721 6903625
-0.09829852 0.088506334 0.41758621 7034696
-0.097732633 0.088676326 0.41838828 7100488
-0.097150564 0.088834174 0.41913301 7231817
-0.09655647 0.088983409 0.41983715 7297610
-0.095960371 0.089133151 0.42054364 7297610
-0.095362268 0.089283392 0.42125252 7231817
-0.094790854 0.089461252 0.42209166 7232332
-0.1540706 0.093868211 0.43914694 5002060
-0.15252663 0.09340778 0.43699291 6574403
-0.15101233 0.092960835 0.43490195 6574403
-0.14944582 0.092476912 0.43263799 6508610
-0.14776368 0.091915995 0.43001384 6442303
-0.14607149 0.091342859 0.42733252 6375997
-0.14442955 0.090795234 0.42477053 6375740
-0.14285938 0.090287134 0.42239347 6375997
-0.14132348 0.089795351 0.42009273 6508097
-0.13989167 0.08936476 0.4180783 6508354
-0.13817324 0.088745415 0.4151808 6574403
-0.13661192 0.088220783 0.41272637 6574403
-0.13533941 0.087877922 0.41112235 6574403
-0.13444225 0.087776348 0.41064718 6574403
-0.13353606 0.087667711 0.41013893 6574403
-0.13263063 0.087558381 0.40962747 6574403
-0.13172747 0.087449335 0.40911728 6574403
-0.13082656 0.087340556 0.40860838 6574403
-0.12991084 0.087220594 0.40804717 6574403
-0.12899598 0.08709985 0.4074823 6574403
-0.12808365 0.086979441 0.40691897 6574403
-0.12717384 0.086859368 0.40635723 6574403
-0.12626654 0.086739622 0.405797 6574403
-0.12536173 0.086620204 0.40523833 6574403
-0.12445941 0.086501114 0.40468121 6574403
-0.12355957 0.086382352 0.4041256 6574403
-0.12263237 0.086242944 0.40347338 6640711
-0.12171954 0.08611203 0.40286094 6709853
-0.12090109 0.086046718 0.40255538 7105384
-0.12008386 0.085981496 0.40225026 7434350
-0.11937626 0.085994445 0.40231085 6710886
-0.11871146 0.086038582 0.40251732 6710886
-0.11804599 0.086082764 0.40272403 6645093
-0.11737983 0.086126998 0.40293095 6381921
-0.11671298 0.086171269 0.40313807 4868682
-0.11604545 0.086215585 0.40334541 2631720
-0.11537723 0.086259946 0.40355295 2697513
-0.11471373 0.086308427 0.40377975 4342338
-0.11405641 0.086362198 0.40403131 4671303
-0.11339826 0.086416043 0.4042832 5066061
-0.11273929 0.086469948 0.40453538 2960685
-0.1120795 0.086523913 0.40478787 2960685
-0.1114189 0.086577959 0.40504071 5263440
-0.11077807 0.086648196 0.40536928 5658198
-0.11014479 0.086725295 0.40573001 5263440
-0.10951038 0.086802535 0.40609136 5789784
-0.10887484 0.086879924 0.4064534 4605510
-0.10823817 0.086957447 0.40681607 2960685
-0.10760483 0.087038726 0.40719631 4605510
-0.10697667 0.087125324 0.40760148 6184542
-0.10634725 0.087212101 0.40800744 5329233
-0.10571657 0.087299049 0.40841421 4276545
-0.10508464 0.087386169 0.40882179 5066061
-0.10445144 0.087473467 0.4092302 3684408
-0.10381698 0.087560937 0.40963942 3815994
-0.10318861 0.087654844 0.41007873 4671303
-0.10264601 0.08782348 0.41086766 6250335
-0.10210131 0.087992765 0.41165966 6513507
-0.10155133 0.088159949 0.41244179 5658198
-0.1009986 0.088327192 0.41322419 4342338
-0.10044377 0.088495068 0.41400957 3947580
-0.09988682 0.088663585 0.41479796 5921370
-0.099327751 0.088832743 0.41558933 5986905
-0.098749012 0.088986747 0.41630983 6839121
-0.098161586 0.089135237 0.4170045 7297610
-0.097572207 0.089284219 0.41770151 7297610
-0.096980847 0.0894337 0.41840082 7297610
-0.096387506 0.08958368 0.41910249 7297610
-0.095792174 0.089734174 0.41980654 7297610
-0.095212959 0.089902274 0.42059296 7166025
-0.09464708 0.090085775 0.42145145 7166025
-0.094282396 0.0904653 0.42322698 5916222
-0.15288268 0.094415918 0.43801299 6574403
-0.15136398 0.093963616 0.4359147 6574403
-0.1498455 0.093506716 0.43379503 6508353
-0.14815646 0.092938043 0.43115684 6441790
-0.14648785 0.092376247 0.42855057 6309690
-0.14480434 0.091799043 0.42587283 6243897
-0.14322697 0.091283314 0.42348027 6243384
-0.14171815 0.090806 0.4212659 6309434
-0.14028047 0.090369359 0.41924024 6508097
-0.1387392 0.089860886 0.41688135 6574146
-0.13701032 0.089224704 0.41393 6574403
-0.13547866 0.088710681 0.41154534 6574403
-0.13457099 0.088601835 0.4110404 6574403
-0.13364844 0.088481925 0.41048411 6574403
-0.13272291 0.088358708 0.40991247 6574403
-0.13179997 0.088235825 0.40934241 6574403
-0.13087957 0.088113293 0.40877393 6574403
-0.12996174 0.087991096 0.40820706 6574403
-0.12904646 0.087869242 0.40764174 6574403
-0.1281337 0.087747715 0.40707797 6574403
-0.12722346 0.087626532 0.40651578 6574403
-0.12631573 0.087505676 0.40595511 6574403
-0.12541051 0.087385163 0.40539601 6574403
-0.12450777 0.087264977 0.40483844 6574403
-0.12358693 0.087130614 0.4042151 6640196
-0.12264127 0.086977042 0.40350267 6640711
-0.1217654 0.08687143 0.40301272 6511959
-0.12094659 0.086805515 0.40270692 6973540
-0.12012903 0.086739697 0.40240157 7500142
-0.11932846 0.086685419 0.40214977 7237228
-0.11866391 0.086729892 0.40235609 6710886
-0.11799867 0.086774409 0.40256262 6710886
-0.11733276 0.086818971 0.40276936 6645093
-0.11666616 0.086863592 0.40297633 5395026
-0.11599886 0.086908244 0.40318349 3289650
-0.11533166 0.086953521 0.40339354 2500134
-0.11467534 0.087007642 0.40364462 2105376
-0.11401821 0.08706183 0.403896 3881787
-0.11336026 0.087116085 0.40414771 4737096
-0.11270149 0.087170407 0.40439972 2171169
-0.1120419 0.087224796 0.40465206 1184274
-0.11138149 0.08727926 0.40490472 4013373
-0.11072025 0.087333791 0.40515769 5987163
-0.11005869 0.087388791 0.40541285 5855577
-0.1094247 0.08746656 0.40577364 5723991
-0.10878959 0.087544478 0.40613511 6513507
-0.10815693 0.087625451 0.40651074 3947580
-0.10753037 0.087712489 0.40691453 4671303
-0.10690256 0.087799698 0.40731913 6118749
-0.10627351 0.087887086 0.40772453 5197647
-0.10564319 0.087974645 0.40813074 3289650
-0.10501163 0.088062376 0.40853775 4802889
-0.1043788 0.088150293 0.40894559 4868682
-0.10374471 0.088238381 0.40935424 3487029
-0.10310934 0.08832664 0.40976369 4408131
-0.1025511 0.088482715 0.41048777 5131854
-0.10200435 0.088651054 0.41126871 5000268
-0.10145405 0.088818744 0.41204667 5789784
-0.10090166 0.088987075 0.41282758 4802889
-0.10032606 0.089137278 0.41352442 4802889
-0.099745199 0.089285031 0.41420984 5460819
-0.0991624 0.08943326 0.4148975 6447713
-0.098577656 0.089581981 0.41558746 6840667
-0.097990982 0.089731202 0.41627973 7297611
-0.097402342 0.089880921 0.41697431 7297610
-0.096811727 0.09003114 0.4176712 7297610
-0.096219145 0.090181865 0.41837043 7297610
-0.095632069 0.090340175 0.41910487 7231817
-0.095069051 0.090523921 0.41995728 7166025
-0.094503738 0.090708412 0.42081317 7166025
-0.093936116 0.090893656 0.42167255 7100489
-0.15324125 0.095429301 0.4390403 6574403
-0.15171729 0.094971083 0.43693218 6574403
-0.15020791 0.094517246 0.43484423 6574146
-0.14855133 0.093965538 0.43230596 6375998
-0.1468759 0.093396023 0.4296858 6243384
-0.14522001 0.092832953 0.42709529 6044978
-0.14359644 0.092284642 0.42457271 5912622
-0.14211503 0.091822311 0.42244565 5780266
-0.14067142 0.091379546 0.42040864 6177335
-0.13924167 0.090941042 0.4183912 6508096
-0.13756981 0.090338759 0.4156203 6574403
-0.13585439 0.089701116 0.41268671 6574403
-0.13462965 0.089382224 0.41121957 6574403
-0.1337011 0.089257523 0.41064587 6574403
-0.13277514 0.089133173 0.41007379 6574403
-0.13185176 0.089009173 0.40950328 6574403
-0.13093095 0.088885516 0.40893438 6574403
-0.13001268 0.088762201 0.40836704 6574403
-0.12909696 0.088639222 0.40780127 6574403
-0.12818378 0.088516593 0.40723708 6574403
-0.12727311 0.088394299 0.40667444 6574403
-0.12636496 0.088272341 0.40611336 6574403
-0.12545933 0.088150717 0.40555382 6574403
-0.12454502 0.088021554 0.40495956 6574403
-0.12359592 0.087866127 0.40424451 6640196
-0.12265018 0.087711252 0.40353197 6640198
-0.12181129 0.087631404 0.40316463 6576722
-0.12099215 0.087564886 0.40285859 6841440
-0.12017424 0.087498464 0.40255299 7302763
-0.11935759 0.087432154 0.40224791 7829363
-0.11861639 0.087420642 0.40219498 6645093
-0.11795141 0.087465502 0.40240136 6710886
-0.11728573 0.0875104 0.40260792 6710886
-0.11661937 0.087555349 0.40281472 6381921
-0.11595233 0.087600343 0.40302172 4144959
-0.11529309 0.087651841 0.40325865 2302755
-0.11463697 0.08770638 0.40350956 986895
-0.11398004 0.087760992 0.40376079 2171169
-0.11332229 0.087815665 0.40401232 4671303
-0.11266372 0.087870404 0.40426418 3552822
-0.11200432 0.087925218 0.40451634 1250067
-0.1113441 0.087980092 0.40476882 2763306
-0.11068307 0.088035047 0.40502164 5789784
-0.1100212 0.088090062 0.40527475 5855577
-0.1093585 0.088145144 0.40552816 5592405
-0.10870717 0.088210195 0.40582746 5395026
-0.10808221 0.088297665 0.40622988 5526612
-0.10745601 0.088385321 0.40663314 4605510
-0.10682856 0.088473141 0.40703717 5066061
-0.10619987 0.088561133 0.407442 6118749
-0.10556991 0.088649303 0.40784764 4408131
-0.10493872 0.088737652 0.40825412 4210752
-0.10430625 0.088826172 0.40866137 4276545
-0.10367253 0.088914871 0.40906945 3289650
-0.10303754 0.089003749 0.40947834 3289650
-0.10245471 0.089139305 0.41010198 4144959
-0.10188216 0.089285821 0.41077605 4605510
-0.10130771 0.089432821 0.41145235 5658198
-0.10073139 0.089580312 0.41213092 4737096
-0.10015315 0.089728281 0.4128117 4144959
-0.099572994 0.089876749 0.41349474 5395282
-0.098990925 0.090025708 0.41418004 6118748
-0.098406911 0.090175152 0.41486761 6512733
-0.09782096 0.090325102 0.41555747 7101262
-0.097233057 0.090475552 0.41624963 7297610
-0.096643195 0.090626493 0.41694409 7297610
-0.096051358 0.090777956 0.41764089 7231817
-0.095488049 0.090958968 0.41847369 7166025
-0.094925582 0.09114369 0.41932353 7166025
-0.094360836 0.091329165 0.42017683 7166025
-0.09379378 0.091515385 0.42103359 7100232
-0.093950041 0.09241616 0.42517778 5188391
-0.15415964 0.096797906 0.44167149 3495254
-0.15207225 0.095983267 0.43795443 6574403
-0.15055765 0.095523521 0.4358567 6574403
-0.1489483 0.094998524 0.43346122 6375997
-0.14726602 0.094421215 0.43082708 6044722
-0.14560406 0.093850888 0.42822477 5780266
-0.14397785 0.093297653 0.42570046 5581346
-0.14251414 0.09284433 0.42363203 5382941
-0.14106457 0.092395388 0.42158359 5515810
-0.13962895 0.091950767 0.41955486 6177078
-0.13813388 0.091461942 0.41732445 6442303
-0.13640748 0.090813749 0.41436684 6574403
-0.13485007 0.090271533 0.41189283 6574403
-0.13375382 0.090033732 0.41080779 6574403
-0.13282743 0.089908257 0.41023526 6574403
-0.1319036 0.089783125 0.4096643 6574403
-0.13098235 0.089658342 0.40909493 6574403
-0.13006365 0.08953391 0.40852717 6574403
-0.12914751 0.089409813 0.40796095 6574403
-0.12823389 0.089286067 0.40739632 6574403
-0.12732281 0.089162663 0.40683323 6574403
-0.12641424 0.089039594 0.4062717 6574403
-0.12550664 0.08891578 0.40570676 6574403
-0.12455409 0.088758491 0.40498906 6640196
-0.12360491 0.088601753 0.4042739 6640196
-0.12267794 0.088459171 0.40362334 6640453
-0.12185722 0.088391952 0.40331662 6575692
-0.12103772 0.088324822 0.40301034 6643802
-0.12021948 0.088257805 0.40270454 7171176
-0.11940248 0.088190891 0.40239921 7697520
-0.11858671 0.088124074 0.40209433 7434350
-0.11790417 0.088156044 0.40224022 6645093
-0.11723874 0.088201277 0.40244663 6710886
-0.11657262 0.088246562 0.40265325 5855577
-0.11590966 0.088294819 0.40287343 4079166
-0.11525456 0.088349707 0.40312389 1776411
-0.11459863 0.088404663 0.40337461 1315860
-0.11394189 0.088459685 0.40362567 2565927
-0.11328434 0.088514775 0.40387705 4868682
-0.11262596 0.088569932 0.40412873 5526612
-0.11196677 0.088625163 0.40438071 2631720
-0.11130675 0.088680461 0.40463305 3158064
-0.11065646 0.08874429 0.40492427 4802889
-0.1100159 0.088816822 0.40525523 5789784
-0.10935574 0.0888744 0.40551794 3289650
-0.10865445 0.088899091 0.40563062 3026478
-0.10802941 0.088986933 0.40603143 4539717
-0.10740313 0.089074947 0.40643302 4539717
-0.10677561 0.089163139 0.40683541 3355443
-0.10614685 0.089251503 0.4072386 5921370
-0.10551684 0.089340039 0.40764257 5789784
-0.10488557 0.089428753 0.40804735 5789784
-0.10425306 0.089517646 0.40845296 5197647
-0.10361928 0.08960671 0.40885934 4013373
-0.1029808 0.089692958 0.40925288 3947580
-0.10235255 0.08978942 0.40969303 4210752
-0.10173514 0.089896865 0.41018328 3881787
-0.10113398 0.090020359 0.41074675 5460819
-0.10055836 0.090168558 0.41142297 5066061
-0.099980824 0.090317249 0.41210142 4868682
-0.099401385 0.090466432 0.4127821 5000268
-0.098820031 0.0906161 0.41346502 4934475
-0.098236747 0.090766273 0.41415024 6118747
-0.097651534 0.090916947 0.41483772 6839379
-0.097064368 0.091068111 0.41552746 7297610
-0.096475251 0.09121979 0.41621953 7297610
-0.09590409 0.091390952 0.41700053 7166025
-0.095344447 0.091575891 0.41784438 7166025
-0.094782546 0.091761589 0.41869166 7166025
-0.094218358 0.09194804 0.4195424 7166025
-0.093651876 0.092135243 0.4203966 7166025
-0.093557395 0.092793666 0.42340085 6042924
-0.15338406 0.097608037 0.44173232 5002061
-0.1512724 0.096766941 0.43792588 6574403
-0.14934961 0.096038468 0.43462911 6376254
-0.14769228 0.095473893 0.4320741 5846573
-0.1460543 0.094915919 0.42954895 5515554
-0.14443578 0.094364703 0.42705438 5448990
-0.14291628 0.093872622 0.42482743 5316635
-0.14145991 0.093416922 0.42276511 5250842
-0.14001839 0.092966132 0.42072505 5515554
-0.13859069 0.092519671 0.41870454 6309690
-0.1369651 0.091935471 0.41606072 6574403
-0.13532272 0.091333516 0.41333652 6574403
-0.13388792 0.090865761 0.41121966 6574403
-0.13287975 0.090683952 0.41039684 6574403
-0.13195549 0.090557687 0.40982544 6574403
-0.13103379 0.09043178 0.40925562 6574403
-0.13011467 0.090306222 0.40868741 6574403
-0.1291981 0.090181008 0.40812075 6574403
-0.12828405 0.090056144 0.40755567 6574403
-0.12737255 0.08993163 0.40699217 6574403
-0.12646355 0.089807451 0.40643018 6574403
-0.1255158 0.08965414 0.40573639 6640196
-0.12456317 0.08949554 0.4050186 6640196
-0.1236139 0.089337483 0.40430331 6640196
-0.12272425 0.089220896 0.40377569 6574403
-0.12190317 0.089153066 0.40346873 6574919
-0.12108334 0.08908534 0.40316224 6577493
-0.12026475 0.089017719 0.4028562 7039075
-0.11944741 0.088950202 0.40255064 7500141
-0.11863131 0.088882789 0.40224555 7829107
-0.11785697 0.088846028 0.40207919 6710629
-0.11719178 0.088891596 0.40228543 6316128
-0.11652591 0.088937223 0.4024919 3487029
-0.11587095 0.088991798 0.4027389 1842204
-0.11521605 0.089047104 0.40298918 1710618
-0.11456032 0.089102469 0.40323976 3026478
-0.11390378 0.089157909 0.40349063 3421236
-0.11324642 0.089213416 0.40374184 3289650
-0.11260592 0.089283012 0.40405682 5131854
-0.11196832 0.089355826 0.40438634 3421236
-0.11132969 0.089428768 0.40471643 2631720
-0.11069001 0.089501828 0.40504706 4605510
-0.11003316 0.08956188 0.40531883 5460819
-0.10930618 0.089565262 0.40533414 2829099
-0.10860259 0.089587994 0.40543702 2631720
-0.10797779 0.089676477 0.40583745 3355443
-0.10735177 0.089765124 0.40623865 5000268
-0.10672449 0.089853957 0.40664065 3552822
-0.10609598 0.089942962 0.40704346 4671303
-0.10546622 0.090032138 0.40744704 6250335
-0.10483522 0.0901215 0.40785146 6645093
-0.10420296 0.090211034 0.40825665 6381921
-0.10356565 0.090297453 0.40864772 6184542
-0.10292236 0.090379842 0.4090206 5592405
-0.10229548 0.090477951 0.4094646 5131854
-0.10167835 0.090586163 0.40995431 4802889
-0.10105973 0.090694629 0.41044518 5921370
-0.10043964 0.090803362 0.41093725 4802888
-0.099818043 0.09091235 0.41143048 4802889
-0.099230371 0.091054082 0.41207191 5329233
-0.098649733 0.091204472 0.41275251 5526612
-0.098067179 0.091355354 0.41343534 6381919
-0.097482689 0.091506734 0.41412044 6380630
-0.096896261 0.091658629 0.41480783 7232076
-0.096317209 0.091819912 0.41553771 7231817
-0.095760368 0.092005059 0.41637564 7166025
-0.095201291 0.092190973 0.41721699 7166025
-0.094639935 0.092377625 0.4180617 7166025
-0.094076313 0.092565045 0.41890988 7166025
