# .PCD v0.7 - Point Cloud Data file format
VERSION 0.7
FIELDS x y z rgb
SIZE 4 4 4 4
TYPE F F F U
COUNT 1 1 1 1
WIDTH 1149
HEIGHT 1
VIEWPOINT 0 0 0 1 0 0 0
POINTS 1149
DATA ascii
0.089892514 0.094909765 0.46358004 5118485
0.090499178 0.094669648 0.46240717 5515297
0.091102779 0.094430737 0.46124023 6375997
0.09170334 0.094193026 0.46007916 6574403
0.092294149 0.093949646 0.45889041 6574403
0.092860483 0.093685903 0.45760217 6574403
0.09346699 0.09346699 0.4565329 6574403
0.094078012 0.093256369 0.45550415 6574403
0.094686031 0.093046442 0.45447877 6574403
0.095290981 0.092837133 0.4534564 6574403
0.095893212 0.092628762 0.45243862 6574403
0.096492738 0.092421316 0.45142537 6574403
0.097080015 0.092205711 0.45037225 6574403
0.097659394 0.091986239 0.44930026 6574403
0.098236032 0.091767818 0.4482334 6574403
0.09888415 0.091619194 0.44750747 6574403
0.099543117 0.091482952 0.44684198 5786176
0.10020013 0.091347106 0.44617847 1581872
0.10085519 0.091211669 0.44551694 5418
0.10153739 0.091102719 0.44498476 5418
0.1022265 0.09100163 0.444491 5418
0.10291407 0.090900749 0.44399828 5418
0.10360012 0.090800107 0.44350669 5418
0.10428466 0.09069968 0.44301617 5418
0.10499004 0.090618782 0.44262102 5675
0.10578368 0.090614699 0.44260108 5676
0.10657725 0.090610623 0.44258118 5676
0.10737076 0.090606548 0.44256127 5676
0.10816418 0.090602472 0.44254136 5676
0.10895754 0.090598397 0.44252145 5676
0.10975083 0.090594321 0.44250154 5676
0.11054404 0.090590246 0.44248164 465454
0.11133719 0.090586178 0.44246176 1319474
0.11213026 0.090582103 0.44244185 2896183
0.11292439 0.090578929 0.44242635 3881531
0.11371969 0.090576731 0.44241562 4209724
0.1146346 0.090669177 0.44286719 5983813
0.11555696 0.090766191 0.44334105 6509898
0.11651633 0.090890743 0.4439494 6379599
0.11749667 0.091029845 0.44462883 5855059
0.11848003 0.091169372 0.44531035 5789525
0.11946639 0.091309331 0.44599396 5723989
0.12050661 0.091488302 0.44686812 5789781
0.12155746 0.091672897 0.44776979 5789781
0.12261254 0.091858238 0.44867507 5855575
0.12368401 0.092053346 0.44962806 5723989
0.12477586 0.092260972 0.4506422 5395281
0.12727761 0.093501672 0.45670229 6511186
0.12837543 0.093701676 0.45767918 7429196
0.12947793 0.093902528 0.45866024 5589827
0.074977979 0.10281412 0.49780235 6706247
0.075548388 0.10237031 0.49565351 6574403
0.076113895 0.10193031 0.49352312 6574403
0.076674558 0.10149407 0.491411 6574403
0.077234976 0.10106748 0.48934555 6574403
0.077941805 0.10083996 0.48824394 6574403
0.078596815 0.10055123 0.48684597 6574403
0.079248086 0.10026415 0.48545599 6574403
0.079898566 0.099982359 0.48409161 6574403
0.080546759 0.099703826 0.48274302 6375998
0.081191346 0.099426836 0.48140192 5647910
0.081833251 0.099152453 0.48007342 5250328
0.082479008 0.098888442 0.47879514 5118229
0.083121337 0.098625839 0.47752365 4987930
0.083760262 0.098364614 0.47625887 4139316
0.084395811 0.098104775 0.4750008 4530984
0.085033476 0.097852595 0.4737798 4726818
0.08567141 0.097605735 0.47258455 4596005
0.086294129 0.097346582 0.47132981 5052951
0.086916387 0.097091965 0.47009701 5118229
0.087535657 0.096838966 0.46887204 4922652
0.088151716 0.096587285 0.46765345 4334893
0.088764571 0.096336909 0.46644118 4922395
0.089374259 0.096087821 0.46523517 5118229
0.089982405 0.095841721 0.46404362 5118229
0.090589441 0.095598996 0.46286839 5184535
0.091193415 0.0953575 0.46169913 6111028
0.091794349 0.095117219 0.46053573 6574403
0.092381716 0.094867319 0.45932579 6574403
0.092948332 0.094600752 0.45803511 6574403
0.093519121 0.094343081 0.45678753 6574403
0.094130367 0.094130367 0.45575762 6574403
0.094738871 0.093918622 0.45473239 6574403
0.09534464 0.093707822 0.45371175 6574403
0.095947534 0.093497805 0.45269492 6574403
0.096547283 0.093288302 0.45168054 6574403
0.097144358 0.093079738 0.45067072 6574403
0.09772706 0.092860989 0.44961157 6574403
0.098303936 0.092640333 0.44854322 6574403
0.098962612 0.092499748 0.44786254 6574403
0.099621989 0.092362083 0.44719601 6574403
0.1002794 0.092224829 0.44653144 6508867
0.10093486 0.092087977 0.44586885 3946809
0.10158838 0.091951542 0.44520825 70954
0.10226291 0.091836102 0.44464934 5418
0.10295069 0.091734275 0.44415629 5418
0.10363695 0.091632672 0.44366434 5418
0.10432169 0.091531292 0.4431735 5418
0.1050306 0.091452502 0.44279203 5675
0.10582456 0.091448389 0.44277212 5676
0.10661843 0.091444276 0.44275218 202797
0.10741224 0.091440164 0.44273227 662575
0.10820597 0.091436043 0.44271234 1910836
0.10899964 0.091431931 0.44269243 3355962
0.10979323 0.091427818 0.44267249 4801344
0.11058675 0.091423705 0.44265258 5918020
0.11138158 0.091420718 0.44263813 6378054
0.11217729 0.091418505 0.4426274 6378055
0.11297297 0.091416284 0.44261667 6443591
0.11383476 0.091467224 0.44286332 6378569
0.11475625 0.091565087 0.44333714 6182220
0.11567971 0.091663159 0.44381198 5657423
0.11660516 0.091761447 0.44428787 5460816
0.1175326 0.091859944 0.44476476 5592402
0.11851142 0.091997005 0.44542837 5789525
0.11952844 0.092161655 0.44622558 5658196
0.12058321 0.092353024 0.44715214 5658196
0.12166207 0.09256018 0.44815513 5987161
0.12274577 0.092768259 0.4491626 6184541
0.12383437 0.092977285 0.45017466 6053211
0.12611996 0.094076455 0.45549658 5526610
0.12721239 0.094277143 0.45646828 6380115
0.1283095 0.094478697 0.45744416 7429196
0.075145103 0.10394322 0.49891192 6970192
0.075651489 0.10340529 0.4963299 6838605
0.076217473 0.10296045 0.49419475 6640196
0.076778457 0.10251921 0.49207687 6574403
0.07733465 0.10208174 0.48997706 6574403
0.077987641 0.10178048 0.48853108 6574403
0.078689136 0.10154855 0.48741782 6574403
0.079340898 0.10125827 0.48602456 6574403
0.079988949 0.10096966 0.48463926 6574403
0.08063332 0.10068268 0.48326182 6309947
0.081275471 0.10039911 0.48190069 5581603
0.081916921 0.10012069 0.4805643 5250328
0.082556233 0.099845491 0.47924343 5118229
0.083198957 0.099580094 0.47796956 5052950
0.083838269 0.099316098 0.47670242 4465706
0.084478244 0.099058248 0.47546476 4530984
0.085119873 0.098807491 0.47426116 4922394
0.085758261 0.098558009 0.47306368 4465449
0.086389244 0.098305002 0.47184929 4987672
0.087009102 0.098044403 0.47059846 5118229
0.087626442 0.097786024 0.4693583 4791838
0.088242896 0.097531617 0.46813717 4074037
0.088856153 0.097278535 0.4669224 4530984
0.089466229 0.097026758 0.46571392 5118229
0.090073161 0.096776284 0.46451166 5052951
0.090679891 0.096530207 0.46333054 5118743
0.091284238 0.096286111 0.46215892 5912879
0.091885537 0.096043251 0.46099323 6574146
0.092469446 0.095786735 0.45976201 6574403
0.093036354 0.095517322 0.45846885 6574403
0.093600079 0.095249422 0.45718297 6574403
0.094182774 0.095005333 0.45601138 6574403
0.094791494 0.094791494 0.45498499 6574403
0.09539748 0.094578616 0.45396322 6574403
0.096000746 0.094366692 0.45294601 6574403
0.096601322 0.094155721 0.45193335 6574403
0.097199172 0.093945645 0.45092502 6574403
0.097793788 0.093735948 0.44991854 6574403
0.098379448 0.0935212 0.44888777 6574403
0.099041194 0.093381695 0.44821817 6574403
0.09970098 0.093242615 0.44755059 6574403
0.10035879 0.093103945 0.44688499 6574403
0.10101466 0.092965677 0.44622135 6574403
0.10166857 0.092827827 0.44555968 6311490
0.10232055 0.092690386 0.44489998 2107442
0.10298734 0.09256839 0.44431442 5418
0.1036738 0.092465825 0.44382212 5418
0.10435875 0.092363484 0.44333091 5418
0.10507121 0.092286877 0.44296321 1910835
0.10586546 0.092282727 0.44294327 4012860
0.10665964 0.09227857 0.44292331 5458242
0.10745376 0.092274413 0.44290337 5984070
0.10824779 0.092270255 0.44288343 6378313
0.10904176 0.092266105 0.44286349 6444107
0.10983729 0.092263326 0.44285014 6444620
0.11063342 0.092261083 0.44283938 6444621
0.11142951 0.092258848 0.44282866 6379085
0.11222557 0.092256606 0.4428179 6248013
0.11303492 0.092265256 0.44285941 6116685
0.11395555 0.092363968 0.44333324 5592144
0.11487816 0.092462905 0.44380811 5461073
0.11580274 0.092562042 0.44428396 5460817
0.11672929 0.092661396 0.44476083 5460817
0.11765785 0.092760965 0.44523874 5526609
0.11859811 0.092868358 0.4457542 5526609
0.11965332 0.093063697 0.44669181 5526610
0.12072898 0.093272224 0.44769272 5723990
0.12180948 0.09348169 0.44869813 6381921
0.12289484 0.093692102 0.44970807 6579299
0.1249684 0.094648197 0.45429718 6381920
0.12605551 0.094849579 0.45526379 5592659
0.12714724 0.095051825 0.45623454 6183251
0.12824365 0.095254928 0.45720941 7363404
0.075108528 0.10606235 0.50471359 5459272
0.075383797 0.1051762 0.50049669 7564132
0.075704925 0.10437424 0.4966805 7300189
0.076319948 0.10399151 0.49485919 7233880
0.076882631 0.10354713 0.49274454 6640196
0.077439137 0.10310468 0.49063906 6574403
0.078029744 0.10271712 0.4887948 6574403
0.07873781 0.10249111 0.48771933 6574403
0.079433933 0.10225473 0.48659447 6574403
0.080082476 0.10196294 0.48520592 6574403
0.080727331 0.1016728 0.48382527 6309434
0.081368528 0.10138431 0.48245245 5581346
0.082006097 0.10109746 0.48108742 5250328
0.082640059 0.10081222 0.47973007 5118229
0.083276711 0.10053614 0.47841626 5118229
0.083919048 0.10027251 0.47716174 5052951
0.08456438 0.10001777 0.47594956 4726561
0.085206449 0.099764332 0.47474355 4922395
0.085845269 0.099512175 0.47354361 4465450
0.086480871 0.099261291 0.47234973 4922394
0.08710485 0.099002101 0.47111633 5052951
0.087721854 0.098740056 0.46986938 4661283
0.088335596 0.098479398 0.46862897 3878204
0.088947922 0.098222107 0.46740463 4335150
0.089558393 0.097967632 0.46619365 5118486
0.090165704 0.097714461 0.46498892 4530984
0.090770513 0.097463273 0.46379358 5053722
0.091375232 0.097216569 0.46261963 5912366
0.091976903 0.096971124 0.46145162 6508097
0.092557341 0.096707895 0.46019903 6574403
0.093124539 0.096435636 0.45890343 6574403
0.093688563 0.096164912 0.45761514 6574403
0.094249412 0.095895693 0.45633402 6574403
0.094844185 0.095665351 0.4552379 6574403
0.095450386 0.095450386 0.45421496 6574403
0.096053869 0.095236391 0.45319664 6574403
0.096654661 0.095023356 0.45218289 6574403
0.097252764 0.094811268 0.45117363 6574403
0.097848199 0.094600126 0.45016888 6574403
0.09846767 0.094415508 0.44929034 6574403
0.099119909 0.094265059 0.44857439 6574403
0.09978009 0.094124541 0.44790572 6574403
0.10043831 0.093984447 0.44723907 6574403
0.10109457 0.093844764 0.44657439 6574403
0.10174889 0.093705505 0.44591168 6574403
0.10240127 0.093566649 0.44525093 6574403
0.10305171 0.093428202 0.44459212 4406587
0.10371069 0.093299575 0.44398001 202282
0.10439582 0.093196273 0.44348842 5418
0.10511184 0.093121901 0.44313452 4932416
0.1059064 0.093117706 0.44311455 6575433
0.10670088 0.093113504 0.44309458 6313291
0.10749531 0.093109317 0.44307464 5985358
0.10829152 0.093106732 0.44306234 5789010
0.10908807 0.093104467 0.44305158 5657681
0.10988458 0.093102209 0.44304082 5592145
0.11068106 0.093099952 0.44303006 5526609
0.11147749 0.093097687 0.4430193 5526609
0.11227389 0.093095429 0.44300857 5526609
0.11315487 0.093162842 0.44332936 5526609
0.11407661 0.093262628 0.4438042 5526609
0.11500032 0.093362629 0.44428006 5526609
0.11592601 0.09346284 0.44475693 5526610
0.11685368 0.093563259 0.44523481 5526610
0.11779846 0.093675904 0.44577083 5395023
0.11875259 0.09379442 0.44633481 4934474
0.11979783 0.093982808 0.44723129 5395025
0.12087512 0.094193652 0.44823462 6118748
0.12195725 0.09440545 0.44924247 6645093
0.1238229 0.095216945 0.45310411 6908265
0.12490471 0.095419005 0.45406565 6579299
0.12599112 0.095621929 0.45503128 5658453
0.12708217 0.095825709 0.45600101 6051924
0.12817787 0.096030369 0.45697489 7297868
0.075349897 0.10731652 0.5063355 6838348
0.075624019 0.10641703 0.50209159 7762026
0.075893588 0.1055325 0.49791825 7762027
0.076373696 0.10495801 0.4952077 7695720
0.076984458 0.10457426 0.49339715 6969936
0.077543899 0.10413038 0.49130282 6574660
0.078095965 0.10368673 0.48920962 6574403
0.078780241 0.10342658 0.48798218 6574403
0.079485483 0.10319939 0.48691025 6574403
0.080176227 0.10295855 0.48577392 6574403
0.080821566 0.10266523 0.48439005 6243641
0.08146324 0.10237359 0.48301402 5515553
0.082101278 0.10208359 0.48164579 5184791
0.08273571 0.10179525 0.48028532 5118228
0.083366573 0.10150852 0.4789325 5118229
0.08400505 0.10123685 0.47765073 5118229
0.084650695 0.10097926 0.47643536 5052951
0.085293196 0.10072313 0.47522688 4922395
0.085932449 0.10046829 0.4740245 4465706
0.086568467 0.10021473 0.47282821 4530984
0.087200813 0.099961907 0.47163534 4922395
0.087818243 0.099697039 0.47038564 4334893
0.088432401 0.099433564 0.46914253 3551814
0.089043327 0.099171475 0.46790597 4335150
0.089651041 0.098910771 0.46667594 5052951
0.090258434 0.098654568 0.46546713 4008760
0.090863004 0.098400027 0.46426615 4727847
0.091466412 0.09814889 0.46308127 5913137
0.092068449 0.097900845 0.46191093 6507840
0.092645407 0.097630814 0.46063688 6574146
0.093212903 0.097355694 0.45933884 6574403
0.093777195 0.097082123 0.45804808 6574403
0.094338335 0.09681008 0.45676455 6574403
0.094896927 0.096540168 0.45549107 6574403
0.095503345 0.096323118 0.454467 6574403
0.096107051 0.096107051 0.45344755 6574403
0.096708052 0.095891945 0.45243266 6574403
0.097306363 0.095677808 0.4514223 6574403
0.097945638 0.09550716 0.45061716 6574403
0.098614089 0.095367536 0.44995841 6574403
0.099280581 0.095228314 0.44930154 6574403
0.099945143 0.09508951 0.44864663 6574403
0.10058451 0.094929159 0.44789007 6574403
0.10121961 0.094767362 0.44712672 6574403
0.10185255 0.094606124 0.44636595 6574403
0.10248334 0.09444543 0.44560778 6508867
0.10313295 0.09430445 0.44494259 5851969
0.10378186 0.094165012 0.44428471 6443075
0.10443293 0.09402965 0.44364607 990766
0.1051525 0.093957558 0.44330594 5064000
0.10594738 0.093953326 0.44328597 6378826
0.10674427 0.09395095 0.44327474 5788750
0.10754124 0.09394867 0.44326398 5657681
0.10833817 0.093946382 0.44325319 5592146
0.10913506 0.093944103 0.44324243 5526610
0.10993192 0.093941823 0.44323167 5526865
0.11072873 0.093939543 0.44322091 5526609
0.11152551 0.093937263 0.44321015 5526609
0.1123542 0.093961701 0.44332546 5526609
0.11327507 0.094062343 0.4438003 5526609
0.11419791 0.094163187 0.44427612 5526609
0.11512274 0.094264261 0.44475299 5526609
0.11604955 0.094365552 0.4452309 5526353
0.11699872 0.09448351 0.44578743 5395024
0.11795189 0.094603054 0.44635147 4934730
0.11890747 0.094722897 0.44691691 4671302
0.11994268 0.094904147 0.44777206 5592404
0.12102161 0.095117316 0.44877782 6513506
0.12268339 0.095782712 0.45191729 6974058
0.12375996 0.095985442 0.4528738 7105644
0.12484109 0.09618903 0.45383435 6710886
0.12592681 0.096393488 0.454799 5789783
0.12701716 0.096598804 0.45576772 5986389
0.12811215 0.096805006 0.45674062 7166540
0.075592816 0.10857877 0.50796789 6640454
0.075865775 0.1076658 0.50369668 7102036
0.076134183 0.10676805 0.49949673 7563876
0.076427527 0.10592587 0.49555671 7827820
0.077038519 0.10553832 0.4937436 7431775
0.077645056 0.10515358 0.49194372 6706248
0.078201309 0.10471023 0.48986953 6574403
0.078822725 0.10436305 0.48824531 6574403
0.07952825 0.10413368 0.48717225 6574403
0.080230683 0.10390531 0.48610386 6574403
0.080916017 0.10365998 0.48495612 6243384
0.081558168 0.10336517 0.48357689 5515040
0.082196683 0.10307202 0.48220548 5184535
0.082831584 0.10278055 0.48084185 5118228
0.083462894 0.10249071 0.47948587 5118228
0.084102482 0.10221687 0.47820476 5118228
0.084742129 0.10194865 0.47694996 5118229
0.08538013 0.10168387 0.47571123 4857116
0.086019807 0.10142634 0.47450641 4269872
0.08665625 0.10117011 0.47330767 4008503
0.08728949 0.10091517 0.47211498 4661540
0.087914832 0.10065611 0.47090304 4074038
0.088529415 0.10038982 0.46965721 3356237
0.08914075 0.10012493 0.46841794 4335150
0.089748874 0.099861421 0.4671852 4987673
0.090353802 0.099599302 0.46595892 3812925
0.090956308 0.099339381 0.4647429 4401713
0.091558136 0.099083461 0.46354565 5914422
0.09216018 0.098832414 0.46237114 6508096
0.092733644 0.09855549 0.4610756 6574146
0.093301423 0.098277494 0.45977506 6574403
0.093866013 0.098001078 0.45848188 6574403
0.094427422 0.097726196 0.45719591 6574403
0.094985701 0.097452864 0.45591715 6574403
0.095556378 0.097196825 0.45471933 6574403
0.096160293 0.096978679 0.45369875 6574403
0.096761502 0.096761502 0.45268273 6574403
0.097420514 0.096605279 0.45195186 6574403
0.098091707 0.096463628 0.45128918 6574403
0.09876094 0.096322395 0.45062846 6574403
0.099428214 0.096181579 0.44996965 6574403
0.10009354 0.096041173 0.44931278 6574403
0.10075693 0.095901169 0.44865781 6574403
0.10141838 0.095761575 0.44800475 6574403
0.10205429 0.095600262 0.44725007 6574403
0.10268598 0.095437557 0.44648889 6574403
0.10331553 0.09527541 0.4457303 6574404
0.10394294 0.095113806 0.44497427 5852226
0.10456823 0.094952762 0.44422084 4406845
0.10519554 0.09479598 0.44348735 5195844
0.10599292 0.09479367 0.44347656 6575433
0.10679028 0.094791368 0.4434658 5985358
0.10758759 0.094789065 0.44345501 5723473
0.10838486 0.094786756 0.44344422 5592146
0.1091821 0.094784461 0.44343346 5592402
0.10997929 0.094782151 0.44342268 5592402
0.11077645 0.094779857 0.44341192 5592146
0.11157358 0.094777554 0.44340116 5592146
0.11247355 0.094862036 0.4437964 5592146
0.11339553 0.094963744 0.44427222 5526610
0.11431948 0.095065676 0.44474909 5329231
0.11524916 0.095170908 0.44524139 5395024
0.11619893 0.095291167 0.44580403 5526353
0.11715113 0.09541174 0.4463681 5263438
0.11810572 0.095532618 0.4469336 4737351
0.11906275 0.095653802 0.44750056 4671302
0.12008788 0.095827706 0.44831413 5921369
0.12116844 0.096043214 0.44932234 6842472
0.12262119 0.096548915 0.45168817 7171437
0.12369707 0.096753158 0.45264369 7105644
0.12477752 0.096958265 0.45360327 6711142
0.12586255 0.097164251 0.45456693 5789783
0.12701122 0.097416379 0.45574647 5855059
0.075718127 0.10967655 0.50880992 6574403
0.076109082 0.10892258 0.50531209 6706247
0.076376304 0.10801145 0.50108522 7035986
0.076639093 0.10711546 0.49692854 7630183
0.077092655 0.10650372 0.49409056 7761770
0.077699415 0.1061152 0.49228814 6904142
0.078301772 0.10572951 0.49049884 6574403
0.078865252 0.10530054 0.48850876 6574403
0.079571068 0.10506897 0.48743451 6574403
0.080273785 0.10483844 0.48636499 6574403
0.080973417 0.10460891 0.48530015 6177077
0.081653327 0.10435906 0.48414108 5449247
0.082292303 0.10406276 0.48276648 5184535
0.082927674 0.10376813 0.48139966 5118228
0.083559446 0.10347517 0.48004055 5118228
0.084198877 0.1031976 0.47875282 5118228
0.084841028 0.10292896 0.47750658 5118228
0.085477047 0.10265837 0.47625124 4922395
0.086109035 0.10238835 0.47499859 4139316
0.086744212 0.10212742 0.47378808 4008760
0.087377869 0.10186981 0.47259298 4596262
0.088008344 0.1016135 0.4714039 3878204
0.088626646 0.10134817 0.470173 3747648
0.08923839 0.10108045 0.46893102 4400427
0.089846924 0.10081416 0.46769559 4857374
0.090452246 0.10054924 0.46646664 3682371
0.09105441 0.10028573 0.46524414 4467507
0.091653414 0.10002359 0.46402803 5980472
0.092250749 0.099764384 0.46282554 6508096
0.092822045 0.099481925 0.46151513 6574146
0.093390115 0.099201053 0.46021214 6574403
0.093954988 0.098921768 0.45891649 6574403
0.09451668 0.098644048 0.45762807 6574403
0.095075235 0.098367885 0.4563469 6574403
0.095630668 0.098093264 0.45507288 6574403
0.096216314 0.097854041 0.45396307 6574403
0.096892267 0.097709924 0.45329449 6574403
0.097566225 0.097566225 0.45262787 6574403
0.098238215 0.097422957 0.45196322 6574403
0.098908223 0.097280107 0.4513005 6574403
0.09957628 0.097137682 0.45063975 6574403
0.10024238 0.096995667 0.44998091 6574403
0.10090653 0.096854061 0.44932398 6574403
0.10156875 0.096712872 0.44866899 6574403
0.10222904 0.096572094 0.4480159 6574403
0.10288741 0.096431732 0.44736472 6574403
0.10351987 0.096269451 0.44661188 6574403
0.10414817 0.096105844 0.44585288 6574404
0.10477435 0.095942795 0.44509646 6180933
0.10539839 0.095780291 0.44434258 5327171
0.10603863 0.09563484 0.4436678 5853257
0.10683633 0.095632516 0.44365701 6116685
0.10763398 0.095630191 0.44364622 5723473
0.10843159 0.095627867 0.44363543 5657938
0.10922917 0.095625535 0.44362465 5592403
0.11002671 0.09562321 0.44361386 5592403
0.11082421 0.095620893 0.4436031 5592403
0.11167205 0.095661715 0.44379249 5592403
0.11259315 0.095764287 0.44426832 5395024
0.11351624 0.095867075 0.44474518 4671302
0.11445028 0.095977604 0.44525796 5000267
0.1153991 0.0960989 0.44582066 5460561
0.11635031 0.096220493 0.44638476 5592147
0.11730393 0.0963424 0.44695032 5197902
0.11825997 0.096464612 0.44751728 4737095
0.11921844 0.096587136 0.4480857 5197646
0.12023344 0.096753508 0.44885752 6447970
0.12148838 0.097109437 0.45050874 7105644
0.12255906 0.097314335 0.45145929 7105644
0.12367801 0.097554609 0.45257396 6908265
0.12481762 0.097807899 0.45374903 6513507
0.12596314 0.098062508 0.45493022 5855832
0.12711464 0.098318443 0.45611754 6313806
0.075654224 0.11050102 0.50838053 6574403
0.076292783 0.11009916 0.50653172 6574404
0.076619975 0.1092628 0.50268388 6640453
0.076881573 0.10835356 0.49850073 7365981
0.077146858 0.10747048 0.49443799 7828335
0.077753849 0.10707816 0.49263304 7365981
0.07835643 0.1066887 0.49084124 6640454
0.078954637 0.10630205 0.4890624 6574403
0.079613924 0.10600528 0.48769706 6574403
0.080316924 0.10577256 0.48662639 6574146
0.081016846 0.10554086 0.48556042 6044721
0.081713706 0.10531018 0.4844991 5448732
0.082388155 0.10505579 0.48332876 5579796
0.08302398 0.10475801 0.48195875 5118484
0.083656222 0.10446192 0.48059651 5118228
0.084295489 0.10418057 0.47930217 5118228
0.084938124 0.10390908 0.47805306 5118228
0.085577361 0.10363892 0.47681016 4987672
0.086209826 0.10336601 0.47555459 4269871
0.086838953 0.10309453 0.47430557 4139316
0.087466426 0.10282639 0.47307196 4726561
0.088097312 0.1025674 0.47188047 4074038
0.088724084 0.10230863 0.47068992 4204336
0.089336246 0.10203809 0.46944523 4465706
0.089945182 0.10176896 0.46820709 4400171
0.090550914 0.10150126 0.46697545 3551814
0.091153465 0.10123496 0.46575028 4533298
0.091751553 0.10096861 0.46452489 6046265
0.092340231 0.10069681 0.46327445 6573890
0.092929952 0.10043102 0.46205163 6574403
0.093498372 0.10014714 0.4607456 6574403
0.094063587 0.09986487 0.45944694 6574403
0.094625629 0.099584177 0.45815557 6574403
0.09518452 0.099305063 0.45687145 6574403
0.095740281 0.0990275 0.45559448 6574403
0.09632162 0.0987809 0.45445994 6574403
0.097031012 0.098668672 0.45394361 6574403
0.097709186 0.098526835 0.45329109 6574403
0.098385163 0.098385163 0.45263928 6574403
0.099055961 0.098240681 0.45197457 6574403
0.099724792 0.098096631 0.45131183 6574403
0.10039166 0.097952999 0.45065102 6574403
0.10105658 0.097809784 0.44999215 6574403
0.10171957 0.097666994 0.44933522 6574403
0.10238062 0.097524621 0.44868019 6574403
0.10303974 0.097382657 0.44802707 6574403
0.10369695 0.097241104 0.44737583 6574403
0.10435225 0.097099967 0.4467265 6574403
0.10498128 0.09693674 0.44597554 6574660
0.10560621 0.096772231 0.44521868 6377798
0.10622902 0.096608281 0.44446442 5852998
0.10688241 0.096474379 0.44384837 6182479
0.1076804 0.096472032 0.44383758 5789008
0.10847837 0.096469693 0.44382679 5657938
0.10927629 0.096467346 0.44381601 5592403
0.11007417 0.096464999 0.44380522 5592403
0.11087202 0.096462652 0.44379443 5592659
0.1117908 0.096564807 0.44426441 5526611
0.11271301 0.096668452 0.44474125 5132110
0.11365136 0.096784368 0.44527453 4605509
0.11459919 0.096906684 0.44583726 5329232
0.11554942 0.097029306 0.44640142 5789782
0.11650207 0.097152241 0.44696701 5987162
0.11745713 0.097275488 0.44753402 5460817
0.11841461 0.097399049 0.44810247 5329232
0.11937453 0.097522922 0.44867238 6119005
0.12039089 0.097690925 0.44944531 6710886
0.12151411 0.097942814 0.45060417 6908265
0.12264314 0.098196 0.45176899 6710886
0.12377802 0.098450504 0.4529399 6645093
0.1249188 0.098706327 0.45411685 6513506
0.12606551 0.098963484 0.45529994 5790039
0.1301091 0.10147668 0.46686238 6969419
0.075590432 0.11132409 0.50795186 6574403
0.07629782 0.11102018 0.50656515 6574403
0.076797284 0.1104245 0.50384718 6574660
0.077122815 0.10959557 0.50006497 6772297
0.077381648 0.10869215 0.49594277 7827820
0.077808365 0.10804247 0.49297842 7695977
0.078411162 0.10764923 0.49118412 6904142
0.079009593 0.10725883 0.4894028 6574403
0.079673335 0.10696476 0.48806101 6574403
0.080363445 0.10671212 0.48690826 6508097
0.081060313 0.10647382 0.48582095 5912622
0.081757456 0.10624097 0.4847585 5382681
0.082451545 0.10600913 0.48370066 6107406
0.083120525 0.1057502 0.48251918 6041357
0.083753221 0.10545094 0.48115376 5184020
0.084392324 0.10516582 0.47985277 5118228
0.085035436 0.10489143 0.47860077 5118228
0.085675202 0.10461847 0.4773553 5118229
0.086310849 0.10434595 0.47611186 4726560
0.086940452 0.10407157 0.47485992 4335149
0.087566756 0.10379864 0.47361457 4922395
0.088189773 0.10352713 0.47237572 4530984
0.088814586 0.10326289 0.47117007 4400171
0.089434318 0.10299782 0.46996057 4139315
0.090043657 0.10272586 0.46871969 3747648
0.090649791 0.10245535 0.46748537 3551814
0.091247499 0.10218038 0.46623075 4729905
0.091839686 0.10190431 0.4649711 6178365
0.092428684 0.10162973 0.46371824 6706248
0.093024828 0.10136786 0.46252337 6706247
0.093614623 0.1011038 0.46131849 6640196
0.094180219 0.10081847 0.46001661 6574403
0.094742626 0.10053475 0.45872205 6574403
0.095301874 0.10025262 0.45743474 6574403
0.095857993 0.099972077 0.45615464 6574403
0.096411012 0.09969309 0.4548817 6574403
0.097103663 0.099561982 0.45428348 6574403
0.097811982 0.099449001 0.45376796 6574403
0.098516673 0.09933424 0.45324433 6574403
0.099191673 0.099191673 0.45259383 6574403
0.099864744 0.099049523 0.45194522 6574403
0.10053588 0.098907769 0.45129842 6574403
0.1012051 0.098766424 0.45065349 6574403
0.10187083 0.098623954 0.45000342 6574403
0.10253265 0.098479971 0.44934645 6574403
0.10319252 0.098336399 0.44869137 6574403
0.10385048 0.098193258 0.44803822 6574403
0.10450653 0.098050527 0.44738698 6574403
0.10516067 0.097908206 0.44673759 6574403
0.10581291 0.09776631 0.44609013 6574403
0.10643853 0.097602122 0.44534099 6443590
0.1070601 0.097436726 0.44458631 6181448
0.10772687 0.097314611 0.44402912 5985872
0.10852518 0.097312249 0.44401833 5723473
0.10932344 0.09730988 0.44400752 5592403
0.11012167 0.097307511 0.44399673 5658196
0.11098845 0.09736532 0.44426051 5921368
0.1119098 0.097469829 0.44473734 6052956
0.11285236 0.097591192 0.4452911 5723991
0.11379922 0.097714528 0.44585386 4868938
0.11474849 0.097838178 0.44641808 6118748
0.11570015 0.097962141 0.4469837 6381920
0.11665422 0.098086424 0.44755077 6381920
0.11759832 0.098200656 0.44807199 5987419
0.11854225 0.098313205 0.44858551 6447970
0.11951277 0.098446116 0.44919196 6579300
0.12051133 0.098600179 0.44989493 6710886
0.12161194 0.098835118 0.45096692 6579300
0.12274212 0.099090815 0.45213363 5131854
0.12387818 0.099347845 0.45330641 6316128
0.12502015 0.099606216 0.4544853 6513507
0.12756626 0.10097264 0.46072006 5657165
0.1300659 0.10228484 0.46670738 6969676
0.075526744 0.11214577 0.50752389 6574403
0.076233707 0.11183987 0.50613952 6574403
0.076936834 0.11153564 0.50476271 6574403
0.077296473 0.11074641 0.50119096 6640454
0.077616572 0.10991943 0.49744841 7234137
0.07787662 0.10902727 0.49341089 7762284
0.078465976 0.1086111 0.49152747 7300188
0.079092875 0.10825562 0.48991871 6640196
0.07976418 0.10796808 0.48861748 6574403
0.080441669 0.10769513 0.48738217 6508353
0.081129007 0.10744112 0.48623264 6111028
0.081813112 0.1071883 0.4850885 5514007
0.082495615 0.10693876 0.4839592 6436619
0.083186969 0.10670579 0.48290488 6766343
0.083850443 0.10644227 0.48171228 5381651
0.084489383 0.10615332 0.48040465 5184020
0.085132979 0.10587604 0.47914976 5118228
0.085773222 0.1056002 0.47790143 5118228
0.086410142 0.1053258 0.4766596 5118229
0.087042183 0.10505091 0.47541559 4791839
0.087668948 0.10477509 0.47416732 4922395
0.088292435 0.10450071 0.4729256 4922395
0.088912658 0.10422776 0.47169036 4335151
0.089529708 0.1039563 0.47046182 3486536
0.09014073 0.103683 0.46922502 3421258
0.090739727 0.10340109 0.46794918 3943483
0.091335468 0.10312069 0.46668023 5057837
0.09192799 0.10284182 0.46541816 6376000
0.092517316 0.10256444 0.46416289 7102037
0.093111567 0.10229746 0.46295464 7233880
0.093707681 0.10203725 0.46177706 6904655
0.094297141 0.10177445 0.46058771 6640454
0.094859913 0.10148768 0.45928994 6574403
0.095419526 0.10120253 0.45799944 6574403
0.095976003 0.10091898 0.45671621 6574403
0.096529365 0.100637 0.4554401 6574403
0.097176321 0.10045654 0.4546234 6574403
0.097885095 0.10034246 0.45410714 6574403
0.098592252 0.10022864 0.45359203 6574403
0.099297807 0.10011508 0.45307809 6574403
0.099997766 0.099997766 0.45254722 6574403
0.10066961 0.099854477 0.45189872 6574403
0.10133953 0.099711582 0.45125207 6574403
0.10200753 0.099569105 0.45060727 6574403
0.10267363 0.099427037 0.44996431 6574403
0.10333783 0.099285372 0.44932321 6574403
0.10400014 0.099144101 0.44868389 6574403
0.10466057 0.09900324 0.44804642 6574403
0.10531615 0.098859988 0.4473981 6574403
0.10596913 0.09871649 0.4467487 6574403
0.10662022 0.098573409 0.44610119 6574403
0.10726943 0.098430745 0.44545555 6443589
0.10789164 0.098265618 0.44470826 6312777
0.10857204 0.098155528 0.44421002 5920593
0.10937064 0.098153137 0.4441992 5526352
0.11018612 0.098165818 0.4442566 5658195
0.11110982 0.098274022 0.44474629 6250335
0.11205331 0.098398075 0.44530767 6447714
0.1129992 0.098522432 0.44587049 6118749
0.11394554 0.098645426 0.44642711 5855577
0.11488184 0.098758079 0.44693691 6447713
0.11582029 0.098870978 0.44744784 6645093
0.11676087 0.09898413 0.44795993 6710886
0.11770362 0.09909755 0.44847322 6579300
0.11867604 0.099234231 0.44909176 6645093
0.11967307 0.099389501 0.44979444 6710886
0.12067322 0.099545255 0.45049933 6645093
0.12170991 0.09972886 0.45133024 5921370
0.12284127 0.099987082 0.45249885 3947580
0.12397851 0.10024665 0.45367354 6184542
0.12512165 0.10050756 0.45485431 5657683
0.12764333 0.1018652 0.46099842 5786949
0.13002275 0.10309247 0.4665525 6969676
0.074752755 0.11327565 0.50848633 5195070
0.075463176 0.11296608 0.50709671 6574403
0.076169714 0.1126582 0.50571465 6574403
0.076872416 0.112352 0.50434011 6574403
0.077470899 0.11190241 0.50232196 6574403
0.077790417 0.11106493 0.49856257 6838348
0.078105189 0.11023989 0.49485904 7630183
0.078520864 0.10957431 0.4918713 7695976
0.079185471 0.1092671 0.49049225 6904141
0.079857312 0.10897656 0.48918802 6574403
0.080525592 0.10868755 0.48789069 6508610
0.081207864 0.10842347 0.48670524 6309691
0.081892438 0.1081681 0.48555887 5580827
0.082573809 0.10791391 0.48441789 6436619
0.083251975 0.10766093 0.48328227 6436618
0.083926976 0.10740913 0.48215196 5645584
0.084586665 0.1071431 0.48095778 5316115
0.085230745 0.10686292 0.47970003 5381906
0.085871466 0.10658418 0.47844881 5118228
0.086508863 0.10630691 0.47720414 5118229
0.087142944 0.10603107 0.47596592 5118229
0.087771386 0.10575382 0.47472137 5052951
0.088395327 0.10547655 0.47347674 5052951
0.089016005 0.10520073 0.4722386 4726818
0.089633442 0.10492636 0.47100693 3486537
0.090230495 0.10463348 0.46969226 3682371
0.090827532 0.10434604 0.46840197 4530983
0.091423616 0.10406282 0.4671306 5319978
0.092016466 0.10378113 0.46586609 6507585
0.092606112 0.10350095 0.4646084 7365983
0.093198471 0.1032288 0.46338674 7761770
0.09379492 0.10296598 0.46220696 7630183
0.094388343 0.1027045 0.46103317 7299930
0.094977491 0.10244297 0.45985922 6772298
0.095537469 0.10215478 0.45856556 6574403
0.096094295 0.1018682 0.45727912 6574403
0.096648015 0.10158323 0.45599991 6574403
0.097249098 0.10135243 0.45496386 6574403
0.097958311 0.10123725 0.45444682 6574403
0.098665915 0.10112233 0.45393094 6574403
0.099371918 0.10100767 0.45341623 6574403
0.10007631 0.10089326 0.45290267 6574403
0.10077912 0.10077912 0.45239028 6574403
0.10147431 0.10065926 0.45185226 6574403
0.10214301 0.10051523 0.45120573 6574403
0.1028098 0.10037162 0.45056108 6574403
0.10347468 0.10022842 0.44991824 6574403
0.10413767 0.10008562 0.44927725 6574403
0.10479878 0.099943236 0.44863808 6574403
0.10545801 0.099801257 0.44800073 6574403
0.10611536 0.099659674 0.44736519 6574403
0.10677086 0.099518493 0.44673145 6574403
0.10742449 0.099377714 0.44609949 6508867
0.10807562 0.099236719 0.44546658 6508868
0.10872179 0.099093296 0.44482276 6312775
0.10941788 0.098997131 0.44439107 5591373
0.11031167 0.099079937 0.4447628 5855577
0.11124823 0.09919969 0.44530034 6579300
0.1121791 0.099312678 0.44580755 6645093
0.11311208 0.099425919 0.44631588 6447714
0.1140472 0.099539429 0.44682541 6316128
0.11498446 0.099653199 0.44733611 6579300
0.11592386 0.099767223 0.44784796 6776679
0.1168654 0.099881507 0.44836098 6776679
0.11783968 0.100022 0.44899163 6710886
0.11883517 0.10017846 0.44969398 6710886
0.1198338 0.10033542 0.45039856 6710886
0.12083555 0.10049286 0.45110533 6579300
0.12184046 0.10065082 0.45181435 5921370
0.12294059 0.1008848 0.45286468 4934475
0.12407899 0.1011469 0.45404124 5131854
0.12609538 0.10211658 0.45839408 4999495
0.1277205 0.10275885 0.46127716 5918534
0.12997961 0.10389956 0.46639773 6641228
0.074689709 0.11409655 0.50805748 5195070
0.075399697 0.113785 0.50667018 6574403
0.076105826 0.11347515 0.50529045 6574403
0.076808117 0.11316699 0.50391823 6574403
0.077506594 0.11286048 0.5025534 6574403
0.077965043 0.11221559 0.49968177 6574660
0.078279212 0.11138014 0.49596164 7299931
0.078603148 0.11057731 0.49238673 7827821
0.07927829 0.11028097 0.49106717 7563875
0.079950668 0.10998738 0.48975986 6970191
0.080619477 0.10969535 0.4884595 6574403
0.08128687 0.10940773 0.48717874 6442047
0.081971928 0.10914978 0.48603016 5845542
0.082653768 0.10889306 0.48488697 6041358
0.083332404 0.10863753 0.48374915 6502409
0.084007867 0.1083832 0.48261666 5645584
0.084666379 0.10811245 0.48141104 5447698
0.085319065 0.10783983 0.4801971 6041101
0.08596994 0.10757042 0.47899747 5777423
0.086607799 0.10729026 0.47774991 5118228
0.08724235 0.10701155 0.47650886 5118229
0.087873608 0.10673428 0.47527424 5118229
0.088498458 0.10645467 0.47402915 5118229
0.089119591 0.10617597 0.47278813 5052951
0.089737482 0.10589873 0.47155362 4139059
0.090330191 0.10559727 0.47021124 4465449
0.090918735 0.10529658 0.46887234 4987673
0.09151192 0.10500676 0.46758181 5516840
0.092105106 0.10472224 0.46631485 6573378
0.09269508 0.10443925 0.46505475 7432032
0.093285538 0.10416188 0.46381965 7894128
0.093882322 0.10389644 0.46263766 7893614
0.094476067 0.10363234 0.46146166 7828077
0.095066808 0.10336959 0.46029165 7563876
0.095654555 0.10310815 0.45912755 6970193
0.096212886 0.10281979 0.45784345 6574403
0.096766949 0.10253179 0.45656106 6574403
0.09732198 0.10224967 0.45530483 6574403
0.09803164 0.10213338 0.45478699 6574403
0.098739691 0.10201736 0.45427036 6574403
0.099446133 0.10190159 0.45375487 6574403
0.10015098 0.10178609 0.45324057 6574403
0.10085422 0.10167085 0.45272741 6574403
0.10155588 0.10155588 0.45221543 6574403
0.10225594 0.10144115 0.45170459 6574403
0.10294633 0.10131872 0.45115942 6574403
0.1036119 0.10117397 0.45051488 6574403
0.10427557 0.10102963 0.44987217 6574403
0.10493736 0.10088572 0.44923133 6574403
0.10559725 0.10074221 0.44859228 6574403
0.10625528 0.1005991 0.44795504 6574403
0.10691144 0.1004564 0.44731963 6574403
0.10756574 0.10031411 0.44668603 6508867
0.10821818 0.10017222 0.44605419 6508868
0.10886879 0.10003074 0.44542417 6378053
0.10951756 0.099889643 0.44479591 6051150
0.11041755 0.099978074 0.44518968 6645093
0.11134724 0.10009192 0.44569662 6776678
0.11227904 0.10020602 0.44620472 6645093
0.11321297 0.10032039 0.44671398 6447714
0.11414905 0.10043503 0.44722444 6381921
0.11508726 0.10054991 0.44773602 6710886
0.11602762 0.10066507 0.4482488 6776679
0.11700369 0.10080941 0.44889152 6710886
0.11799766 0.10096707 0.44959357 6710886
0.11899475 0.10112523 0.45029783 6710886
0.11999496 0.10128389 0.4510043 6645093
0.12099832 0.10144304 0.451713 5855577
0.12200484 0.10160269 0.4524239 5658198
0.12304005 0.10178396 0.45323107 4144959
0.12456481 0.10236514 0.45581901 4013373
0.12617119 0.10300533 0.45866966 5065288
0.12830389 0.10406406 0.46338406 5984584
0.13051325 0.10517088 0.46831256 6772813
0.074626766 0.11491607 0.50762933 5195070
0.07533633 0.11460254 0.50624436 6574403
0.076042034 0.11429073 0.50486696 6574403
0.076743908 0.1139806 0.503497 6574403
0.07744199 0.11367216 0.5021345 6574403
0.078136295 0.11336538 0.50077933 6574403
0.078454025 0.11252549 0.49706918 6706504
0.078762941 0.11169208 0.4933877 7762027
0.079372697 0.11129914 0.49165195 7893614
0.08004424 0.11100058 0.49033308 7629927
0.080713585 0.11070552 0.48902968 7102293
0.081379376 0.11041202 0.48773319 6640196
0.082051568 0.11013339 0.48650238 6243383
0.082733877 0.10987409 0.48535696 5711893
0.083412983 0.10961602 0.48421693 6304523
0.084088914 0.10935915 0.48308226 6238732
0.084745511 0.10908268 0.481861 5513490
0.085391045 0.10879772 0.4806022 6107148
0.086039983 0.1085228 0.47938773 6568200
0.0866969 0.10826329 0.47824141 5579536
0.087341987 0.10799428 0.47705308 5184020
0.087973706 0.10771415 0.47581562 5118229
0.088601835 0.10743508 0.47458285 5118229
0.089223422 0.10715348 0.47333896 5118229
0.089837827 0.10686869 0.47208092 4922394
0.090430111 0.10656319 0.47073138 4922395
0.091019027 0.10625942 0.46938953 5052950
0.09160459 0.10595738 0.46805531 5713703
0.092193916 0.10566518 0.46676451 6507584
0.092784226 0.10537937 0.46550199 7299932
0.09337277 0.10509671 0.46425337 7827821
0.093969882 0.10482863 0.46306914 7828078
0.094563961 0.10456191 0.46189097 7893872
0.095155023 0.10429656 0.46071878 7893871
0.095743097 0.10403254 0.45955253 7761770
0.096328191 0.10376985 0.45839214 7168087
0.09688618 0.10348269 0.45712361 6640196
0.097437501 0.1031933 0.45584527 6574403
0.098105073 0.10303085 0.45512769 6574403
0.098813578 0.10291373 0.45461029 6574403
0.09952046 0.10279685 0.45409402 6574403
0.10022575 0.10268025 0.45357895 6574403
0.10092943 0.10256392 0.45306504 6574403
0.10163152 0.10244785 0.45255229 6574403
0.10233203 0.10233203 0.4520407 6574403
0.10303095 0.10221647 0.45153025 6574403
0.1037283 0.10210119 0.45102099 6574403
0.10441384 0.10197616 0.45046869 6574403
0.1050763 0.1018307 0.44982612 6574403
0.10573687 0.10168565 0.4491854 6574403
0.10639556 0.10154101 0.44854647 6574403
0.10705239 0.10139679 0.44790938 6574403
0.10770734 0.10125297 0.44727409 6574404
0.10836045 0.10110957 0.44664061 6508868
0.10901171 0.10096657 0.44600892 6378054
0.10966113 0.10082397 0.44537902 6182992
0.11051579 0.10087077 0.44558576 6776679
0.11144642 0.10098574 0.44609362 6776679
0.11237917 0.10110097 0.44660264 6710885
0.11331405 0.10121646 0.4471128 6513507
0.11425107 0.10133222 0.44762415 6579300
0.11519023 0.10144824 0.44813666 6710886
0.11616808 0.10159647 0.44879147 6710886
0.11716052 0.10175533 0.4494932 6710886
0.11815608 0.10191469 0.45019716 6710886
0.11915475 0.10207455 0.4509033 6645093
0.12015656 0.10223491 0.45161167 6447714
0.12116153 0.10239577 0.45232227 5526612
0.12216966 0.10255714 0.45303509 5197647
0.12317799 0.10271653 0.4537392 3684408
0.12463928 0.10324904 0.45609149 4473924
0.12624708 0.10389514 0.45894557 5328716
0.12826161 0.10486535 0.46323138 5919049
0.13122666 0.10659511 0.47087243 6116171
0.074563935 0.1157342 0.50720191 5851969
0.075273082 0.11541872 0.50581932 6574403
0.075978361 0.11510494 0.50444418 6574403
0.076679826 0.11479288 0.50307655 6574403
0.077377491 0.11448249 0.50171632 6574403
0.078071393 0.11417377 0.50036335 6574403
0.078629605 0.11367594 0.49818164 6574404
0.07893791 0.11283215 0.49448374 7168344
0.079468504 0.1123214 0.49224541 7894128
0.08013995 0.11201883 0.49091938 7893615
0.080807902 0.11171803 0.48960114 7761770
0.081474222 0.1114215 0.48830163 7299931
0.082137011 0.11112655 0.48700899 6640198
0.08281415 0.11085704 0.48582786 5978413
0.083493724 0.1105964 0.48468563 6305297
0.084170111 0.11033699 0.48354876 6370315
0.084824793 0.11005473 0.48231179 5711632
0.085471675 0.10976819 0.48105603 5777423
0.086112916 0.10948024 0.47979409 6172940
0.086758479 0.10920346 0.4785811 6172684
0.087412573 0.10894277 0.47743863 5381651
0.08806356 0.10868332 0.47630161 5249811
0.088702939 0.1084147 0.47512439 5118229
0.089327484 0.10813327 0.47389105 5118228
0.089937598 0.10783987 0.4726052 5118229
0.090530261 0.10753125 0.47125268 5052951
0.091119535 0.10722438 0.46990785 5118229
0.091705456 0.10691927 0.46857068 5780009
0.092288055 0.10661588 0.46724111 6441790
0.092873536 0.10632129 0.46595007 6772298
0.093460977 0.1060342 0.46469194 7365982
0.094057612 0.10576256 0.46350145 7498083
0.094652019 0.10549322 0.46232107 7696233
0.095243409 0.10522525 0.46114671 7894128
0.095831797 0.10495864 0.45997828 7893871
0.096417211 0.10469337 0.45881575 7827564
0.096999675 0.10442944 0.4576591 7299930
0.097557366 0.10414352 0.45640606 6640454
0.098178633 0.10392968 0.45546892 6574403
0.098887578 0.10381144 0.45495072 6574403
0.099594899 0.10369346 0.45443368 6574403
0.10030062 0.10357575 0.45391783 6574403
0.10100475 0.10345831 0.45340315 6574403
0.10170729 0.10334114 0.45288965 6574403
0.10240822 0.10322423 0.45237729 6574403
0.10310758 0.10310758 0.45186609 6574403
0.10380536 0.1029912 0.45135605 6574403
0.10450157 0.10287508 0.45084718 6574403
0.10519621 0.10275923 0.45033944 6574403
0.10587686 0.10263159 0.44978008 6574403
0.10653622 0.10248542 0.44913948 6574403
0.10719372 0.10233966 0.44850069 6574403
0.10784934 0.10219432 0.44786373 6574660
0.1085031 0.10204939 0.44722858 6509124
0.10915501 0.10190486 0.44659522 6378311
0.10980508 0.10176075 0.44596365 6116684
0.11061421 0.10176507 0.44598258 6710886
0.11154577 0.10188116 0.44649133 6776679
0.11247947 0.10199751 0.44700125 6776679
0.1134153 0.10211413 0.44751233 6776678
0.11435327 0.10223102 0.44802457 6710886
0.11533284 0.10238319 0.44869146 6710886
0.11632375 0.10254324 0.44939288 6645093
0.11731777 0.10270379 0.45009652 6513507
0.11831491 0.10286485 0.45080236 6645093
0.11931518 0.10302642 0.4515104 6710886
0.12031578 0.10318608 0.4522101 6645093
0.12128485 0.10331672 0.45278266 6381921
0.12227956 0.10346732 0.45344263 5197647
0.12341984 0.10373827 0.45463008 3750201
0.12471383 0.10413399 0.4563643 4605510
0.12632307 0.10478602 0.45922181 5460046
0.12866747 0.10603541 0.46469721 6050636
0.1319479 0.10803501 0.47346044 5525065
0.074548788 0.11662541 0.50709891 5851969
0.07521297 0.11623822 0.50541538 6574403
0.075914793 0.11591779 0.50402212 6574403
0.07661584 0.11560378 0.50265676 6574403
0.077313103 0.11529146 0.50129879 6574403
0.078006603 0.11498083 0.49994811 6574403
0.078696378 0.11467187 0.49860471 6574403
0.079113655 0.1139773 0.49558467 6706504
0.079564534 0.11334613 0.49284026 7366239
0.080236539 0.11304042 0.49151105 7893614
0.080904923 0.11273637 0.49018899 7893871
0.081569724 0.11243395 0.48887402 7827821
0.082232602 0.11213537 0.48757577 7563619
0.082894579 0.11184189 0.48629969 6771785
0.083574615 0.11157868 0.48515522 5977897
0.084251471 0.11131671 0.48401615 6701072
0.084904224 0.1110286 0.48276344 6238731
0.085551508 0.11073926 0.48150533 5513745
0.086195163 0.11045109 0.48025236 5975053
0.086832359 0.11016046 0.47898865 5777167
0.087474562 0.10988183 0.47777718 5645328
0.088125855 0.10961996 0.47663853 6172939
0.088774055 0.10935934 0.47550532 5513489
0.089419179 0.10909995 0.47437748 5118228
0.090037562 0.10881317 0.47313049 5118228
0.090630621 0.10850145 0.47177511 5118228
0.09122026 0.10819147 0.4704273 5118485
0.091806538 0.10788326 0.46908718 5846316
0.092389494 0.10757681 0.46775469 6442047
0.092969142 0.10727209 0.46642974 6574146
0.093550786 0.10697512 0.46513847 6706504
0.094145499 0.10669824 0.46393457 6772297
0.094740242 0.10642626 0.46275198 7035986
0.095331952 0.10615566 0.46157542 7564132
0.095920667 0.10588645 0.46040484 7894128
0.096506394 0.10561859 0.45924014 7893872
0.097089179 0.10535208 0.45808136 7762027
0.09766902 0.10508692 0.4569284 7102293
0.098252289 0.10482985 0.45581064 6574660
0.098961681 0.10471049 0.45529166 6574403
0.099669456 0.1045914 0.45477384 6574403
0.10037563 0.10447259 0.45425725 6574403
0.10108019 0.10435405 0.45374179 6574403
0.10178316 0.10423577 0.45322752 6574403
0.10248454 0.10411776 0.45271438 6574403
0.10318433 0.10400002 0.45220244 6574403
0.10388254 0.10388254 0.45169163 6574403
0.10457917 0.10376532 0.45118198 6574403
0.10527424 0.10364838 0.45067349 6574403
0.10596774 0.1035317 0.45016614 6574403
0.10665967 0.10341527 0.44965991 6574403
0.10733541 0.10328501 0.44909355 6574403
0.1079917 0.10313814 0.44845492 6574660
0.10864612 0.10299168 0.44781807 6574661
0.10929868 0.10284562 0.44718304 6509898
0.10994941 0.1027 0.44654983 6379858
0.1107128 0.10266095 0.44638008 6710886
0.1116453 0.10277817 0.44688973 6776679
0.11257995 0.10289565 0.44740057 6842472
0.11351674 0.10301341 0.44791257 6776679
0.11449797 0.10316955 0.4485915 6645093
0.11548736 0.1033308 0.4492926 6381921
0.11647984 0.10349254 0.44999591 5921370
0.11747545 0.10365481 0.45070145 6052956
0.11845101 0.10379727 0.45132089 6776679
0.1194158 0.10392843 0.45189118 6842472
0.12038305 0.10405993 0.45246294 6316128
0.1213823 0.10421713 0.45314646 5723991
0.12251949 0.10448986 0.45433235 4737096
0.12366264 0.10476404 0.45552447 4210752
0.12481181 0.10503965 0.45672286 4802889
0.12639914 0.10567798 0.45949838 5328460
0.12945922 0.10753127 0.46755669 6379085
0.075262398 0.11722689 0.50574756 6574403
0.075920679 0.11683602 0.50406122 6574403
0.076571651 0.11644328 0.50236684 6574403
0.077248819 0.1160991 0.50088197 6574403
0.077941917 0.11578654 0.49953353 6574403
0.078631297 0.11547567 0.49819234 6574403
0.079290189 0.11512756 0.49669051 6574403
0.079660803 0.11437333 0.49343657 6772299
0.08033336 0.11406449 0.49210414 7299931
0.081002288 0.11375731 0.49077889 7827821
0.081667624 0.11345179 0.48946077 7893872
0.0823294 0.11314789 0.4881497 7827821
0.082988732 0.11284711 0.48685205 7431775
0.08365567 0.11256287 0.48562574 6574146
0.084332727 0.11229799 0.48448297 6242347
0.084983803 0.11200429 0.48321593 6372118
0.085631482 0.11171214 0.48195547 5513746
0.086275794 0.1114215 0.4807016 5975053
0.086915158 0.11113033 0.4794454 5447954
0.087549403 0.11083841 0.47818595 5909006
0.088188238 0.11055794 0.47697595 6700295
0.088836752 0.1102949 0.47584113 6502409
0.089482173 0.1100331 0.47471169 5381906
0.090121314 0.10976861 0.47357059 5118228
0.090711698 0.10945027 0.47219718 5118228
0.091304295 0.10914049 0.47086069 5184279
0.091893546 0.10883245 0.46953174 5912623
0.09247949 0.10852616 0.46821031 6442304
0.093062133 0.10822158 0.46689627 6574146
0.093641527 0.10791871 0.46558961 6574403
0.094240203 0.10764325 0.46440125 6574660
0.094835617 0.10736896 0.46321785 6640454
0.095427997 0.10709605 0.46204045 6904141
0.096017376 0.10682453 0.46086904 7432031
0.096603781 0.10655438 0.45970356 7893871
0.097187214 0.10628559 0.45854393 7893871
0.097767718 0.10601816 0.45739016 7762028
0.098345309 0.10575207 0.45624217 6838605
0.099028133 0.10560261 0.45559737 6640196
0.099740773 0.10548715 0.45509925 6574403
0.10045073 0.10537077 0.45459715 6574403
0.10115574 0.10525111 0.45408091 6574403
0.10185914 0.10513173 0.45356587 6574403
0.10256096 0.10501262 0.45305198 6574403
0.10326119 0.10489377 0.45253927 6574403
0.10395983 0.10477521 0.45202771 6574403
0.1046569 0.1046569 0.45151731 6574403
0.10535239 0.10453886 0.45100805 6574403
0.10604631 0.10442109 0.45049995 6574403
0.10673868 0.10430358 0.44999298 6574403
0.10742948 0.10418633 0.44948715 6574403
0.10811874 0.10406935 0.44898248 6574404
0.10878952 0.10393646 0.44840914 6574660
0.10944275 0.10378888 0.44777244 6641741
0.11009412 0.10364171 0.44713753 6709336
0.11081155 0.10355844 0.44677827 6776421
0.11174502 0.10367679 0.44728887 6776679
0.11268061 0.1037954 0.44780061 6710886
0.11366347 0.10395557 0.44849157 6316128
0.11465134 0.104118 0.44919237 5789784
0.11563539 0.10427472 0.4498685 5000268
0.11659354 0.10440606 0.45043513 5263440
0.11755411 0.10453774 0.45100322 6250335
0.1185171 0.10466974 0.45157272 6447714
0.11948252 0.10480208 0.45214367 6776679
0.12048621 0.10496596 0.45285067 5921370
0.12162031 0.10524047 0.45403501 4605510
0.12276037 0.10551643 0.45522559 4671303
0.1239064 0.10579384 0.45642239 4605510
0.12505849 0.10607271 0.45762551 5066061
0.1268121 0.10685479 0.46099961 5459530
