# .PCD v0.7 - Point Cloud Data file format
VERSION 0.7
FIELDS x y z rgb
SIZE 4 4 4 4
TYPE F F F U
COUNT 1 1 1 1
WIDTH 1129
HEIGHT 1
VIEWPOINT 0 0 0 1 0 0 0
POINTS 1129
DATA ascii
-0.017327633 0.10100742 0.4685922 8816262
-0.016493514 0.10107564 0.4689087 8816262
-0.015658269 0.10114396 0.46922562 8816262
-0.014821876 0.10121224 0.46954238 8816262
-0.01398435 0.10128059 0.46985948 8816262
-0.013145691 0.10134904 0.47017702 8816262
-0.012305899 0.10141758 0.47049499 8816262
-0.011464969 0.10148621 0.47081339 8816262
-0.010622901 0.10155494 0.47113222 8816262
-0.0097856959 0.10168614 0.47174093 8947848
-0.0089479862 0.10183661 0.47243896 9013641
-0.0081077944 0.10198752 0.47313905 8882055
-0.0072651086 0.10213888 0.47384125 8553088
-0.0064199176 0.10229069 0.47454551 8355451
-0.0055722101 0.10244294 0.47525185 8355708
-0.0047219759 0.10259566 0.47596034 8355708
-0.0038692027 0.10274883 0.47667092 8421244
-0.0030149643 0.10293949 0.47755545 8420988
-0.0021586407 0.10318302 0.47868523 8947848
-0.0012984708 0.10344484 0.47989985 8947848
-0.00043821803 0.10473411 0.485881 9408399
0.0004401234 0.10518949 0.4879936 9539985
-0.055482168 0.10365273 0.47687373 8421504
-0.054491419 0.10340498 0.47573388 8421504
-0.053513568 0.10317416 0.47467196 8421504
-0.052542195 0.10294852 0.47363389 8421504
-0.051573828 0.10272143 0.47258908 8421504
-0.050579768 0.10243466 0.47126973 8487297
-0.049650855 0.10227228 0.47052267 8553090
-0.048753042 0.10216942 0.47004947 7894909
-0.047857031 0.10206677 0.46957719 2629716
-0.046962824 0.10196432 0.4691059 720965
-0.046080995 0.10188551 0.46874326 720964
-0.045214787 0.10183891 0.4685289 655428
-0.044349372 0.10179237 0.46831477 655428
-0.043484747 0.10174587 0.46810082 655428
-0.042620908 0.1016994 0.46788704 655428
-0.041757863 0.10165298 0.46767348 655428
-0.040895604 0.10160661 0.46746013 655428
-0.04003413 0.10156027 0.46724695 655428
-0.039173443 0.10151397 0.46703395 655428
-0.038313542 0.10146773 0.46682119 655428
-0.037454419 0.10142151 0.46660858 655428
-0.036596179 0.10137562 0.46639743 655428
-0.035740744 0.10133552 0.46621296 720964
-0.034894709 0.10132078 0.46614513 720965
-0.03406075 0.10134125 0.4662393 720965
-0.033226456 0.10136172 0.46633351 720965
-0.032391828 0.10138221 0.46642777 720966
-0.031555697 0.10139897 0.4665049 720966
-0.030718381 0.10141274 0.4665682 720966
-0.029880835 0.1014265 0.4666315 720966
-0.029043062 0.10144026 0.46669483 720967
-0.028205061 0.10145403 0.46675816 720967
-0.027366834 0.1014678 0.46682152 720967
-0.026528377 0.10148157 0.46688488 720967
-0.025689695 0.10149536 0.4669483 720967
-0.024850784 0.10150913 0.46701169 720967
-0.024011644 0.10152292 0.46707511 720967
-0.023173882 0.10154374 0.46717089 720966
-0.022340678 0.10158686 0.46736926 720966
-0.021506766 0.10163002 0.46756783 720966
-0.020672144 0.1016732 0.46776652 720967
-0.019841297 0.10173941 0.46807113 1313356
-0.019009802 0.10180805 0.46838692 4011617
-0.018177185 0.10187679 0.46870315 8816262
-0.017343445 0.10194562 0.4690198 8816262
-0.016508576 0.10201453 0.46933687 8816262
-0.015672578 0.10208355 0.46965438 8816262
-0.014835447 0.10215265 0.46997231 8816262
-0.013997182 0.10222185 0.47029066 8816262
-0.013157781 0.10229114 0.47060946 8816262
-0.012317242 0.10236053 0.4709287 8816262
-0.011475561 0.10243001 0.47124836 8750469
-0.010635846 0.10252956 0.47170636 8684676
-0.0097956806 0.1026417 0.47222227 8816262
-0.0089552822 0.10277253 0.47282416 8816262
-0.0081144152 0.10292495 0.4735254 8882055
-0.0072710495 0.10307782 0.47422874 8552832
-0.0064251754 0.10323115 0.47493416 8355452
-0.0055767805 0.10338493 0.47564167 8420988
-0.0047258548 0.10353918 0.47635129 8421244
-0.0038723859 0.10369389 0.47706306 8420988
-0.0030181566 0.10391083 0.47806111 8684418
-0.0021612891 0.10417414 0.47927254 8947848
-0.0013000679 0.10443879 0.48049012 8947848
-0.00043445971 0.10470479 0.48171392 9079434
0.00043878175 0.1057464 0.48650604 9539985
0.0013220761 0.10620678 0.4886241 8092539
-0.055574242 0.10468636 0.4776651 8421504
-0.054581635 0.10443573 0.47652149 8421504
-0.053593766 0.10418628 0.47538331 8421504
-0.052617222 0.1039511 0.47431022 8421504
-0.051648546 0.10372394 0.47327372 8421504
-0.050684091 0.10349777 0.47224176 8421504
-0.049723838 0.10327259 0.47121429 8421247
-0.048776865 0.10306764 0.47027913 8092541
-0.047888111 0.10298064 0.46988216 2761300
-0.047018975 0.10293343 0.46966678 852549
-0.046150628 0.10288627 0.46945158 720964
-0.045283079 0.10283915 0.46923658 655428
-0.044416327 0.10279208 0.4690218 655428
-0.043550365 0.10274504 0.46880719 655428
-0.042685103 0.10269782 0.46859175 655428
-0.041820623 0.10265062 0.46837637 655428
-0.040956937 0.10260346 0.4681612 655428
-0.040094044 0.10255634 0.4679462 655428
-0.039231945 0.10250928 0.46773145 655428
-0.038370635 0.10246225 0.46751687 655428
-0.037510116 0.10241526 0.46730247 655428
-0.036649529 0.10236593 0.46707737 720965
-0.035785705 0.10230502 0.46679944 720965
-0.034933858 0.10227624 0.46666813 720965
-0.034094103 0.10228231 0.46669585 720966
-0.033255938 0.10229359 0.46674728 720966
-0.032418415 0.10230747 0.46681064 720967
-0.031580668 0.10232136 0.46687403 720967
-0.03074269 0.10233526 0.46693742 720967
-0.029904483 0.10234915 0.46700081 720967
-0.02906605 0.10236305 0.46706423 720967
-0.028227391 0.10237695 0.46712768 720967
-0.027388502 0.10239086 0.46719113 720967
-0.026549386 0.10240477 0.46725461 720967
-0.025710041 0.10241869 0.46731812 720967
-0.024870468 0.10243261 0.46738163 720967
-0.024033874 0.1024602 0.46750751 720966
-0.023200436 0.10250375 0.4677062 720966
-0.022366287 0.10254732 0.46790501 720966
-0.021531431 0.10259093 0.46810403 720966
-0.020695863 0.10263459 0.4683032 720966
-0.019859584 0.10267828 0.46850255 1181770
-0.019027142 0.10274656 0.46881413 3551069
-0.018193776 0.10281599 0.46913093 8816262
-0.017359285 0.10288551 0.46944815 8816262
-0.016523663 0.10295513 0.46976581 8816262
-0.015686911 0.10302485 0.47008389 8816262
-0.014849024 0.10309465 0.47040242 8816262
-0.014010001 0.10316455 0.47072136 8816262
-0.01316984 0.10323455 0.47104076 8750469
-0.012331152 0.10332655 0.47146052 8684676
-0.011493279 0.10343951 0.47197592 8618883
-0.01065357 0.10355271 0.47249243 8618883
-0.0098120226 0.10366615 0.47301006 8618883
-0.0089686289 0.10377984 0.47352883 8618883
-0.0081233829 0.10389379 0.47404876 8487297
-0.0072770007 0.1040183 0.47461686 8355452
-0.006430442 0.10417316 0.47532344 8355452
-0.0055813584 0.10432847 0.47603211 8421244
-0.0047297399 0.10448425 0.47674289 8421244
-0.0038758707 0.10464851 0.47749239 8421244
-0.0030218549 0.10490153 0.47864687 8947848
-0.0021639441 0.10516769 0.47986129 8947848
-0.0013016689 0.10543519 0.48108184 8947848
-0.00043499612 0.10570405 0.48230866 8947848
0.0004374483 0.10629994 0.48502755 9539985
0.0013180409 0.10676131 0.48713273 9539985
-0.055666622 0.10572343 0.47845912 8421504
-0.054672144 0.10546988 0.47731167 8421504
-0.053682424 0.10521755 0.47616974 8421504
-0.052697431 0.10496643 0.47503325 8421504
-0.051722243 0.10472686 0.47394904 8421504
-0.050756257 0.10449817 0.47291413 8421504
-0.049794476 0.10427049 0.47188371 8421504
-0.048836883 0.1040438 0.4708578 8224126
-0.047959045 0.103982 0.47057816 3419481
-0.04708847 0.10393401 0.47036096 1050439
-0.046218693 0.10388605 0.47014394 721220
-0.045349725 0.10383815 0.46992716 655428
-0.044481553 0.10379029 0.46971056 655428
-0.043614183 0.10374247 0.46949416 655428
-0.042747609 0.1036947 0.46927795 655428
-0.041881837 0.10364697 0.46906194 655428
-0.041016858 0.10359929 0.46884614 655428
-0.040152676 0.10355164 0.46863052 655428
-0.039286204 0.10349591 0.46837831 720965
-0.038418401 0.10343416 0.46809885 720965
-0.037551634 0.10337247 0.46781969 720965
-0.036685899 0.10331087 0.46754089 720965
-0.035828829 0.10327133 0.46736196 720965
-0.034978546 0.10324993 0.4672651 720965
-0.034128617 0.10322853 0.46716827 720965
-0.033288382 0.10323612 0.46720263 720966
-0.032448087 0.10324391 0.46723786 720966
-0.031607661 0.1032517 0.46727309 720966
-0.030767109 0.10325947 0.46730831 720966
-0.02992817 0.10327327 0.46737072 720967
-0.029089078 0.1032873 0.46743426 720967
-0.028249756 0.10330135 0.4674978 720967
-0.027410204 0.10331538 0.46756133 720967
-0.026570426 0.10332943 0.46762493 720967
-0.025730418 0.10334349 0.4676885 720967
-0.024895107 0.10337798 0.46784464 720966
-0.024061432 0.10342195 0.4680436 720966
-0.023227051 0.10346595 0.46824273 720966
-0.022391956 0.10350998 0.46844202 720966
-0.021556152 0.10355406 0.46864149 720966
-0.020719634 0.10359817 0.46884111 720966
-0.019882405 0.10364233 0.46904093 1050185
-0.019044511 0.10368679 0.46924213 2958936
-0.018210396 0.10375691 0.46955949 8750470
-0.017375153 0.10382713 0.4698773 8816262
-0.016538778 0.10389745 0.47019553 8816262
-0.01570127 0.10396787 0.47051421 8816262
-0.014862626 0.10403838 0.4708333 8750469
-0.014024692 0.10412271 0.47121495 8684676
-0.013189104 0.10423648 0.47172979 8618883
-0.01235169 0.10435048 0.47224575 8618883
-0.011512442 0.10446475 0.47276288 8618883
-0.010671354 0.10457926 0.47328112 8618883
-0.0098284185 0.10469402 0.47380048 8618883
-0.0089836325 0.10480905 0.47432101 8618883
-0.0081369877 0.10492431 0.47484267 8487297
-0.0072884783 0.10503983 0.47536546 8224123
-0.0064380988 0.10515562 0.47588944 8026486
-0.0055859443 0.10527356 0.4764232 8223864
-0.0047336314 0.10543088 0.47713515 8421244
-0.0038801765 0.10562703 0.47802284 8684418
-0.003025562 0.10589467 0.47923407 8684675
-0.0021666056 0.10616367 0.48045146 8684675
-0.0013034837 0.10645118 0.48175257 8224122
-0.00043569106 0.10674431 0.4830792 8421501
0.0004370324 0.10707294 0.48456642 8355451
0.0013168998 0.10754682 0.486711 8355451
0.0022040238 0.10799717 0.48874909 6052954
-0.055759307 0.10676395 0.47925577 7237230
-0.054762956 0.10650748 0.4781045 8421504
-0.05377138 0.10625225 0.47695878 8421504
-0.052784543 0.10599823 0.47581851 8421504
-0.051802415 0.10574543 0.4746837 8421504
-0.050828625 0.10550143 0.47358841 8421504
-0.04986532 0.10527124 0.47255507 8421504
-0.048906211 0.10504204 0.47152624 8289919
-0.048029575 0.104985 0.4712702 4077662
-0.047157686 0.10493647 0.47105235 1313353
-0.046286605 0.10488799 0.47083473 721220
-0.045416325 0.10483956 0.47061729 655428
-0.044546846 0.10479116 0.47040004 655428
-0.043678176 0.10474281 0.47018301 655428
-0.042810302 0.1046945 0.46996617 655428
-0.041937605 0.10463221 0.46968654 720965
-0.041065793 0.10456959 0.46940547 720965
-0.040195026 0.10450707 0.46912479 720965
-0.039325297 0.10444461 0.46884441 720965
-0.038456611 0.10438222 0.46856439 720965
-0.037588958 0.10431992 0.4682847 720965
-0.036726464 0.10426939 0.46805784 720965
-0.035874732 0.10424775 0.46796072 720965
-0.03502335 0.10422611 0.46786359 720965
-0.034172323 0.10420448 0.46776652 720965
-0.033322055 0.10418414 0.46767521 720965
-0.03248091 0.10419201 0.46771052 720966
-0.031639636 0.10419987 0.46774581 720966
-0.030798238 0.10420774 0.46778113 720966
-0.029956713 0.10421561 0.46781644 720966
-0.02911506 0.10422347 0.46785176 720966
-0.028273279 0.10423134 0.46788707 720966
-0.027431943 0.10424138 0.46793213 720966
-0.0265915 0.10425556 0.46799582 720966
-0.025757583 0.1042971 0.46818227 720966
-0.024923675 0.10434148 0.46838149 720966
-0.024089055 0.1043859 0.4685809 720966
-0.023253726 0.10443037 0.46878049 720966
-0.022417685 0.10447487 0.46898025 720966
-0.021580929 0.1045194 0.46918017 720966
-0.020743461 0.10456398 0.46938026 720966
-0.019905278 0.1046086 0.46958053 918600
-0.01906638 0.10465324 0.46978095 2563924
-0.018227048 0.10469955 0.46998885 8158337
-0.017391052 0.10477049 0.47030726 8816262
-0.016553922 0.10484151 0.47062606 8816262
-0.015716467 0.10491804 0.47096962 8684676
-0.014883164 0.10503262 0.47148395 8618883
-0.014048039 0.10514744 0.47199938 8618883
-0.013211085 0.10526252 0.47251594 8618883
-0.012372297 0.10537785 0.47303364 8618883
-0.01153167 0.10549342 0.47355247 8618883
-0.010689196 0.10560925 0.47407243 8684676
-0.0098448703 0.10572535 0.47459355 8684676
-0.0089986864 0.10584169 0.47511581 8684676
-0.0081506381 0.10595829 0.47563922 8684676
-0.0073004793 0.10607167 0.47614819 8421503
-0.0064481869 0.10618014 0.4766351 8289658
-0.0055941488 0.10628883 0.47712299 8289659
-0.0047384673 0.10640012 0.4776226 8092280
-0.0038881481 0.10670806 0.47900492 8026230
-0.0030328929 0.10701779 0.48039526 8026230
-0.0021726585 0.10732932 0.4817937 8223609
-0.0013059553 0.10752366 0.48266605 8420988
-0.00043609543 0.10771557 0.48352754 8420987
0.00043779548 0.10813548 0.48541248 8355451
0.0013192093 0.1086149 0.48756456 8355451
-0.055853728 0.10781068 0.48006731 7237230
-0.054869741 0.10757925 0.47903678 8421504
-0.053860627 0.10729037 0.47775042 8421504
-0.052871946 0.10703345 0.4766064 8421504
-0.051887989 0.10677776 0.47546783 8421504
-0.050908718 0.10652328 0.47433469 8421504
-0.049936362 0.10627482 0.47322831 8421504
-0.048975736 0.10604312 0.47219655 8289919
-0.048100315 0.10599096 0.4719643 4735843
-0.047227111 0.10594189 0.47174582 1576523
-0.046354711 0.10589287 0.47152752 721220
-0.045480762 0.10583841 0.47128502 720965
-0.044603858 0.10577486 0.47100207 720965
-0.043728009 0.1057114 0.47071946 720965
-0.042853206 0.105648 0.47043717 720965
-0.041979454 0.10558469 0.47015524 720965
-0.041106749 0.10552145 0.46987364 720965
-0.040235087 0.10545828 0.46959236 720965
-0.039364472 0.1053952 0.46931145 720965
-0.038494896 0.10533218 0.46903086 720965
-0.037626777 0.10527042 0.46875581 720965
-0.036773585 0.10524853 0.46865839 720965
-0.03592075 0.10522667 0.46856099 720965
-0.035068266 0.1052048 0.46846363 720965
-0.034216136 0.10518294 0.4683663 720965
-0.033364363 0.10516109 0.46826902 720965
-0.032513801 0.10514203 0.46818414 720965
-0.031671681 0.10514998 0.46821952 720966
-0.030829431 0.10515792 0.46825489 720966
-0.029987054 0.10516587 0.46829027 720966
-0.029144552 0.10517382 0.46832567 720966
-0.028301921 0.10518176 0.46836105 720966
-0.027459161 0.10518971 0.46839646 720966
-0.026622271 0.10522135 0.46853736 720966
-0.025788005 0.10526579 0.46873522 720966
-0.024953032 0.10531025 0.46893319 720966
-0.024117354 0.10535476 0.46913138 720966
-0.023280969 0.1053993 0.46932971 720966
-0.022443878 0.10544388 0.46952823 720966
-0.021606077 0.10548849 0.46972689 720966
-0.02076757 0.10553315 0.46992576 720966
-0.019928347 0.10557784 0.47012475 787015
-0.019088417 0.10562258 0.47032395 2300755
-0.018247776 0.10566735 0.47052333 7631484
-0.01740698 0.10571556 0.47073796 8684676
-0.016575024 0.10582515 0.47122598 8750469
-0.015740937 0.10593225 0.47170287 8882055
-0.014905159 0.10603956 0.47218072 8882055
-0.014067686 0.10614709 0.47265953 8882055
-0.013228514 0.10625484 0.47313932 8947848
-0.012387635 0.1063628 0.47362006 8947848
-0.011545047 0.10647099 0.47410181 8947848
-0.010700742 0.10657939 0.47458452 8947848
-0.0098547162 0.10668802 0.47506821 8947848
-0.009006965 0.10679687 0.47555292 8947848
-0.0081574814 0.10690594 0.47603858 8882055
-0.0073062605 0.10701523 0.47652525 8618882
-0.006453298 0.10712475 0.47701293 8355451
-0.0056004804 0.10727074 0.47766301 8223609
-0.0047525843 0.10758123 0.47904557 8026230
-0.0038997657 0.10789352 0.48043615 8092023
-0.003039215 0.10810922 0.48139665 8289658
-0.0021747323 0.10830167 0.48225361 8420988
-0.0013071663 0.1084948 0.48311362 8420988
-0.00043663059 0.10872102 0.48412091 8420987
0.00043856123 0.10920174 0.48626152 8355451
0.0013207986 0.10962629 0.48815194 8750467
-0.056839027 0.11059377 0.48853603 7237230
-0.054969203 0.10863992 0.47990513 8421504
-0.054028969 0.10849018 0.47924364 8421504
-0.053091329 0.10834084 0.47858399 8421504
-0.05207824 0.10803007 0.47721118 8421504
-0.051055819 0.10768916 0.47570527 8289918
-0.050039832 0.1073504 0.47420883 8092285
-0.049046595 0.10704952 0.47287974 7829115
-0.048166074 0.10698836 0.47260952 5459817
-0.047285091 0.10692395 0.472325 1773901
-0.046405166 0.1068596 0.47204077 720965
-0.0455263 0.10679534 0.47175691 720965
-0.044648495 0.10673116 0.4714734 720965
-0.04377174 0.10666706 0.47119021 720965
-0.042896036 0.10660303 0.47090736 720965
-0.042021386 0.10653907 0.47062486 720965
-0.041147787 0.1064752 0.47034273 720965
-0.040275231 0.1064114 0.47006088 720965
-0.039403722 0.10634768 0.4697794 720965
-0.038533255 0.10628403 0.46949825 720965
-0.037675124 0.10625231 0.46935815 720965
-0.036820825 0.1062302 0.46926045 720965
-0.035966884 0.10620809 0.46916279 720965
-0.035113297 0.106186 0.46906519 720965
-0.034260068 0.10616391 0.46896762 720965
-0.033407193 0.10614184 0.4688701 720965
-0.032554667 0.10611977 0.46877262 720965
-0.031703789 0.10610201 0.46869418 720965
-0.030860687 0.10611003 0.46872962 720966
-0.03001746 0.10611806 0.46876508 720966
-0.029174104 0.10612608 0.46880054 720966
-0.02833062 0.10613412 0.46883601 720966
-0.027488831 0.10614918 0.46890256 720966
-0.026654281 0.10619404 0.46910071 720966
-0.025819022 0.10623893 0.46929902 720966
-0.02498306 0.10628387 0.4694975 720966
-0.024146389 0.10632884 0.46969616 720966
-0.023309009 0.10637384 0.46989498 720966
-0.022470921 0.10641889 0.47009397 720966
-0.021632124 0.10646398 0.47029313 720966
-0.020792613 0.1065091 0.47049245 720966
-0.019952387 0.10655423 0.47069183 720966
-0.01911141 0.10659919 0.47089043 2168913
-0.018269721 0.10664418 0.47108918 7170936
-0.017427323 0.10668922 0.47128811 8684676
-0.016591555 0.10678154 0.47169596 8750469
-0.0157544 0.10687444 0.47210634 8816262
-0.014916864 0.10697523 0.47255152 8816262
-0.014078745 0.10708378 0.47303107 8947848
-0.013238923 0.10719257 0.47351161 8947848
-0.012397393 0.10730157 0.47399312 8947848
-0.01155415 0.1074108 0.47447562 8947848
-0.010709188 0.10752025 0.47495911 8947848
-0.009862503 0.10762993 0.47544357 8947848
-0.0090140887 0.10773982 0.47592902 8947848
-0.0081639402 0.10784994 0.47641549 8882055
-0.0073120515 0.10796029 0.47690293 8618882
-0.0064626401 0.10814151 0.47770345 8158330
-0.0056171673 0.10845454 0.47908622 8092281
-0.004763382 0.10869171 0.48013392 8289402
-0.0039042321 0.10888469 0.48098639 8355708
-0.0030420257 0.10907836 0.48184186 8421244
-0.0021767472 0.10927271 0.48270041 8420988
-0.0013083796 0.10946775 0.48356199 8420988
-0.00043739224 0.10978545 0.48496538 8355195
0.00043932963 0.11027174 0.48711351 8750467
0.0013212665 0.11054596 0.48832488 9211020
-0.055026561 0.10961984 0.4804059 8421504
-0.054085273 0.10946859 0.47974303 8421504
-0.053146578 0.10931776 0.47908202 8421504
-0.052210469 0.10916734 0.47842282 8421504
-0.051276926 0.10901733 0.47776541 8158078
-0.050324168 0.10882064 0.47690341 7302775
-0.049307935 0.10847746 0.47539943 5262439
-0.048298091 0.10813644 0.47390491 4209503
-0.04733254 0.10788408 0.47279897 2563923
-0.04645171 0.1078191 0.47251421 720965
-0.045571934 0.1077542 0.47222978 720965
-0.04469322 0.10768937 0.47194567 720965
-0.043815561 0.10762463 0.47166193 720965
-0.042938959 0.10755996 0.47137854 720965
-0.042063404 0.10749537 0.47109544 720965
-0.041188907 0.10743086 0.47081274 720965
-0.040315453 0.10736642 0.47053033 720965
-0.03944305 0.10730206 0.47024828 720965
-0.03857936 0.10725909 0.47005999 720965
-0.037723593 0.10723674 0.469962 720965
-0.036868189 0.10721439 0.46986407 720965
-0.036013141 0.10719205 0.46976617 720965
-0.035158444 0.10716972 0.4696683 720965
-0.034304108 0.1071474 0.46957049 720965
-0.033450127 0.10712509 0.46947271 720965
-0.032596502 0.10710279 0.46937498 720965
-0.031743232 0.1070805 0.46927729 720965
-0.030892007 0.10706408 0.46920532 720965
-0.030047925 0.10707218 0.46924084 720966
-0.029203715 0.10708029 0.46927637 720966
-0.028359378 0.10708839 0.46931189 720966
-0.02752191 0.10712374 0.46946681 720966
-0.026686367 0.10716906 0.46966541 720966
-0.025850119 0.10721443 0.46986422 720966
-0.02501316 0.10725982 0.47006318 720966
-0.024175493 0.10730526 0.47026229 720966
-0.023337116 0.10735074 0.47046161 720966
-0.02249801 0.10739616 0.47066066 720966
-0.021658162 0.10744147 0.47085923 720966
-0.020817604 0.10748681 0.47105795 720966
-0.019976338 0.1075322 0.47125688 720966
-0.019134361 0.10757763 0.47145596 2037328
-0.018291671 0.10762309 0.47165519 6710132
-0.017448271 0.10766859 0.4718546 8684676
-0.01661104 0.1077588 0.47224993 8750469
-0.01577292 0.10785267 0.47266129 8750469
-0.014933337 0.10794669 0.47307336 8750469
-0.014092289 0.10804088 0.47348616 8750469
-0.013249773 0.10813524 0.47389966 8816262
-0.012407166 0.10824183 0.47436678 8882055
-0.011563268 0.1083521 0.47485006 8947848
-0.010717648 0.10846259 0.47533429 8947848
-0.0098703019 0.10857332 0.47581953 8947848
-0.0090212235 0.10868426 0.47630575 8947848
-0.0081704082 0.10879543 0.47679296 8750469
-0.0073249447 0.10901242 0.47774386 8553089
-0.0064785271 0.10927115 0.47887778 8487040
-0.0056246663 0.10946466 0.47972581 8355452
-0.004767776 0.10965884 0.48057681 8420988
-0.0039078398 0.10985371 0.48143083 8421243
-0.0030448418 0.11004928 0.48228791 8421243
-0.0021787658 0.11024555 0.48314804 8420988
-0.0013095951 0.11044251 0.48401123 8420988
-0.00043815657 0.11085361 0.48581284 8355195
0.00043972893 0.11125142 0.48755625 9211020
0.0013217347 0.1114663 0.48849794 7829367
-0.055084042 0.11060182 0.48090774 8421504
-0.054141689 0.11044905 0.48024347 8421504
-0.053201944 0.11029671 0.47958109 8421504
-0.05226478 0.11014478 0.47892049 8421504
-0.051330198 0.10999328 0.47826174 8421504
-0.050398178 0.10984219 0.47760478 8421504
-0.049468722 0.10969152 0.47694963 4933221
-0.04854181 0.10954125 0.47629628 1971534
-0.047562297 0.10926474 0.47509399 1182024
-0.046558589 0.10892147 0.4736014 984134
-0.045617659 0.10871498 0.47270358 918342
-0.044738032 0.10864951 0.4724189 720965
-0.043859471 0.10858412 0.47213459 720965
-0.04298196 0.10851881 0.4718506 720965
-0.042105507 0.10845358 0.47156698 720965
-0.041230105 0.10838842 0.47128367 720965
-0.040355757 0.10832335 0.47100073 720965
-0.0394863 0.10826889 0.47076392 720965
-0.03862907 0.10824629 0.47066566 720965
-0.037772194 0.1082237 0.47056744 720965
-0.036915675 0.10820112 0.47046924 720965
-0.036059514 0.10817854 0.4703711 720965
-0.03520371 0.10815597 0.47027296 720965
-0.034348264 0.10813342 0.47017491 720965
-0.033493176 0.10811088 0.47007689 720965
-0.032638442 0.10808834 0.4699789 720965
-0.031784065 0.10806581 0.46988094 720965
-0.030930042 0.1080433 0.46978304 720965
-0.030078452 0.10802824 0.46971756 720966
-0.029233387 0.10803643 0.46975318 720966
-0.028390894 0.1080549 0.46983346 720966
-0.027555067 0.10810065 0.47003239 720966
-0.026718533 0.10814644 0.4702315 720966
-0.025881287 0.10819227 0.47043076 720966
-0.025043296 0.10823797 0.47062948 720966
-0.024204576 0.10828363 0.47082803 720966
-0.023365151 0.10832933 0.47102675 720966
-0.022525014 0.10837507 0.47122562 720966
-0.02168417 0.10842085 0.47142467 720966
-0.020842616 0.10846667 0.4716239 720966
-0.020000348 0.10851252 0.47182328 720966
-0.019157369 0.10855842 0.47202283 1905743
-0.018313676 0.10860436 0.47222257 6249329
-0.017469268 0.10865033 0.47242245 8618883
-0.016630573 0.10873836 0.47280523 8750469
-0.015791481 0.10883319 0.47321755 8750469
-0.014950927 0.10892818 0.47363061 8750469
-0.014108903 0.10902334 0.47404435 8750469
-0.013265407 0.10911867 0.47445884 8750469
-0.012420434 0.10921416 0.47487405 8750469
-0.011573981 0.10930982 0.47529 8750469
-0.01072612 0.10940643 0.47571006 8816262
-0.0098781129 0.10951821 0.47619608 8947848
-0.0090283705 0.10963021 0.47668308 8947848
-0.0081847217 0.10984758 0.47762823 8816262
-0.0073361057 0.11004159 0.47847179 8882055
-0.0064844871 0.11023628 0.47931835 8552832
-0.0056298501 0.11043167 0.48016793 8355451
-0.0047721774 0.11062775 0.48102048 8420987
-0.0039114538 0.11082453 0.48187611 8421243
-0.003047663 0.11102201 0.48273477 8421243
-0.002180788 0.11122019 0.48359647 8420988
-0.0013109692 0.11143239 0.48451912 8420731
-0.00043892354 0.11192551 0.48666325 8750467
0.00043988455 0.11217056 0.48772877 9211020
0.0013222033 0.11238728 0.48867112 6513507
-0.055141643 0.11158584 0.48141059 7237230
-0.054198228 0.11143155 0.48074496 8421504
-0.053257417 0.11127769 0.48008117 8421504
-0.052319206 0.11112426 0.47941923 8421504
-0.051383574 0.11097125 0.47875908 8421504
-0.050450519 0.11081866 0.47810078 8421504
-0.049520023 0.11066649 0.47744426 6249583
-0.048592083 0.11051474 0.47678956 1905742
-0.04766668 0.11036339 0.47613662 655428
-0.04674381 0.11021247 0.4754855 655428
-0.045818903 0.11005101 0.47478893 787013
-0.044821307 0.10970549 0.47329825 786757
-0.043903466 0.10954554 0.47260821 720965
-0.04302505 0.10947958 0.47232366 720965
-0.042147696 0.10941371 0.47203946 720965
-0.041271392 0.10934792 0.47175559 720965
-0.040396143 0.1092822 0.47147205 720965
-0.039537258 0.10925888 0.47137144 720965
-0.038678907 0.10923603 0.47127292 720965
-0.037820917 0.1092132 0.47117442 720965
-0.036963284 0.10919039 0.47107598 720965
-0.036106009 0.10916758 0.47097757 720965
-0.035249092 0.10914478 0.4708792 720965
-0.034392532 0.10912199 0.47078088 720965
-0.03353633 0.1090992 0.47068259 720965
-0.032680489 0.10907643 0.47058436 720965
-0.031825002 0.10905367 0.47048616 720965
-0.030969873 0.10903092 0.470388 720965
-0.0301151 0.10900818 0.47028989 720965
-0.029263118 0.10899451 0.47023094 720965
-0.028425124 0.10903368 0.47039992 720966
-0.027588245 0.10907967 0.47059834 720966
-0.026750656 0.10912569 0.47079685 720966
-0.025912359 0.10917174 0.47099555 720966
-0.025073355 0.10921783 0.47119439 720966
-0.024233641 0.10926396 0.47139341 720966
-0.023393219 0.10931014 0.47159261 720966
-0.022552088 0.10935635 0.47179198 720966
-0.021710243 0.1094026 0.47199151 720966
-0.020867685 0.10944888 0.47219118 720966
-0.020024417 0.10949522 0.47239107 720966
-0.019180432 0.10954158 0.4725911 1774158
-0.018335732 0.10958797 0.47279128 5788781
-0.017490316 0.10963443 0.47299168 8618883
-0.016650151 0.10972023 0.47336185 8750469
-0.015810089 0.10981603 0.47377515 8750469
-0.014968559 0.10991199 0.47418916 8750469
-0.014125557 0.11000812 0.47460389 8750469
-0.013281078 0.11010442 0.47501937 8750469
-0.01243512 0.11020089 0.47543555 8750469
-0.011587678 0.11029752 0.47585246 8750469
-0.010738749 0.11039434 0.47627014 8684676
-0.0098896092 0.11050563 0.47675028 8618883
-0.0090405205 0.11063875 0.47732458 8750469
-0.0081922319 0.11081072 0.4780665 8947848
-0.0073428494 0.1110066 0.47891161 8816262
-0.0064904583 0.11120319 0.47975972 8487038
-0.0056350431 0.11140047 0.48061085 8420986
-0.0047765877 0.11159845 0.48146501 8421243
-0.0039150747 0.11179714 0.48232219 8421243
-0.0030504894 0.11199654 0.48318246 8421244
-0.0021828141 0.11219665 0.48404577 8420988
-0.0013132581 0.11250244 0.48536503 8355195
-0.00043919301 0.1128726 0.48696202 9211020
0.00044004022 0.11309034 0.48790139 9211020
-0.054254882 0.11241612 0.48124751 8421504
-0.053313013 0.11226074 0.48058233 8421504
-0.052373745 0.11210579 0.47991899 8421504
-0.051437069 0.11195126 0.47925749 8421504
-0.050502963 0.11179716 0.47859779 8421504
-0.049571436 0.11164349 0.47793993 7434360
-0.048642457 0.11149023 0.47728384 2563923
-0.047716029 0.1113374 0.47662959 852805
-0.046792135 0.11118498 0.47597709 655428
-0.045870773 0.11103299 0.47532642 655428
-0.044951919 0.1108814 0.47467747 655428
-0.044035576 0.11073024 0.47403035 720964
-0.043086249 0.1104885 0.47299549 655428
-0.042189963 0.11037577 0.47251287 720965
-0.041312758 0.11030933 0.47222844 720965
-0.04044817 0.11027449 0.47207931 720965
-0.039588343 0.1102514 0.47198048 720965
-0.038728874 0.11022833 0.47188172 720965
-0.037869763 0.11020527 0.47178298 720965
-0.037011012 0.11018221 0.47168428 720965
-0.03615262 0.11015917 0.4715856 720965
-0.035294589 0.11013613 0.47148699 720965
-0.034436818 0.11011279 0.47138706 720965
-0.033579309 0.11008912 0.47128576 720965
-0.032722168 0.11006548 0.47118452 720965
-0.031865396 0.11004183 0.47108331 720965
-0.031008992 0.1100182 0.47098216 720965
-0.030152956 0.10999458 0.47088104 720965
-0.029302208 0.10998944 0.47085905 720965
-0.028461734 0.11002371 0.47100577 720965
-0.027622763 0.11006609 0.47118714 720965
-0.026783148 0.11010849 0.4713687 720965
-0.025943486 0.11015349 0.47156131 720965
-0.025103487 0.11020005 0.47176066 720966
-0.024262778 0.11024666 0.47196016 720966
-0.023421356 0.1102933 0.47215983 720966
-0.022579223 0.11033998 0.47235966 720966
-0.021736376 0.1103867 0.47255966 720966
-0.020892816 0.11043346 0.47275984 720966
-0.020048542 0.11048026 0.4729602 720966
-0.019203549 0.1105271 0.47316071 1642317
-0.018357841 0.11057398 0.4733614 5327978
-0.017511416 0.1106209 0.47356227 8618883
-0.016669774 0.11070441 0.47391975 8750469
-0.01582874 0.11080118 0.47433403 8750469
-0.014986232 0.11089811 0.47474903 8750469
-0.014142249 0.11099523 0.47516474 8750469
-0.013296787 0.11109251 0.4755812 8684676
-0.012449841 0.11118995 0.47599837 8684676
-0.011604929 0.11132136 0.47656092 8618883
-0.010758244 0.11145541 0.47713476 8553090
-0.0099095171 0.11158977 0.47770998 8553090
-0.0090587409 0.11172447 0.47828659 8553090
-0.0082059084 0.11185949 0.47886458 8487297
-0.007351012 0.11199483 0.479444 8553090
-0.0064964406 0.11217188 0.48020193 8487036
-0.005640246 0.11237106 0.4810546 8421242
-0.0047810059 0.11257095 0.48191035 8421243
-0.0039187027 0.11277156 0.48276913 8421244
-0.003053321 0.11297288 0.48363099 8420988
-0.0021848441 0.11317492 0.48449591 8420988
-0.0013155109 0.11357244 0.48619768 8750211
-0.00043934819 0.11379118 0.4871341 9211020
0.00044019605 0.11401077 0.48807415 9211020
-0.054311655 0.11340274 0.48175108 8421504
-0.053368725 0.11324583 0.48108453 8421504
-0.052428402 0.11308936 0.48041981 8421504
-0.051490668 0.11293332 0.47975692 8421504
-0.05055552 0.1127777 0.47909585 8421504
-0.049622945 0.11262251 0.47843659 8421504
-0.048692938 0.11246776 0.47777918 3814236
-0.047765478 0.11231343 0.47712353 1313352
-0.046840563 0.11215951 0.4764697 655428
-0.045918182 0.11200603 0.47581768 655428
-0.044998318 0.11185296 0.47516742 655428
-0.044080965 0.11170031 0.47451892 655428
-0.043166999 0.11155036 0.47388193 655428
-0.042255685 0.11140136 0.47324893 655428
-0.041361328 0.11129183 0.47278363 720964
-0.040499788 0.11126783 0.47268173 720965
-0.03963862 0.11124387 0.4725799 720965
-0.038777821 0.11121991 0.47247809 720965
-0.03791739 0.11119594 0.47237632 720965
-0.037057333 0.111172 0.4722746 720965
-0.036197644 0.11114807 0.47217292 720965
-0.035338327 0.11112414 0.47207129 720965
-0.03447938 0.11110023 0.47196969 720965
-0.033620805 0.11107633 0.47186816 720965
-0.032762595 0.11105243 0.47176665 720965
-0.031904757 0.11102855 0.4716652 720965
-0.031047285 0.11100468 0.47156379 720965
-0.030190185 0.11098082 0.47146243 720965
-0.029345909 0.11100408 0.47156128 720965
-0.02850393 0.1110377 0.47170407 720965
-0.027661441 0.11107133 0.47184691 720965
-0.026820272 0.11111255 0.47202206 720965
-0.025978858 0.11115544 0.47220424 720965
-0.025136791 0.11119835 0.47238654 720965
-0.024294078 0.1112413 0.47256902 720965
-0.023450712 0.11128429 0.47275162 720965
-0.022606695 0.11132731 0.47293437 720965
-0.021762574 0.11137317 0.47312921 720965
-0.020918008 0.11142041 0.47332987 720966
-0.020072725 0.11146768 0.47353071 720966
-0.019226724 0.11151499 0.4737317 1510732
-0.018380005 0.11156236 0.47393289 4801638
-0.017532567 0.11160976 0.47413424 8618883
-0.016689446 0.11169091 0.47447899 8750469
-0.015847435 0.11178866 0.47489426 8750469
-0.015003947 0.11188658 0.47531021 8684676
-0.014161148 0.11200181 0.47579974 8618883
-0.013318889 0.11213645 0.47637174 8553090
-0.012474602 0.11227142 0.4769451 8553090
-0.011628281 0.11240672 0.47751987 8553090
-0.010779918 0.11254234 0.47809601 8553090
-0.0099295052 0.1126783 0.47867355 8553090
-0.0090770349 0.11281458 0.47925249 8553090
-0.0082224999 0.11295118 0.47983283 8553090
-0.0073658931 0.11308812 0.48041457 8421503
-0.0065072072 0.1132254 0.48099774 8092536
-0.0056464332 0.11336301 0.48158231 8158072
-0.004785432 0.11354525 0.48235652 8420988
-0.0039223372 0.11374778 0.48321688 8420988
-0.0030561578 0.11395103 0.48408031 8420988
-0.0021868777 0.11415502 0.48494688 8420731
-0.0013159751 0.11448983 0.48636922 9211020
-0.00043950355 0.11471042 0.48730633 9211020
0.00044035196 0.11493187 0.48824704 9211020
-0.054370753 0.11439606 0.48227528 7237230
-0.053429481 0.11424352 0.4816322 8421504
-0.052489351 0.11408842 0.48097834 8421504
-0.051551774 0.11393376 0.48032627 8421504
-0.050616734 0.11377949 0.47967592 8421504
-0.049684223 0.11362565 0.47902736 8289663
-0.048754226 0.11347222 0.47838053 4472674
-0.047826741 0.11331921 0.47773546 1642571
-0.046901755 0.11316662 0.47709215 721220
-0.045979254 0.11301443 0.47645053 720964
-0.04505923 0.11286265 0.47581065 655428
-0.044141676 0.11271127 0.47517249 655428
-0.043226581 0.11256031 0.47453603 655428
-0.042313937 0.11240975 0.4739013 655428
-0.041417897 0.112298 0.47343022 720964
-0.040551383 0.11226331 0.47328392 720964
-0.039687738 0.11223521 0.47316548 720965
-0.038825858 0.112211 0.47306341 720965
-0.037964355 0.1121868 0.4729614 720965
-0.037103225 0.11216262 0.47285944 720965
-0.036242463 0.11213844 0.47275752 720965
-0.03538207 0.11211427 0.47265562 720965
-0.034522053 0.11209012 0.47255379 720965
-0.033662401 0.11206597 0.47245198 720965
-0.032803122 0.11204184 0.47235024 720965
-0.031944212 0.11201771 0.47224852 720965
-0.031085676 0.1119936 0.47214687 720965
-0.030232454 0.11198782 0.47212252 720965
-0.029389741 0.11202177 0.47226563 720965
-0.028546518 0.11205573 0.47240883 720965
-0.027702782 0.11208972 0.47255212 720965
-0.026858535 0.11212372 0.47269547 720965
-0.02601493 0.11216273 0.47285992 720965
-0.025171708 0.11220609 0.47304273 720965
-0.024327839 0.1122495 0.47322571 720965
-0.023483312 0.11229293 0.47340882 720965
-0.022638133 0.1123364 0.47359207 720965
-0.0217923 0.1123799 0.47377548 720965
-0.020945812 0.11242343 0.473959 720965
-0.020098666 0.112467 0.47414267 720966
-0.019250864 0.11251061 0.47432649 1379147
-0.018402405 0.11255424 0.47451046 4340834
-0.017553767 0.112601 0.47470757 8618883
-0.016709212 0.11268007 0.47504094 8684676
-0.015871357 0.11281532 0.47561112 8684676
-0.015031488 0.11295089 0.47618267 8618883
-0.014189597 0.11308679 0.47675559 8618883
-0.013345678 0.11322302 0.47732991 8618883
-0.012499725 0.11335957 0.4779056 8618883
-0.011651726 0.11349645 0.47848266 8553090
-0.010801679 0.11363367 0.47906116 8553090
-0.0099495742 0.11377122 0.47964102 8553090
-0.0090954034 0.1139091 0.48022231 8553090
-0.0082391594 0.11404731 0.48080501 8553090
-0.0073808352 0.11418586 0.48138911 8421504
-0.0065204231 0.11432475 0.48197463 8158330
-0.005657915 0.11446398 0.48256159 7960694
-0.004793304 0.11460354 0.48314998 7960694
-0.0039265817 0.11474345 0.48373979 8223609
-0.003059 0.114931 0.48453051 8421244
-0.0021898532 0.11518628 0.48560673 8816004
-0.0013164396 0.11540787 0.48654088 9211020
-0.00043965896 0.11563031 0.48747864 9211020
0.00044050801 0.1158536 0.48842004 9276813
-0.054429881 0.11539135 0.48279977 8421504
-0.053493161 0.11524949 0.48220623 8421504
-0.052558742 0.11510798 0.48161417 8421504
-0.051623899 0.11496078 0.48099828 8421504
-0.050687455 0.11480492 0.48034614 8421504
-0.049753543 0.11464947 0.47969574 8289919
-0.048822161 0.11449445 0.47904712 5130853
-0.047893293 0.11433984 0.47840026 1905741
-0.046966933 0.11418566 0.47775513 786756
-0.046043064 0.11403189 0.47711176 720964
-0.045121681 0.11387853 0.47647008 655428
-0.044202775 0.11372558 0.47583017 655428
-0.043286331 0.11357304 0.47519195 655428
-0.042372342 0.11342092 0.47455543 655428
-0.041474912 0.11330775 0.47408196 720964
-0.040607192 0.11327269 0.47393525 720964
-0.039740004 0.11323764 0.47378862 720964
-0.038874019 0.11320456 0.47365022 720964
-0.038011435 0.11318012 0.47354794 720965
-0.037149224 0.11315569 0.47344571 720965
-0.03628739 0.11313127 0.47334355 720965
-0.035425924 0.11310686 0.47324142 720965
-0.034564827 0.11308245 0.47313932 720965
-0.033704102 0.11305807 0.47303727 720965
-0.03284375 0.11303369 0.47293526 720965
-0.03198377 0.11300932 0.47283331 720965
-0.031124158 0.11298496 0.47273138 720965
-0.030277664 0.11300818 0.47282854 720965
-0.029433703 0.11304248 0.47297207 720965
-0.028589232 0.11307681 0.47311571 720965
-0.027744247 0.11311116 0.47325942 720965
-0.026898749 0.11314553 0.47340322 720965
-0.026052736 0.11317992 0.4735471 720965
-0.025206722 0.11321664 0.47370073 720965
-0.024361691 0.11326049 0.47388422 720966
-0.023515858 0.11330368 0.47406492 720966
-0.022668649 0.11334324 0.47423044 720966
-0.021820845 0.11338282 0.47439605 720966
-0.020972451 0.11342244 0.47456181 720966
-0.020123463 0.11346208 0.47472766 720967
-0.019273881 0.11350174 0.47489363 1313355
-0.018423706 0.11354144 0.47505972 4077664
-0.017577427 0.11361019 0.47534737 8487298
-0.016731653 0.11368944 0.47567895 8684676
-0.015893025 0.11382843 0.47626048 8816262
-0.015052345 0.11396775 0.47684342 8816262
-0.014209604 0.11410743 0.47742781 8816262
-0.013364795 0.11424743 0.4780136 8816262
-0.01251791 0.11438779 0.47860086 8816262
-0.011668941 0.1145285 0.47918957 8816262
-0.010817882 0.11466955 0.47977972 8816262
-0.0099647231 0.11481094 0.48037133 8816262
-0.009109458 0.11495268 0.48096439 8816262
-0.0082520787 0.11509478 0.48155892 8816262
-0.0073925764 0.11523722 0.48215491 8750469
-0.0065309447 0.11538003 0.48275238 8487296
-0.0056671747 0.11552318 0.48335135 8223866
-0.0048012589 0.11566669 0.48395181 8224122
-0.003933189 0.11581056 0.48455375 8289658
-0.0030630222 0.11595727 0.48516759 8223865
-0.002190988 0.11612236 0.48585835 8684418
-0.0013169044 0.11632656 0.48671269 8947847
-0.0004398145 0.11655084 0.48765111 9211020
0.00044066415 0.116776 0.48859316 9342606
0.0013362302 0.11803367 0.4938553 8092539
-0.054489139 0.11638881 0.48332539 8421504
-0.053551327 0.11624556 0.48273057 8421504
-0.052615821 0.11610268 0.48213723 8421504
-0.051682614 0.11596015 0.48154533 8421504
-0.050751694 0.11581797 0.48095492 8421504
-0.049823053 0.11567613 0.4803659 8355711
-0.048890289 0.11551953 0.47971559 5920867
-0.047960032 0.11536332 0.47906691 2433090
-0.047032293 0.11520754 0.47841999 1050936
-0.04610705 0.11505217 0.4777748 919099
-0.045184303 0.11489723 0.47713137 853054
-0.044264037 0.1147427 0.47648966 721473
-0.043346241 0.11458858 0.47584966 720963
-0.042430915 0.11443489 0.47521141 720964
-0.041532084 0.11432028 0.47473547 720964
-0.040663149 0.11428485 0.47458836 720964
-0.039794751 0.11424945 0.47444132 720964
-0.038926888 0.11421406 0.47429439 720964
-0.038059566 0.11417869 0.47414753 720964
-0.037195344 0.11415123 0.47403347 720965
-0.036332428 0.11412656 0.47393104 720965
-0.035469882 0.11410191 0.47382864 720965
-0.034607708 0.11407726 0.4737263 720965
-0.033745907 0.11405262 0.47362399 720965
-0.032884479 0.114028 0.47352174 720965
-0.032023422 0.11400338 0.47341952 720965
-0.031167705 0.11399695 0.47339278 720965
-0.030323008 0.1140316 0.47353667 721220
-0.029477799 0.11406627 0.47368065 721219
-0.028632075 0.11410095 0.47382468 787010
-0.027785836 0.11413567 0.47396883 787264
-0.026939083 0.1141704 0.47411308 853055
-0.026087472 0.11418615 0.47417846 853055
-0.025234072 0.11419486 0.47421467 918847
-0.024387192 0.11423475 0.47438028 918846
-0.023539722 0.11427466 0.47454602 984637
-0.022691661 0.11431459 0.47471187 984892
-0.021843005 0.11435456 0.47487783 984891
-0.020993758 0.11439455 0.47504392 1050682
-0.020143913 0.11443457 0.4752101 1050937
-0.019295203 0.11448488 0.47541898 1577276
-0.01845034 0.11456374 0.47574651 3748947
-0.017604314 0.11464272 0.47607449 8487297
-0.016757118 0.11472181 0.47640291 8618883
-0.015911013 0.1148173 0.47679946 8750469
-0.015069401 0.114958 0.47738373 8816262
-0.014225724 0.11509904 0.47796944 8816262
-0.013379975 0.11524043 0.47855657 8816262
-0.012532146 0.11538217 0.47914517 8816262
-0.011682228 0.11552425 0.4797352 8816262
-0.010830215 0.11566669 0.48032671 8816262
-0.0099760974 0.11580948 0.48091966 8816262
-0.0091198692 0.11595262 0.48151407 8816262
-0.0082615213 0.11609612 0.48210996 8816262
-0.0074010463 0.11623996 0.48270732 8750469
-0.0065384372 0.11638418 0.4833062 8552832
-0.0056736842 0.11652875 0.48390654 8223865
-0.0048067807 0.11667367 0.48450837 8158329
-0.0039383126 0.11683661 0.485185 8158072
-0.0030674934 0.11700296 0.48587582 8158072
-0.0021941909 0.1171698 0.4865686 8158072
-0.0013183943 0.11733709 0.48726335 8223608
-0.00044009316 0.11750488 0.4879601 8750211
0.00044134 0.11783778 0.48934254 8816260
0.0013312889 0.11848472 0.49202907 9539985
-0.056398332 0.11945789 0.49238205 8421504
-0.054548524 0.11738843 0.48385215 8421504
-0.053609621 0.1172438 0.48325604 8421504
-0.052673023 0.11709954 0.4826614 8421504
-0.051738735 0.11695563 0.48206824 8421504
-0.050806735 0.11681207 0.48147652 8421504
-0.049877021 0.11666887 0.48088625 8224125
-0.048949584 0.11652601 0.48029742 5723736
-0.04802442 0.1163835 0.47971004 3026223
-0.047097832 0.11623226 0.47908667 1381405
-0.046171214 0.1160753 0.47843969 1249312
-0.0452471 0.11591876 0.47779447 1183271
-0.044325471 0.11576264 0.47715098 1117229
-0.043406323 0.11560694 0.47650921 1051188
-0.042489644 0.11545166 0.47586918 985143
-0.041589417 0.1153356 0.47539079 919098
-0.040719263 0.11529981 0.47524327 919354
-0.03984965 0.11526404 0.47509584 919353
-0.038980573 0.11522829 0.4749485 984889
-0.038112037 0.11519256 0.47480124 984889
-0.037244041 0.11515686 0.47465408 984889
-0.036377579 0.11512433 0.47452 984889
-0.035513949 0.11509942 0.47441733 985145
-0.034650698 0.11507454 0.47431475 985144
-0.033787817 0.11504966 0.4742122 1050935
-0.032925311 0.11502478 0.47410968 1050935
-0.032063175 0.11499993 0.47400722 1050934
-0.031214438 0.11502307 0.47410262 1116725
-0.03036849 0.11505808 0.47424692 1116978
-0.029522024 0.11509311 0.47439131 1117232
-0.028675046 0.11512817 0.47453582 1117229
-0.027823048 0.11514461 0.47460359 1183020
-0.026967859 0.11514848 0.47461951 1183274
-0.026112612 0.11515234 0.47463542 1183273
-0.025259688 0.11516706 0.4746961 1183527
-0.02441196 0.11520731 0.47486204 1249061
-0.023563638 0.11524761 0.47502813 1249314
-0.022714721 0.11528793 0.47519431 1249568
-0.021865211 0.11532827 0.4753606 1249566
-0.021015108 0.11536865 0.47552702 1249819
-0.020169692 0.1154393 0.47581825 1315610
-0.019324722 0.1155189 0.47614631 1776159
-0.018478587 0.1155986 0.47647485 3486784
-0.017631283 0.11567841 0.47680381 8289919
-0.016782807 0.11575834 0.47713324 8618883
-0.01593316 0.11583837 0.47746313 8618883
-0.015086495 0.1159505 0.47792527 8816262
-0.014241882 0.11609291 0.47851229 8816262
-0.013395191 0.11623569 0.47910079 8816262
-0.012546415 0.11637881 0.4796907 8816262
-0.011695546 0.11652229 0.4802821 8816262
-0.010842576 0.11666612 0.48087493 8816262
-0.0099874977 0.11681031 0.48146924 8816262
-0.0091303037 0.11695485 0.48206502 8816262
-0.0082709864 0.11709975 0.48266229 8816262
-0.0074095358 0.11724501 0.48326102 8750469
-0.006545946 0.11739063 0.48386124 8487296
-0.0056808009 0.11754888 0.48451352 8223866
-0.004813666 0.11771601 0.4852024 8158072
-0.0039440622 0.11788363 0.48589328 8158072
-0.0030719778 0.11805172 0.48658609 8158072
-0.002197403 0.11822028 0.48728091 8223864
-0.001320118 0.11837059 0.48790041 8289658
-0.00044068208 0.11854348 0.48861307 8223865
0.00044200657 0.11889977 0.49008161 8092279
0.001330017 0.1192582 0.49155897 8092279
-0.056013934 0.1195258 0.4890261 8421504
-0.054608043 0.11839023 0.48438007 8421504
-0.053668041 0.11824422 0.48378268 8421504
-0.052730355 0.11809856 0.48318672 8421504
-0.051794976 0.11795326 0.48259225 8421504
-0.050861899 0.11780833 0.48199928 8421504
-0.049931109 0.11766374 0.4814077 8092539
-0.049002603 0.11751951 0.48081762 4802889
-0.048076369 0.11737563 0.48022896 2171169
-0.0471524 0.11723211 0.47964174 657931
-0.046230689 0.11708894 0.47905597 460553
-0.045310069 0.11694314 0.47845942 657675
-0.044387076 0.11678541 0.47781414 920847
-0.043466568 0.11662813 0.47717059 1118483
-0.042548537 0.11647125 0.47652876 1184025
-0.041646909 0.11635374 0.47604796 1183774
-0.040775534 0.11631758 0.47590002 1183774
-0.039904699 0.11628144 0.47575217 1183773
-0.039034408 0.11624532 0.47560441 1183773
-0.038164657 0.11620923 0.47545674 1183772
-0.037295446 0.11617317 0.47530919 1183772
-0.036426771 0.11613712 0.4751617 1183772
-0.035558637 0.1161011 0.47501433 1184027
-0.034693792 0.11607429 0.47490466 1249562
-0.033829831 0.11604916 0.47480184 1249816
-0.032966241 0.11602405 0.47469908 1249815
-0.032108001 0.11601692 0.4746699 1249813
-0.031261314 0.11605227 0.47481456 1184275
-0.030414108 0.11608765 0.47495931 1118482
-0.029561739 0.1161048 0.4750295 1052688
-0.028705841 0.1161087 0.47504544 986895
-0.027849885 0.1161126 0.47506139 921102
-0.026993873 0.11611649 0.47507733 855309
-0.026137801 0.11612039 0.47509328 789516
-0.025285358 0.11614122 0.47517848 723723
-0.024436776 0.11618187 0.47534478 657930
-0.023587599 0.11622254 0.47551119 592137
-0.022737829 0.11626323 0.4756777 460551
-0.021889564 0.11631513 0.47589001 394758
-0.021045651 0.11639534 0.47621819 263172
-0.020200575 0.11647566 0.47654679 328965
-0.019354332 0.11655609 0.47687587 1052433
-0.01850692 0.11663663 0.4772054 3025977
-0.017658334 0.11671729 0.4775354 7829112
-0.016808575 0.11679804 0.47786582 8618883
-0.01595764 0.11687893 0.47819674 8618883
-0.015105524 0.11695991 0.47852808 8684676
-0.014258076 0.11708904 0.47905639 8816262
-0.01341044 0.1172332 0.47964621 8816262
-0.012560716 0.11737772 0.48023748 8816262
-0.011708893 0.1175226 0.48083022 8816262
-0.010854966 0.11766782 0.48142442 8816262
-0.0099989241 0.11781342 0.48202008 8816262
-0.0091407625 0.11795937 0.48261723 8816262
-0.0082804728 0.11810569 0.48321587 8816262
-0.0074184723 0.11825918 0.48384386 8684676
-0.006555005 0.11842709 0.48453087 8618882
-0.0056890822 0.11859548 0.48521981 8421246
-0.0048206933 0.11876435 0.48591071 8223865
-0.003949339 0.11891899 0.48654342 8289657
-0.0030754681 0.11906455 0.48713896 8355450
-0.0021994552 0.11921047 0.48773596 8355450
-0.0013216175 0.11938611 0.48845461 8158328
-0.00044186279 0.11974482 0.4899222 8026743
0.00044319438 0.12010568 0.4913986 8158072
0.0013324581 0.12036539 0.49246117 8420987
-0.056554925 0.12157082 0.49374917 7237230
-0.05468069 0.11942263 0.48502448 8355710
-0.053736635 0.11926911 0.48440099 8421504
-0.052795887 0.11911799 0.48378721 8421504
-0.051857516 0.11896724 0.48317495 8421504
-0.050921518 0.11881687 0.48256427 8421504
-0.049987886 0.11866689 0.48195511 7434609
-0.049056601 0.11851728 0.48134747 3947580
-0.04812843 0.11836992 0.48074901 1513239
-0.047203399 0.11822502 0.4801605 394758
-0.046280626 0.11808048 0.47957346 65793
-0.045360111 0.11793629 0.47898784 0
-0.044441842 0.11779245 0.47840366 0
-0.043525808 0.11764897 0.4778209 1
-0.042607594 0.11749367 0.4771902 131587
-0.041704558 0.11737468 0.47670692 328966
-0.040831957 0.11733815 0.47655857 328965
-0.039959904 0.11730165 0.4764103 263173
-0.039088391 0.11726517 0.47626215 263173
-0.038217422 0.11722872 0.47611409 263173
-0.037346989 0.11719228 0.4759661 263172
-0.0364771 0.11715586 0.47581822 262916
-0.035607751 0.11711948 0.47567043 197380
-0.034738943 0.11708311 0.47552273 197380
-0.033871949 0.11705116 0.47539297 131587
-0.033007275 0.11702579 0.47528994 131586
-0.032156277 0.11704885 0.47538358 1
-0.031303555 0.11706672 0.47545615 0
-0.030446945 0.11707065 0.47547212 0
-0.029590279 0.11707459 0.4754881 0
-0.028733555 0.11707851 0.47550407 0
-0.027876776 0.11708245 0.47552007 0
-0.027019937 0.11708639 0.47553605 0
-0.02616304 0.11709032 0.47555202 0
-0.025311079 0.11711736 0.47566184 0
-0.024461642 0.11715839 0.47582847 0
-0.023611611 0.11719945 0.47599524 0
-0.0227671 0.11727205 0.47629008 0
-0.021923086 0.11735298 0.4766188 0
-0.021077903 0.11743403 0.47694796 0
-0.020231552 0.11751519 0.47727758 131586
-0.019384032 0.11759646 0.47760767 855053
-0.018535338 0.11767785 0.47793821 2828597
-0.017685471 0.11775935 0.47826922 7302769
-0.016834423 0.11784096 0.47860068 8618883
-0.015982196 0.11792269 0.47893259 8618883
-0.015128786 0.11800452 0.47926497 8618883
-0.014274307 0.11808744 0.47960174 8684676
-0.013425726 0.118233 0.4801929 8816262
-0.01257505 0.11837891 0.48078552 8816262
-0.011722271 0.11852518 0.4813796 8816262
-0.010867383 0.11867183 0.48197517 8816262
-0.010010378 0.11881883 0.4825722 8816262
