# .PCD v0.7 - Point Cloud Data file format
VERSION 0.7
FIELDS x y z rgb
SIZE 4 4 4 4
TYPE F F F U
COUNT 1 1 1 1
WIDTH 1152
HEIGHT 1
VIEWPOINT 0 0 0 1 0 0 0
POINTS 1152
DATA ascii
0.116372 0.071052216 0.42583913 854845
0.11717355 0.071072474 0.42596057 789052
0.11797437 0.071092047 0.42607787 723260
0.11877035 0.07110846 0.42617625 657726
0.11959895 0.071144074 0.42638966 657724
0.12044919 0.071192011 0.42667699 657472
0.12130057 0.071240015 0.4269647 657215
0.1221531 0.071288086 0.4272528 657470
0.12304013 0.071355559 0.42765719 526139
0.1239189 0.071417436 0.42802802 591674
0.12479431 0.071476616 0.42838272 591418
0.12568185 0.07154198 0.42877445 526137
0.1265773 0.07161101 0.42918816 526139
0.12747446 0.071680166 0.42960265 460604
0.1283945 0.071761273 0.43008876 460603
0.12932663 0.071848124 0.43060929 591930
0.13025692 0.071932927 0.4311175 526649
0.13120146 0.072024547 0.43166661 591930
0.13219063 0.072139427 0.43235517 657724
0.13318296 0.072254688 0.43304592 526396
0.13421032 0.072387487 0.43384185 526396
0.13527195 0.072537132 0.43473873 526141
0.13634536 0.072691329 0.4356629 591678
0.13751528 0.072894916 0.43688306 591680
0.13872285 0.073116027 0.43820825 526402
0.13993882 0.073339038 0.4395448 657986
0.14120157 0.073583923 0.44101247 986950
0.14278503 0.073992245 0.44345969 2500168
0.079030275 0.077375188 0.45877504 1249335
0.079247974 0.076784305 0.45527157 1184057
0.079597637 0.076332092 0.45259029 1118005
0.080001019 0.075940058 0.45026582 1052465
0.080475651 0.075622849 0.44838503 920882
0.080996133 0.075354606 0.44679457 920882
0.081517339 0.075092331 0.44523945 723253
0.082078233 0.074871361 0.44392928 525877
0.082673632 0.074685842 0.44282931 525881
0.083281234 0.074514784 0.44181508 526138
0.083901741 0.074358411 0.4408879 460344
0.084541492 0.074221872 0.44007832 460344
0.085178897 0.074085832 0.43927169 591673
0.085813962 0.073950283 0.43846801 394805
0.086456612 0.073823683 0.43771735 329527
0.087112688 0.07371074 0.43704769 329271
0.087772518 0.073602967 0.43640867 394551
0.088430427 0.073495507 0.43577155 328759
0.089086413 0.073388368 0.43513629 460088
0.089742325 0.073283039 0.43451175 460087
0.090402886 0.073183291 0.43392032 460085
0.091076732 0.073095918 0.43340227 394293
0.09174896 0.073008746 0.43288544 394038
0.092419602 0.07292179 0.43236986 460087
0.09308771 0.072834313 0.43185118 394551
0.0937737 0.072762169 0.4314234 263222
0.094459802 0.072691292 0.43100315 394549
0.095144577 0.072620556 0.43058375 460084
0.095839106 0.072558351 0.43021491 328499
0.09653531 0.072498403 0.42985949 394035
0.097230367 0.07243856 0.42950466 459829
0.097931534 0.072384179 0.4291822 525622
0.098638058 0.072334573 0.42888811 525366
0.099343613 0.072285041 0.42859441 526388
0.10004827 0.072235629 0.42830142 461109
0.100765 0.072195619 0.4280642 395318
0.10147443 0.07215102 0.42779976 263734
0.10218298 0.072106473 0.42753565 329268
0.10289929 0.072068043 0.42730778 329270
0.10362273 0.072035134 0.42711264 394550
0.10432942 0.071991153 0.42685187 526135
0.105051 0.071958005 0.42665535 591927
0.1057788 0.071929581 0.42648682 460598
0.10649288 0.071892306 0.42626578 591929
0.1072301 0.071871072 0.42613989 657465
0.10795891 0.071844541 0.42598256 592187
0.10870621 0.071830608 0.42589998 592187
0.10945336 0.071816765 0.42581788 591931
0.11020463 0.071805805 0.42575291 592188
0.11096295 0.071799554 0.42571586 723518
0.11172115 0.071793318 0.42567885 723519
0.11249558 0.07179752 0.42570379 723006
0.11326463 0.071798258 0.42570814 788800
0.11403268 0.071798354 0.42570871 854593
0.11480838 0.071803235 0.42573768 854593
0.11560927 0.071823701 0.42585903 789057
0.11641064 0.071844183 0.42598048 789312
0.11721244 0.071864679 0.42610198 723518
0.11800547 0.071879551 0.42619017 657983
0.11879097 0.071889676 0.42625022 591936
0.11959876 0.071913078 0.42638898 591931
0.12045728 0.071966484 0.42670563 526650
0.12131707 0.072019972 0.42702276 461113
0.12217813 0.072073534 0.42734033 526395
0.12304088 0.072127417 0.42765981 395065
0.12390435 0.072181039 0.42797774 460856
0.12476908 0.072234735 0.42829612 526136
0.12565412 0.072299443 0.42867979 657465
0.12654555 0.072367027 0.42908052 526392
0.12744245 0.072436899 0.4294948 460602
0.12835635 0.072515525 0.429961 723770
0.12928648 0.072602317 0.43047562 1249854
0.13021433 0.072686806 0.43097657 855354
0.13114434 0.07277149 0.43147868 657977
0.13212849 0.072885036 0.43215191 723516
0.13312502 0.073004045 0.43285754 657724
0.13415596 0.073140427 0.43366617 526396
0.13520427 0.073284633 0.43452123 460605
0.13627701 0.073440343 0.43544447 591678
0.13746013 0.073653415 0.43670782 591680
0.1386696 0.073878102 0.43804002 592195
0.13988291 0.074102275 0.4393692 789315
0.14114499 0.074349612 0.44083571 1381706
0.14279585 0.074797824 0.44349328 3092292
0.079030529 0.078202985 0.45877653 1249335
0.079267725 0.077624872 0.45538506 1249593
0.079630017 0.077179864 0.45277441 1118004
0.080017075 0.076767653 0.45035619 1052466
0.080485299 0.076440811 0.44843879 986676
0.081009224 0.076172851 0.44686678 986676
0.081530474 0.075907685 0.44531119 986167
0.082083307 0.075676806 0.44395676 723254
0.082678735 0.075489283 0.44285664 591414
0.08327122 0.075302683 0.44176197 591417
0.083886996 0.075140484 0.44081041 591417
0.084526658 0.075002529 0.4400011 460345
0.085163973 0.074865073 0.43919474 394808
0.085799433 0.074728534 0.43839374 263478
0.08643315 0.074592993 0.43759859 329271
0.087092794 0.074482076 0.43694788 394807
0.087752104 0.074372858 0.43630716 460343
0.088409886 0.074264303 0.43567035 329015
0.089065753 0.074156068 0.43503535 460344
0.089719705 0.074048147 0.43440223 460086
0.090384014 0.073950551 0.43382972 459830
0.091057733 0.073862284 0.43331188 459830
0.09172985 0.073774219 0.43279526 525624
0.092400365 0.073686369 0.43227988 525623
0.093069807 0.073599137 0.43176815 525880
0.093757316 0.073527522 0.431348 394294
0.094447896 0.073459476 0.43094882 394295
0.095137201 0.073391557 0.43055037 394294
0.095829487 0.07332702 0.43017176 459573
0.096524045 0.07326524 0.42980933 459828
0.097219028 0.073204763 0.42945457 459828
0.097919084 0.07314904 0.42912766 525620
0.098625526 0.07309892 0.42883363 591668
0.099330865 0.073048763 0.4285394 329011
0.10003516 0.072998628 0.42824528 329524
0.1007482 0.072955593 0.42799282 263732
0.10146712 0.072917432 0.42776895 328757
0.10218398 0.072878391 0.42753989 329013
0.10289243 0.072833963 0.42727926 394806
0.10361668 0.072801314 0.42708772 460343
0.10434029 0.072768688 0.42689633 525878
0.1050626 0.072735652 0.4267025 526134
0.10579066 0.072707035 0.42653465 394806
0.10651704 0.072677687 0.42636248 526136
0.10725001 0.072653227 0.42621899 591416
0.10798016 0.072627224 0.42606643 657466
0.10872401 0.072610736 0.42596969 723514
0.10946228 0.072590776 0.42585263 657722
0.11021204 0.072578661 0.42578155 591676
0.11097593 0.072575957 0.42576566 591676
0.11173632 0.072571009 0.42573667 657466
0.11251393 0.072577246 0.42577323 591676
0.11329167 0.072583482 0.4258098 657469
0.11406726 0.072588257 0.42583784 526138
0.11484648 0.072595268 0.42587897 526138
0.11564623 0.072615072 0.42599514 526395
0.11643104 0.072625302 0.42605516 526394
0.11721607 0.072635531 0.42611519 526393
0.11800133 0.072645769 0.42617524 460601
0.11879133 0.072658777 0.42625153 526138
0.11960219 0.072684288 0.4264012 460344
0.12044963 0.072731569 0.42667857 329271
0.12130937 0.072785623 0.42699566 395064
0.12217037 0.072839752 0.42731321 394810
0.12301604 0.072884113 0.42757347 329273
0.12387931 0.072938286 0.42789128 460856
0.12474386 0.072992541 0.42820954 526136
0.12562896 0.073058076 0.42859402 591930
0.12651914 0.073125742 0.42899099 658234
0.12741098 0.073193543 0.42938873 592953
0.12831824 0.073269323 0.42983329 1118524
0.12924428 0.07335487 0.43033513 1908032
0.13017179 0.073440202 0.43083575 1645117
0.13110143 0.073525734 0.43133751 855608
0.13206641 0.073629946 0.43194887 854844
0.13307124 0.073755026 0.43268266 723261
0.13410166 0.07389275 0.43349063 591933
0.13513666 0.07403139 0.43430394 526142
0.1362087 0.074188605 0.43522623 526142
0.13740501 0.074411303 0.43653271 591681
0.13861488 0.074638784 0.43786719 657988
0.13982704 0.074864909 0.43919376 1052743
0.14108844 0.07511469 0.44065911 1908299
0.079597302 0.080439597 0.46695626 3092027
0.079067126 0.079067126 0.45898899 1249335
0.079287484 0.078465857 0.45549858 1249337
0.079662427 0.078028329 0.4529587 1052468
0.08004947 0.077611417 0.45053852 1052466
0.080497377 0.077261306 0.44850609 1052213
0.081022322 0.076991364 0.44693905 1052470
0.081543609 0.0767233 0.44538292 1051960
0.082088389 0.076482356 0.44398424 986169
0.082683846 0.07629282 0.442884 788790
0.083279274 0.076106898 0.44180471 722744
0.083886139 0.075934842 0.44080591 591417
0.084523886 0.075793721 0.43998668 460088
0.085162081 0.075655617 0.43918496 394551
0.085797951 0.075518012 0.43838617 263479
0.086434387 0.075383417 0.43760484 394807
0.087083496 0.075262204 0.43690121 525881
0.087742426 0.075151578 0.43625903 526136
0.08839941 0.075041272 0.4356187 460343
0.089054473 0.074931301 0.43498027 460600
0.08970762 0.074821636 0.4343437 394550
0.090371765 0.074722975 0.43377095 525366
0.091045097 0.074633531 0.43325174 591159
0.091716826 0.074544311 0.4327338 525624
0.092386939 0.074455298 0.43221706 459831
0.093061388 0.074371234 0.43172908 459832
0.093752414 0.074301705 0.43132547 394296
0.094442964 0.074232951 0.43092632 394295
0.095132239 0.074164324 0.43052793 328502
0.09582416 0.07409884 0.43014783 394038
0.096516252 0.074034557 0.42977464 459829
0.097207695 0.073970795 0.4294045 459828
0.097906642 0.073913708 0.42907313 591156
0.098612852 0.073862955 0.4287785 525877
0.099318027 0.073812231 0.42848402 394804
0.10002224 0.073761575 0.42818996 394804
0.10072834 0.073713072 0.42790842 460342
0.10144712 0.073674522 0.42768463 591416
0.10216516 0.073636018 0.42746109 591160
0.10288401 0.073598668 0.42724431 525878
0.10360817 0.073565647 0.42705262 526133
0.1043311 0.073532246 0.42685872 525877
0.10505338 0.073498882 0.42666504 460341
0.10578696 0.073473856 0.42651975 526135
0.10651331 0.073444203 0.42634758 460085
0.10724469 0.073418409 0.42619789 525621
0.10798135 0.073396578 0.42607114 525876
0.10872125 0.073377237 0.42595887 591925
0.10946994 0.073364064 0.4258824 657718
0.11021709 0.07335005 0.42580104 526136
0.11097997 0.073346622 0.42578116 526136
0.11173991 0.073341317 0.42575034 394804
0.11251594 0.07334657 0.42578083 460341
0.11329504 0.073353738 0.42582247 460340
0.1140743 0.073360913 0.4258641 394547
0.11485761 0.073370583 0.42592025 329011
0.11564218 0.073380917 0.42598024 329011
0.11642697 0.073391259 0.42604026 395060
0.11721198 0.0734016 0.42610028 460597
0.11799721 0.073411942 0.42616034 394549
0.11879834 0.073431984 0.42627665 460343
0.11960924 0.07345777 0.42642635 460088
0.120442 0.073496558 0.42665154 460343
0.12130167 0.073551171 0.42696857 460088
0.12215789 0.073603019 0.42726955 460345
0.12300213 0.073647045 0.42752513 460344
0.1238543 0.073695242 0.42780489 526393
0.12471866 0.073750041 0.42812303 724026
0.12560384 0.073816411 0.42850828 658490
0.12649381 0.073884763 0.4289051 1580353
0.12738544 0.073953249 0.42930266 1514300
0.12828287 0.074024253 0.42971483 1907769
0.12920275 0.074107282 0.43019682 2500159
0.13012926 0.074193098 0.430695 2434623
0.13105856 0.07427948 0.43119645 1447226
0.1320044 0.074374154 0.43174604 1051964
0.1330175 0.074505396 0.4325079 789053
0.1340474 0.074644476 0.43331525 657470
0.13508116 0.074784063 0.43412557 591678
0.13614804 0.074940279 0.4350324 526143
0.13734993 0.075168587 0.43635774 591937
0.13855915 0.075398281 0.43769115 789830
0.13977319 0.075627983 0.43902457 1381707
0.14120623 0.07597293 0.44102702 2829389
0.079457901 0.08113955 0.46613848 2960442
0.07910376 0.079932071 0.45920166 1249592
0.079307258 0.079307258 0.45561215 1249337
0.07969486 0.078877479 0.45314312 1118003
0.08008536 0.078459263 0.45074049 1052466
0.080533274 0.078105137 0.44870609 1052215
0.081048988 0.077823162 0.44708616 1118007
0.081560992 0.077543207 0.44547787 1117752
0.082093701 0.077288218 0.44401297 1117498
0.082694054 0.077101216 0.44293869 986168
0.083291508 0.076915123 0.44186959 854584
0.083897911 0.076740742 0.44086778 723002
0.084522419 0.076586045 0.43997905 525880
0.085160598 0.076446488 0.43917733 460343
0.085796461 0.076307453 0.43837857 460344
0.086435616 0.076173857 0.43761107 526138
0.087077953 0.076045454 0.43687341 460344
0.087733068 0.075930409 0.43621251 460344
0.08839 0.075818978 0.43557236 525880
0.089045011 0.075707875 0.43493405 525881
0.089699462 0.07559824 0.43430421 329015
0.090364322 0.075499199 0.43373522 329015
0.091035336 0.075406946 0.43320528 394295
0.091706991 0.075316802 0.4326874 460088
0.092377052 0.075226881 0.43217081 460089
0.093058355 0.075147539 0.43171501 394553
0.093747519 0.075075813 0.43130293 328760
0.094438039 0.075006343 0.43090382 329015
0.095127277 0.074937001 0.43050545 262965
0.095818825 0.074870579 0.4301239 328757
0.096510895 0.074805632 0.42975077 394550
0.097201765 0.074740797 0.4293783 460341
0.097895995 0.074679554 0.42902645 591413
0.098601453 0.074627765 0.42872894 525879
0.09930592 0.074576043 0.42843181 394805
0.10000942 0.074524395 0.4281351 394804
0.10071249 0.074473217 0.4278411 460341
0.10142844 0.074432276 0.4276059 525621
0.10214967 0.074395798 0.42739633 459828
0.10287019 0.07435935 0.42718694 394292
0.10359222 0.074324533 0.4269869 329012
0.10432047 0.074294649 0.42681521 460341
0.10504327 0.07426136 0.42662397 394550
0.10576939 0.07423088 0.42644888 460344
0.1065069 0.074208774 0.42632189 394549
0.10723533 0.074180715 0.42616069 591669
0.10797271 0.07415919 0.42603704 460341
0.10871527 0.074141517 0.42593548 460341
0.10946379 0.074128106 0.42585847 460342
0.11021569 0.074117176 0.42579564 394807
0.11097809 0.074113399 0.42577395 395063
0.11173802 0.074108034 0.42574313 263732
0.112508 0.074109368 0.42575079 394806
0.11328705 0.07411661 0.42579243 526135
0.11406776 0.074124843 0.42583969 394806
0.11485316 0.074135982 0.42590371 394550
0.11563814 0.07414671 0.42596534 394807
0.1164229 0.074157156 0.42602536 394807
0.11720788 0.074167609 0.42608538 394807
0.11799495 0.074179232 0.42615217 394806
0.11880533 0.074205272 0.42630178 525880
0.1196163 0.074231334 0.4264515 460088
0.12043437 0.074261449 0.42662448 460343
0.12129398 0.074316628 0.42694148 591671
0.1221454 0.07436613 0.42722586 657718
0.12298956 0.07441061 0.42748141 592438
0.12383471 0.074455142 0.42773724 1184571
0.12469345 0.074507236 0.42803651 1579838
0.12557872 0.074574433 0.42842257 1448247
0.12646866 0.074643582 0.42881981 1974844
0.12736075 0.074713141 0.42921942 2368829
0.12825529 0.074783295 0.42962244 2105144
0.12917493 0.074867159 0.43010423 2565948
0.13009666 0.074951209 0.43058711 2895682
0.13102046 0.075035453 0.43107107 1513786
0.13194682 0.075120166 0.43155774 1052220
0.13296379 0.07525517 0.43233332 789053
0.13399319 0.075395584 0.43313998 591934
0.13502643 0.075536527 0.43394968 657215
0.13609366 0.07569474 0.43485862 526143
0.13729489 0.075925253 0.43618289 592193
0.13850346 0.076157175 0.43751526 1118536
0.13971943 0.076390505 0.43885571 1907789
0.14132506 0.076833062 0.44139814 3092558
0.079363033 0.081882492 0.46558192 2368314
0.079140432 0.080797821 0.45941451 1249592
0.079337426 0.080159582 0.45578548 1183799
0.079732209 0.079732209 0.45335546 1052466
0.080122791 0.079309367 0.45095119 986931
0.080571316 0.078951791 0.44891804 1052470
0.081087135 0.078666627 0.44729659 1118007
0.081599243 0.078383505 0.44568679 1118008
0.082125731 0.078119598 0.44418621 1052217
0.082707554 0.077912919 0.44301102 1117756
0.083303742 0.077723585 0.4419345 1051963
0.08390969 0.077546872 0.44092968 920379
0.084531635 0.077388115 0.440027 723259
0.085159123 0.077237345 0.43916973 591929
0.085794978 0.077096872 0.438371 526650
0.086436853 0.076964319 0.43761733 591930
0.087079197 0.076834582 0.43687963 526138
0.087723717 0.076709077 0.43616602 394809
0.08838059 0.076596513 0.43552598 460344
0.089035548 0.076484278 0.43488783 460088
0.089694262 0.076377213 0.43427902 394553
0.090359084 0.076277152 0.4337101 460089
0.091025561 0.07618019 0.43315879 328759
0.091697164 0.076089136 0.43264106 328760
0.092367165 0.075998299 0.43212456 394552
0.093055323 0.0759238 0.43170094 263480
0.093743831 0.075850822 0.43128598 197686
0.094433114 0.075779654 0.43088135 263479
0.095122322 0.075709604 0.43048301 329013
0.095813498 0.075642236 0.43009996 329270
0.096505523 0.075576618 0.42972687 394806
0.097197399 0.075511925 0.42935902 526132
0.097894631 0.075452387 0.42902049 460086
0.098593444 0.075394988 0.42869413 525879
0.099297866 0.075342745 0.42839706 460342
0.10000132 0.075290568 0.42810041 460597
0.1007041 0.075238697 0.42780545 526388
0.10141271 0.07519193 0.42753956 789046
0.10213594 0.075156637 0.42733887 657716
0.10285637 0.075119823 0.42712954 526387
0.10357609 0.07508304 0.42692041 461108
0.10430306 0.075052015 0.42674401 526645
0.1050306 0.075021856 0.42657253 591926
0.10575466 0.074989669 0.42638949 592184
0.10648873 0.074964993 0.42624918 394805
0.10722568 0.074942678 0.42612231 591925
0.10796456 0.074922025 0.42600489 525877
0.10870861 0.074905232 0.42590937 460086
0.10945475 0.074890092 0.4258233 460088
0.11020517 0.074878074 0.42575496 460344
0.11097261 0.074877717 0.42575294 395062
0.11173612 0.074874721 0.42573589 329269
0.11250006 0.074872054 0.42572075 460855
0.11327905 0.074879371 0.42576236 460855
0.1140632 0.074889973 0.42582265 460599
0.11484855 0.074901231 0.42588663 395063
0.11563409 0.074912451 0.42595044 395062
0.11641882 0.074923009 0.42601046 395062
0.11720377 0.074933559 0.42607045 460598
0.1180019 0.074952349 0.42617729 394805
0.11881234 0.074978665 0.42632693 526136
0.11962336 0.075005002 0.42647669 526135
0.12043495 0.075031355 0.42662653 526390
0.12128628 0.075081982 0.42691439 986936
0.12213292 0.075129084 0.4271822 1513531
0.12297698 0.075174019 0.42743769 1184822
0.12382204 0.075218998 0.42769346 2105918
0.12466827 0.075264126 0.42795005 2039867
0.12555401 0.075332411 0.42833832 2171708
0.12644425 0.075402535 0.42873704 2237501
0.12733614 0.075472787 0.42913651 2500415
0.12822969 0.07554318 0.42953673 2368573
0.12914714 0.075626709 0.43001169 2236733
0.13006863 0.075711593 0.43049434 2171199
0.1309922 0.075796679 0.43097812 1052474
0.13195011 0.075900503 0.43156847 789565
0.13296387 0.07603506 0.43233356 723518
0.13399149 0.076175921 0.4331345 591934
0.13502292 0.076317303 0.43393841 591679
0.13612504 0.07649678 0.4349589 526656
0.13732336 0.076727957 0.43627337 986949
0.13852896 0.076960534 0.43759578 1513036
0.13981548 0.077235177 0.43915743 2697550
0.14155227 0.077754065 0.4421078 3355471
0.079289608 0.082645781 0.46515119 2236729
0.079177134 0.081664369 0.45962757 1249592
0.079380959 0.081026159 0.45603555 1184055
0.079769693 0.080587842 0.45356861 1052466
0.080171883 0.080171883 0.45122749 1052467
0.080618188 0.079807959 0.4491792 1052470
0.081125326 0.07951089 0.44750723 1118007
0.081640877 0.07922785 0.44591421 1118264
0.082175672 0.078968816 0.44445631 1118266
0.082747258 0.078749806 0.44322366 1118269
0.083326176 0.078541897 0.4420535 1183806
0.083921477 0.078353226 0.44099161 1117758
0.084543474 0.078192793 0.44008866 1051966
0.085162945 0.078033023 0.43918943 789564
0.08579357 0.077886328 0.43836379 592443
0.08643809 0.07775481 0.43762359 657723
0.087080434 0.07762374 0.43688586 657724
0.087720625 0.077493109 0.43615064 460601
0.088371187 0.077373885 0.43547964 525882
0.089026086 0.077260524 0.4348416 460090
0.089689061 0.077156089 0.43425384 394554
0.090353861 0.077055022 0.433685 394554
0.091016911 0.076954216 0.43311763 328760
0.091687337 0.0768613 0.43259469 329016
0.092362471 0.076773867 0.43210259 394808
0.09305229 0.076700009 0.43168688 263480
0.093740784 0.076626278 0.43127194 263480
0.094428182 0.076552883 0.43085885 329016
0.09511736 0.076482125 0.43046057 263478
0.095808163 0.076413803 0.43007603 395063
0.096500166 0.076347522 0.429703 526134
0.097196124 0.076285399 0.42935339 460341
0.09789335 0.076225258 0.42901486 394549
0.09858948 0.076165207 0.42867687 460086
0.09928982 0.07610932 0.42836234 525622
0.099993221 0.076056622 0.42806575 591925
0.1006977 0.076005541 0.42777824 657972
0.10140301 0.075955868 0.4274987 1315898
0.10211801 0.075914137 0.42726383 1184567
0.10284052 0.07587859 0.42706373 987446
0.10356219 0.075842939 0.4268631 921655
0.10428566 0.075809136 0.42667285 789813
0.10501309 0.075778678 0.42650139 855094
0.10574107 0.075749062 0.42633471 1184058
0.10647476 0.075723924 0.42619324 789813
0.10721657 0.075704895 0.42608613 658228
0.10795809 0.075685926 0.42597938 723254
0.10870253 0.075669259 0.42588556 657207
0.10944621 0.075652294 0.42579007 657209
0.11019464 0.075638831 0.42571431 657464
0.11096202 0.075638473 0.42571229 591669
0.11172939 0.075638108 0.42571026 723511
0.11249401 0.075635903 0.42569783 724021
0.11327352 0.075643674 0.42574158 592436
0.11405862 0.075655043 0.42580557 592437
0.11484396 0.07566642 0.42586958 658486
0.11562952 0.07567779 0.4259336 855863
0.11641475 0.075688794 0.42599553 855350
0.11719967 0.075699456 0.42605555 1118263
0.11800886 0.075725555 0.42620242 987188
0.11881936 0.075752147 0.42635208 1447996
0.11963042 0.075778753 0.42650184 856119
0.12044205 0.075805381 0.42665169 789559
0.12127747 0.075846545 0.4268834 1447484
0.12212043 0.075891882 0.42713854 2303040
0.12296466 0.07593742 0.42739487 1973817
0.12381149 0.075984001 0.42765701 2105404
0.12465935 0.076030627 0.42791945 1973816
0.12553322 0.076092452 0.42826739 2237501
0.12641986 0.076161198 0.42865431 2039868
0.12731156 0.076232143 0.42905363 2631747
0.1282049 0.076303221 0.42945367 1776955
0.12911935 0.076385923 0.42991915 1381178
0.13004062 0.076471649 0.43040162 1446461
0.1309889 0.076572143 0.43096724 526396
0.13196145 0.076685563 0.43160561 723773
0.13296971 0.07681828 0.43235254 657727
0.1339974 0.076960601 0.43315357 592191
0.13504663 0.077113591 0.43401462 526144
0.13617601 0.077310294 0.43512174 921156
0.13737492 0.077544011 0.43643716 1578827
0.13858113 0.077779151 0.43776059 2368589
0.14004339 0.078154527 0.43987328 3158094
0.14178322 0.078679703 0.4428291 3421257
0.079249159 0.083442234 0.4649139 2170937
0.079213865 0.08253172 0.4598408 1315128
0.079426505 0.081895724 0.45629722 1183798
0.079807214 0.081444286 0.45378196 1052721
0.080223717 0.08103817 0.45151919 1052724
0.080670074 0.080670074 0.44946828 1118262
0.08116354 0.080355942 0.44771805 1118007
0.081691824 0.080082133 0.44619247 1118265
0.08222679 0.079820149 0.44473279 1118266
0.082786985 0.079587489 0.44343647 1184060
0.083366081 0.079377271 0.44226521 1118527
0.083958499 0.079183608 0.44118616 1249599
0.084574386 0.079015508 0.44024956 1315137
0.085187659 0.078848116 0.4393169 1118272
0.085802384 0.078685135 0.43840882 921151
0.086439319 0.078545317 0.43762982 789310
0.087081678 0.078412913 0.43689209 723516
0.087721869 0.078280948 0.43615684 591930
0.088361785 0.078151092 0.4354333 657212
0.089017354 0.07803724 0.43479896 525628
0.089683861 0.077934884 0.43422866 394299
0.090348624 0.077832796 0.43365988 394555
0.091011643 0.077730976 0.43309256 394554
0.091677517 0.077633299 0.43254834 460346
0.092359461 0.077550769 0.43208849 460346
0.093049258 0.077476159 0.43167281 329017
0.093737729 0.077401698 0.4312579 394554
0.094424881 0.077327371 0.4308438 329017
0.095112398 0.077254564 0.43043813 263224
0.095802836 0.077185281 0.43005213 329016
0.096496522 0.077119716 0.42968678 460598
0.097194843 0.077058859 0.42934772 460086
0.097892061 0.076998107 0.42900923 525879
0.098588184 0.076937445 0.42867124 591671
0.099283203 0.076876879 0.42833379 723254
0.099985123 0.076822542 0.42803106 789046
0.1006913 0.076772287 0.42775106 986932
0.10139658 0.076722123 0.42747155 1973822
0.10210392 0.07667426 0.42720488 2434363
0.10282907 0.07664039 0.42701617 2171450
0.10355451 0.076607242 0.42683145 1908279
0.10428125 0.076575525 0.42665476 1710388
0.10501126 0.076546669 0.42649397 2236731
0.10574131 0.07651826 0.42633569 2368318
0.10647254 0.076491103 0.42618439 1710904
0.10721125 0.076469675 0.426065 1250356
0.10795267 0.076450467 0.42595795 1250617
0.10869583 0.076432757 0.4258593 921400
0.10943995 0.076415971 0.42576575 723766
0.11018474 0.07639987 0.42567605 1315643
0.11095142 0.07639908 0.42567164 1315382
0.11171919 0.076399036 0.4256714 1776189
0.11248984 0.076400951 0.42568207 1908538
0.11326989 0.076409176 0.4257279 1513528
0.11405436 0.076420262 0.42578965 1052723
0.11483936 0.076431543 0.42585254 1250358
0.11562489 0.076443031 0.42591655 1842492
0.11641066 0.076454528 0.42598057 1578806
0.11720584 0.076472007 0.42607799 1644599
0.11801581 0.076498851 0.42622754 1842489
0.11882636 0.076525711 0.42637721 1908795
0.11963747 0.0765526 0.42652699 987188
0.1204479 0.076578699 0.42667243 789560
0.12126668 0.076609746 0.4268454 1315642
0.12211138 0.076656669 0.42710686 2236735
0.12295711 0.076703653 0.42736864 2039098
0.12380389 0.076750696 0.42763075 2170685
0.12465379 0.076799087 0.42790037 2566208
0.12552826 0.076861918 0.42825043 2105918
0.12640415 0.076924853 0.42860109 1447481
0.12728697 0.076991208 0.42897078 1316156
0.12818013 0.077062979 0.42937067 1119038
0.12909159 0.077144824 0.42982671 723006
0.13003035 0.077241912 0.43036765 591933
0.13100013 0.077356167 0.43100423 526141
0.1319728 0.077470757 0.43164271 657214
0.13297556 0.077601574 0.43237156 526655
0.1340033 0.077745348 0.43317264 526399
0.1350998 0.077927135 0.43418548 986693
0.136227 0.078124411 0.43528467 1578570
0.13742653 0.078360684 0.4366011 2434382
0.13871069 0.078642242 0.43816984 3289678
0.14027205 0.079076879 0.44059148 3289679
0.14220516 0.079715006 0.44414696 3750213
0.079257198 0.084289402 0.46496108 1446968
0.079243757 0.083392642 0.46001431 1315128
0.079472102 0.082766287 0.45655918 1183798
0.079844773 0.082301542 0.45399553 1052721
0.08027561 0.081905574 0.45181128 1052723
0.080722019 0.081533298 0.44975773 1183799
0.081204191 0.081204191 0.44794229 1183800
0.081742845 0.080937497 0.44647112 1118266
0.082277969 0.080672547 0.44500959 1184058
0.082826763 0.080425985 0.44364953 1315390
0.083416335 0.080223367 0.44253182 1380928
0.084008679 0.080027223 0.44144985 1380929
0.084615879 0.079848789 0.44046554 1380930
0.08522936 0.079679541 0.43953195 1381187
0.085846588 0.079516888 0.43863469 1315395
0.086474814 0.079367295 0.43780953 1249346
0.087105744 0.079222873 0.43701285 986432
0.087734386 0.079078972 0.43621907 789052
0.088361159 0.078935973 0.43543023 591675
0.089012183 0.078816958 0.43477371 591421
0.089678667 0.078713588 0.43420351 591677
0.090343393 0.078610487 0.43363476 460349
0.091006383 0.078507654 0.43306753 525885
0.091667697 0.078405134 0.432502 525883
0.092356443 0.078327619 0.4320744 460091
0.093046226 0.078252263 0.43165874 394298
0.093734682 0.078177057 0.43124387 459835
0.094421811 0.078101993 0.43082979 460091
0.09510763 0.078027077 0.43041652 329018
0.095797509 0.077956676 0.4300282 328760
0.096495256 0.077893756 0.42968112 394553
0.097193569 0.077832296 0.42934209 460345
0.097890772 0.077770926 0.42900357 526136
0.098586887 0.07770966 0.42866561 657463
0.099284217 0.077650301 0.42833817 854840
0.099985465 0.077594899 0.42803255 920887
0.10069675 0.077548072 0.42777422 1249845
0.10140713 0.07750126 0.42751601 2499647
0.10211664 0.077454515 0.42725813 2565690
0.10283083 0.077411972 0.42702347 2763581
0.10355628 0.077378482 0.42683873 2171701
0.10428391 0.0773471 0.42666563 1974324
0.10501189 0.077316448 0.42649654 2171191
0.10574156 0.077287465 0.42633668 1579312
0.10647139 0.077259019 0.42617977 2105914
0.10720876 0.077236421 0.42605507 1514036
0.10794732 0.077214986 0.42593685 1645624
0.10868908 0.077196136 0.42583287 1119285
0.10943316 0.077179179 0.42573932 921396
0.11018018 0.077164516 0.42565846 1710906
0.1109482 0.077164672 0.4256593 1513778
0.11171881 0.077166602 0.42566994 2105659
0.11248945 0.077168532 0.42568061 1776950
0.11326826 0.077176005 0.42572182 1908539
0.11405272 0.077187195 0.42578354 1579831
0.1148374 0.077198386 0.4258453 1711413
0.11562232 0.077209592 0.42590708 2435132
0.11640745 0.07722079 0.42596886 2171449
0.11720717 0.077241451 0.42608282 1578548
0.11801556 0.07726752 0.42622665 2434367
0.1188245 0.077293605 0.42637053 1974074
0.11963399 0.077319719 0.42651457 1118263
0.12044401 0.077345841 0.42665866 855353
0.12126753 0.07738024 0.42684841 1118777
0.12210388 0.077422336 0.42708066 2434369
0.12294957 0.077469788 0.42734241 2170940
0.12379628 0.077517293 0.42760447 1446969
0.12464887 0.077567868 0.42788345 1842495
0.1255233 0.077631332 0.4282335 1053243
0.12639914 0.077694885 0.4285841 789307
0.12727644 0.077758551 0.42893529 592188
0.12815535 0.077822439 0.4292877 526399
0.12907448 0.07790982 0.42976972 657471
0.13004151 0.078024901 0.43040454 526143
0.1310114 0.078140326 0.43104127 526143
0.13198416 0.078256093 0.43167984 657728
0.13298139 0.078384928 0.43239054 526656
0.13403679 0.078546345 0.43328094 855621
0.135153 0.078741312 0.43435645 1578828
0.13627803 0.078939147 0.43544775 2434126
0.13747817 0.079177976 0.43676516 3355726
0.13888052 0.079529874 0.43870634 3487310
0.14050144 0.080002241 0.44131202 3552592
0.079265244 0.085136741 0.46500826 1315640
0.079262458 0.084242299 0.46012291 1315128
0.079517759 0.083637848 0.45682147 1183797
0.079882368 0.083159596 0.45420927 1052721
0.08032757 0.082774095 0.45210373 1118259
0.080774032 0.082397632 0.45004752 1184054
0.081260845 0.082069412 0.44825479 1249337
0.081798911 0.081798911 0.44677734 1183802
0.082333446 0.081530191 0.44530964 1184059
0.082874492 0.081273049 0.44390517 1315391
0.083466984 0.081070803 0.44280049 1380929
0.084059551 0.080872461 0.44171718 1512258
0.084657408 0.080682881 0.44068173 1446722
0.085273199 0.080513768 0.43975803 1512516
0.085892364 0.080350921 0.43886858 1578308
0.086514272 0.080193594 0.43800929 1643845
0.087145418 0.0800476 0.43721187 1578055
0.087774269 0.079902135 0.43641737 1315140
0.088401243 0.079757564 0.43562773 986176
0.08903569 0.079622224 0.43488851 723004
0.089694887 0.079511188 0.43428206 723262
0.090359904 0.079407185 0.433714 657724
0.091023177 0.079303451 0.43314743 526397
0.091687739 0.0792026 0.43259656 460347
0.092370413 0.07911896 0.43213975 394555
0.093056321 0.079039469 0.43170556 394298
0.093740843 0.078960136 0.43127224 525370
0.094424009 0.078880958 0.43083981 459833
0.09510579 0.078801937 0.43040821 460089
0.095794983 0.078730293 0.43001688 394808
0.096498407 0.078671388 0.42969516 394808
0.097200774 0.078612573 0.42937392 460600
0.097902089 0.078553848 0.42905316 460600
0.098602355 0.078495212 0.42873287 591672
0.099301584 0.078436658 0.42841309 657464
0.099999771 0.078378193 0.42809376 789048
0.10070913 0.078329325 0.42782682 1052215
0.10141969 0.078282118 0.427569 1973310
0.10212938 0.078234963 0.42731145 1775925
0.10283814 0.078187793 0.42705381 2236474
0.10355804 0.078149743 0.426846 2104887
0.10428657 0.078118719 0.42667654 2170679
0.10501457 0.078087755 0.42650741 2499900
0.10574199 0.078056812 0.4263384 1908276
0.10647132 0.078027718 0.4261795 2171450
0.1072076 0.078004092 0.42605045 1776951
0.10794453 0.077981278 0.42592585 1974330
0.10868293 0.077959843 0.42580876 1448246
0.10942637 0.077942297 0.42571291 1119027
0.11018451 0.07793539 0.42567518 1908539
0.11094783 0.077932209 0.42565784 1645106
0.11171842 0.077934161 0.42566848 2171451
0.11248907 0.077936113 0.42567915 1776950
0.11326665 0.077942811 0.42571574 2105916
0.11405109 0.077954113 0.42577747 1974073
0.11483576 0.077965416 0.42583922 2040119
0.11562067 0.077976733 0.425901 2566461
0.11641093 0.077991486 0.42598158 2368573
0.11720407 0.078007959 0.42607155 1578296
0.11801177 0.078033835 0.42621291 2104638
0.11882067 0.07806018 0.42635679 1644603
0.11963013 0.078086548 0.4265008 1052218
0.120443 0.078114785 0.42665505 855097
0.12127048 0.07815209 0.42685878 1052984
0.12209875 0.078189418 0.42706269 1381689
0.12294202 0.078235835 0.42731619 1447481
0.12378868 0.078283802 0.42757821 855352
0.12464394 0.078336589 0.42786652 592185
0.12551832 0.078400679 0.42821655 592187
0.12639414 0.078464866 0.42856714 525883
0.1272714 0.078529157 0.4289183 657212
0.12816504 0.078602724 0.42932013 657469
0.12910509 0.078703701 0.42987165 526141
0.13006012 0.078812547 0.43046615 460862
0.13102265 0.078924619 0.43107828 526399
0.13199551 0.079041556 0.43171698 657986
0.13298723 0.079168357 0.43240952 986948
0.13408947 0.079359069 0.43345121 1513037
0.13520625 0.079556137 0.43452758 2434383
0.1363291 0.079754494 0.43561095 3618639
0.13762234 0.080049671 0.4372232 3816270
0.1390508 0.080419689 0.43924418 3684430
0.14073159 0.080930628 0.4420349 3223633
0.079273291 0.08598426 0.46505547 1315640
0.079281181 0.085092366 0.46023157 1315128
0.079563461 0.084510416 0.45708403 1183797
0.079928987 0.084027909 0.45447436 1118258
0.080382533 0.083646797 0.45241305 1118515
0.080835469 0.083272725 0.45038983 1184054
0.081327803 0.082946271 0.44862416 1315385
0.081866093 0.082672656 0.4471443 1315386
0.082400844 0.082400844 0.44567418 1315899
0.082945637 0.082144231 0.44428626 1447229
0.083531752 0.081933059 0.44314411 1512768
0.084115662 0.081723742 0.44201201 1644353
0.084700406 0.081519172 0.44090554 1644353
0.085318789 0.081350468 0.43999311 1841731
0.085938185 0.08118584 0.43910271 1775941
0.086555094 0.08102189 0.43821594 1973063
0.087185122 0.080873072 0.43741107 2170441
0.087814189 0.08072605 0.43661585 2038602
0.088449262 0.080587111 0.43586439 1775689
0.089084208 0.080450498 0.4351255 1512517
0.089715689 0.080313168 0.43438277 1052224
0.090380765 0.080208033 0.43381414 855103
0.091044165 0.080103233 0.4332473 592190
0.091713481 0.080005378 0.43271804 526140
0.092391796 0.079916954 0.4322398 591676
0.093077838 0.079836644 0.4318054 525884
0.09376251 0.079756491 0.4313719 525627
0.094445802 0.079676501 0.43093926 525883
0.095133848 0.079601794 0.4305352 525883
0.095827758 0.07953316 0.43016398 394554
0.096521474 0.079465471 0.42979789 394553
0.097217806 0.079400994 0.42944917 394807
0.097919241 0.079341672 0.42912832 394807
0.098619618 0.079282433 0.42880791 460345
0.099318944 0.079223283 0.42848799 525881
0.10001724 0.079164222 0.42816857 591928
0.10072144 0.079110712 0.42787912 789048
0.10143209 0.079063036 0.42762128 1052473
0.10214187 0.079015411 0.42736369 921142
0.10285082 0.078967854 0.42710647 1118262
0.10356299 0.078923471 0.42686641 1118003
0.10428981 0.078890808 0.42668977 1249587
0.10501724 0.078859106 0.42651829 2039356
0.10574469 0.078827858 0.42634928 2039611
0.10647157 0.078796647 0.42618048 1907768
0.10720643 0.078771755 0.42604584 1776184
0.10794336 0.078748718 0.42592123 2236733
0.10867985 0.078725688 0.42579669 2105147
0.10942583 0.078709811 0.4257108 1644855
0.11018883 0.078706309 0.42569187 2104894
0.11095177 0.078702815 0.42567298 1710134
0.11171804 0.078701712 0.42566702 2170940
0.11248868 0.078703687 0.42567769 2171707
0.11326502 0.078709595 0.42570964 2105660
0.11404946 0.078721002 0.42577136 1776441
0.11483411 0.078732423 0.42583311 1841976
0.11562182 0.078745753 0.42590523 1841976
0.11641464 0.078762382 0.42599514 1644347
0.1172078 0.078779012 0.42608511 1380922
0.11800796 0.078800105 0.42619917 1250105
0.11881684 0.078826703 0.42634305 921144
0.11962628 0.078853332 0.42648706 723515
0.12044592 0.078886308 0.42666543 657978
0.12127343 0.078923978 0.42686915 789305
0.12210172 0.078961678 0.42707306 789305
0.12293448 0.079001777 0.42728996 526392
0.12378108 0.079050221 0.42755195 526140
0.124639 0.079105251 0.42784959 460349
0.12551336 0.079169959 0.42819959 526141
0.12638913 0.079234779 0.42855015 723005
0.12729214 0.079315774 0.42898822 591679
0.12821437 0.079407692 0.42948538 460606
0.12915629 0.079510629 0.43004215 460862
0.13011177 0.079620637 0.43063712 592192
0.1310699 0.079730943 0.43123373 657729
0.13203068 0.079841562 0.43183202 855364
0.13306376 0.079994351 0.43265837 1447242
0.13416454 0.080185808 0.43369392 2302798
0.13527061 0.080378182 0.4347344 3552846
0.13638245 0.080571763 0.43578139 4210766
0.13779049 0.08093711 0.4377574 4145230
0.13924246 0.081323937 0.43984962 3684431
0.14101726 0.081893869 0.44293216 2894671
0.079281338 0.086831942 0.46510267 1381176
0.079299904 0.085942827 0.46034026 1315128
0.079609223 0.085383989 0.45734692 1184053
0.079987161 0.084909454 0.45480514 1183795
0.080444261 0.084527723 0.45276049 1249844
0.080897264 0.08414942 0.45073414 1315381
0.081394881 0.083824575 0.44899416 1446968
0.081933387 0.083547838 0.44751185 1644346
0.082468353 0.083272927 0.44603932 1710395
0.083020337 0.083020337 0.44468635 2039613
0.083602548 0.082802519 0.44351968 2170942
0.08418677 0.082590811 0.44238567 2434113
0.084768452 0.082380608 0.44125977 2302786
0.085374087 0.082197376 0.44027829 2631490
0.085984059 0.082021661 0.4393371 2763077
0.086601198 0.08185593 0.43844938 2762823
0.087224863 0.081699312 0.43761048 2894921
0.087859727 0.081555888 0.43684226 3025995
0.088497348 0.081417561 0.43610132 2763083
0.089132771 0.081279658 0.4353627 2499915
0.089764513 0.081140846 0.43461916 2104905
0.090401642 0.081009261 0.43391433 1579078
0.091065161 0.080903381 0.43334723 1052738
0.091739252 0.080808617 0.43283963 789311
0.092414096 0.080716111 0.43234411 788797
0.093099371 0.080634184 0.4319053 788798
0.093784176 0.080553211 0.43147159 657724
0.094474807 0.080478542 0.43107161 526395
0.095174029 0.080412343 0.43071702 460604
0.095867731 0.080342591 0.43034342 460347
0.096554965 0.080268584 0.42994702 460346
0.097250618 0.080202706 0.42959413 460345
0.097945139 0.080136932 0.42924184 460343
0.09863852 0.08007127 0.42889011 460343
0.099336319 0.080010183 0.42856294 525881
0.10003472 0.079950534 0.4282434 526137
0.10073376 0.079892293 0.42793146 591672
0.10144449 0.07984414 0.42767355 591928
0.10215435 0.079796046 0.42741591 395320
0.1028704 0.079753458 0.4271878 460856
0.10358737 0.079712212 0.42696688 591926
0.10430597 0.079672821 0.42675591 657461
0.10503228 0.079639859 0.42657936 986424
0.105758 0.079606928 0.42640296 1118264
0.10648312 0.079574026 0.42622671 986422
0.10721435 0.079546131 0.42607731 1052215
0.10795263 0.079523824 0.42595783 1381432
0.10869049 0.079501525 0.42583838 1447735
0.10943422 0.0794838 0.42574343 1184565
0.11019316 0.079477288 0.42570856 1249849
0.11095612 0.079473764 0.42568967 1183800
0.11171902 0.079470232 0.42567074 1250358
0.1124883 0.079471253 0.42567623 1316409
0.11326341 0.079476357 0.42570356 1052984
0.11404783 0.079487883 0.42576528 986423
0.11483297 0.079499751 0.42582887 1052471
0.1156255 0.079516537 0.42591879 920886
0.11641835 0.079533324 0.4260087 789305
0.11721154 0.079550125 0.42609867 854843
0.11800505 0.079566926 0.42618868 723514
0.11881301 0.079593182 0.42632931 592700
0.11962241 0.079620063 0.42647329 461371
0.12044884 0.07965786 0.42667577 592187
0.12127636 0.079695895 0.4268795 657211
0.12210468 0.079733968 0.42708343 591675
0.12293379 0.079772085 0.42728758 460860
0.12377348 0.079816543 0.4275257 460606
0.12463408 0.079873852 0.42783269 526145
0.12550838 0.079939187 0.42818263 723519
0.1264206 0.080027722 0.42865685 526144
0.12734111 0.080120392 0.42915323 460608
0.12826374 0.080213279 0.42965075 592191
0.12920754 0.080318198 0.43021277 789057
0.13016346 0.080429368 0.43080822 920388
0.13112204 0.080540843 0.43140531 1052487
0.13214557 0.080690652 0.43220776 1447242
0.13321936 0.080869235 0.4331643 2368334
0.13432181 0.08106301 0.43420225 3618639
0.13542953 0.081257723 0.43524519 4342350
0.13659368 0.081483841 0.43645635 4276558
0.1379738 0.081835464 0.43833977 4276814
0.13949479 0.082266152 0.44064671 3223887
0.14143863 0.082939938 0.44425571 2763088
0.079286896 0.087677039 0.46513528 1381176
0.079318635 0.086793691 0.46044901 1315128
0.07965979 0.086263709 0.4576374 1249588
0.080048911 0.085796013 0.45515624 1249586
0.080506079 0.085410006 0.45310843 1381173
0.080966309 0.085034966 0.45111883 1513013
0.081462063 0.084704332 0.44936475 1973560
0.082000792 0.084424466 0.44788003 2105402
0.082535975 0.084146433 0.44640505 2500157
0.083095156 0.083898008 0.44508713 2960703
0.083673462 0.083673462 0.44389591 3289664
0.084257998 0.08345934 0.44275996 3618625
0.084843352 0.083250046 0.44164965 3618626
0.085446216 0.083061673 0.44065028 3618371
0.086054474 0.082881965 0.43969691 3882051
0.086660117 0.082703032 0.43874767 3816261
0.087267727 0.082529202 0.4378255 3882055
0.087907583 0.082388721 0.43708023 4013641
0.088545471 0.082248904 0.43633848 4079434
0.0891812 0.082109563 0.43559927 3750218
0.089813396 0.081969433 0.43485585 3421260
0.090443246 0.0818296 0.43411404 2894923
0.091088481 0.081705973 0.43345818 2105417
0.091765031 0.081612304 0.43296126 1710664
0.092440031 0.081518851 0.43246546 1380931
0.093120918 0.081432104 0.43200526 986432
0.09381412 0.081357479 0.43160936 789054
0.094514757 0.081290469 0.43125388 591933
0.095214233 0.08122357 0.43089896 460348
0.095907733 0.081152692 0.43052298 394555
0.096594952 0.081077695 0.43012509 394811
0.097284347 0.081005692 0.42974311 526139
0.097979084 0.080939241 0.42939058 591930
0.098672673 0.080872893 0.42903861 525624
0.099365123 0.080806658 0.42868721 525880
0.10005645 0.080740534 0.42833641 526136
0.10074968 0.080676943 0.42799908 526137
0.10145833 0.080626585 0.4277319 591931
0.10217694 0.080584832 0.42751041 460603
0.10289481 0.080543123 0.42728916 394810
0.10361193 0.080501467 0.42706814 525883
0.10432831 0.080459848 0.42684734 526138
0.10504856 0.08042179 0.42664546 591929
0.10577438 0.080388531 0.426469 657720
0.10649962 0.080355309 0.42629278 723000
0.10723212 0.080328003 0.42614791 657209
0.10796548 0.080301732 0.42600852 723001
0.10870343 0.080279216 0.42588907 723258
0.1094451 0.08025974 0.42578578 657979
0.11020355 0.080252759 0.42574874 723517
0.11096187 0.080245785 0.42571172 723515
0.11172341 0.080241211 0.42568746 526903
0.11248791 0.080238819 0.42567477 658233
0.11326178 0.080243096 0.42569745 723515
0.1140462 0.080254734 0.4257592 788541
0.11483663 0.080270424 0.42584243 788540
0.11562917 0.080287367 0.42593232 657467
0.11642205 0.080304317 0.42602226 460347
0.11721526 0.080321282 0.42611223 525629
0.11800881 0.080338247 0.42620224 460092
0.11880918 0.080359608 0.42631558 460862
0.11962501 0.080391087 0.42648256 526397
0.12045176 0.08042945 0.42668611 591677
0.12127931 0.080467857 0.42688987 591677
0.12210765 0.080506302 0.4270938 460606
0.12293678 0.080544785 0.42729795 395070
0.12376671 0.080583304 0.4275023 592444
0.12463374 0.08064536 0.4278315 855359
0.1255504 0.080738567 0.42832598 591935
0.12646918 0.08083199 0.42882159 591935
0.1273901 0.080925621 0.42931834 657727
0.12831315 0.081019484 0.42981628 789313
0.12925883 0.081126407 0.43038353 920901
0.13021521 0.081238739 0.43097946 1183816
0.13124359 0.081394389 0.43180519 1512779
0.13229193 0.081560507 0.43268648 1973325
0.13337533 0.081746168 0.43367141 3355473
0.13447943 0.081942275 0.43471178 4145230
0.13559324 0.082141988 0.43577126 4342607
0.13681461 0.082404189 0.43716228 4276559
0.13819791 0.082760356 0.43905178 4013390
0.13987538 0.083287619 0.44184896 2763087
0.14188364 0.08400476 0.44565347 3092298
0.079281166 0.088509656 0.46510166 1381176
0.079364762 0.087675206 0.46071678 1315127
0.07971371 0.087148145 0.45794716 1249843
0.080110759 0.086683944 0.45550787 1315634
0.080568001 0.086293645 0.45345694 1578550
0.081038773 0.085925534 0.45152256 2039608
0.081534207 0.085590638 0.44976273 2631738
0.082068309 0.085302524 0.44824877 2960700
0.082606383 0.085024133 0.44678587 3487295
0.083170116 0.084777273 0.44548866 3684415
0.083744504 0.084545881 0.44427276 4013377
0.084329344 0.084329344 0.44313487 4078912
0.084918372 0.084121019 0.44204018 4144959
0.085518464 0.083927423 0.44102287 3947585
0.086127087 0.083745696 0.44006792 4144961
0.08673308 0.083564751 0.43911707 4276547
0.087347202 0.08339484 0.43822426 4342339
0.087968752 0.083235011 0.43738437 4342342
0.088593654 0.083081163 0.43657592 4342598
0.089229651 0.082940333 0.4358359 4474182
0.089862332 0.082798913 0.43509278 4276551
0.090496421 0.082661234 0.43436927 3947593
0.091141336 0.082535714 0.43370971 3816011
0.091804333 0.082428575 0.43314669 3092555
0.092475049 0.082330108 0.43262926 2236745
0.093151785 0.082238607 0.43214846 1776199
0.093853839 0.082170792 0.43179208 1446982
0.094554737 0.082103081 0.4314363 1250117
0.095254473 0.082035482 0.43108109 1118533
0.095947772 0.08196348 0.43070272 855361
0.096635237 0.081887692 0.43030447 723519
0.097321443 0.081812046 0.42990696 591676
0.098013043 0.0817421 0.42953941 460089
0.098706849 0.081675075 0.42918721 525625
0.099399514 0.081608161 0.42883557 460089
0.10009104 0.081541352 0.4284845 460344
0.1007838 0.081476562 0.42814404 460344
0.10149024 0.08142373 0.42786643 526138
0.10220444 0.081377879 0.42762548 460602
0.10291923 0.081333175 0.42739058 460602
0.10363651 0.081291094 0.42716944 526139
0.10435306 0.081249058 0.42694855 526395
0.10506885 0.081207059 0.42672786 657467
0.10579076 0.081170373 0.42653507 657467
0.10651794 0.081138216 0.42636609 657210
0.10725055 0.081110634 0.42622116 525882
0.10798267 0.081083067 0.42607632 525881
0.10871637 0.081057087 0.42593977 525883
0.109456 0.081035845 0.42582816 460093
0.11021452 0.081028797 0.42579111 591677
0.11097291 0.081021741 0.42575407 591931
0.11173116 0.081014693 0.42571703 460345
0.11249068 0.08100865 0.42568526 526137
0.11326016 0.081009813 0.42569137 591932
0.11404805 0.081024036 0.42576611 657213
0.11484028 0.081041135 0.42585596 591677
0.11563285 0.081058249 0.42594588 526141
0.11642576 0.081075363 0.42603582 263484
0.11721899 0.081092484 0.42612579 460604
0.11801257 0.081109621 0.42621583 460348
0.11880648 0.081126757 0.42630589 526142
0.11962791 0.081162348 0.4264929 591935
0.12045694 0.081202604 0.42670444 591678
0.12128848 0.081244029 0.42692214 591935
0.12212087 0.081285499 0.42714006 460863
0.1229541 0.081327006 0.42735818 460862
0.12378797 0.081368417 0.42757577 591932
0.12468687 0.081451789 0.42801389 657469
0.12559977 0.081543237 0.42849442 657725
0.1265178 0.081636876 0.42898646 723774
0.12743914 0.081731483 0.42948362 789567
0.1283626 0.081826314 0.42998192 1052484
0.12931016 0.081935264 0.43055445 1315401
0.13034329 0.082096815 0.43140337 1644107
0.13138881 0.082264215 0.43228301 1841741
0.13243861 0.082432292 0.43316624 2894670
0.13353164 0.082625158 0.43417969 4144973
0.13463743 0.082823612 0.43522254 4342606
0.13577332 0.083038174 0.43635005 4342351
0.13703625 0.083327517 0.43787047 3947599
0.13847977 0.083722726 0.43994722 3552846
0.14025806 0.084314674 0.44305781 2565712
0.1428678 0.085396901 0.44874468 3355461
0.079305053 0.089375541 0.46524182 1381176
0.079420432 0.08856833 0.46103993 1380920
0.079767697 0.08803378 0.45825735 1315378
0.080176063 0.087576933 0.45587921 1447219
0.080630012 0.087178648 0.45380595 1907255
0.081111357 0.086817682 0.45192698 2697275
0.081606954 0.086479008 0.45016402 3158076
0.082135931 0.086182036 0.44861814 3684158
0.082681186 0.085907772 0.44719046 3881791
0.083245218 0.085658126 0.44589093 3947582
0.083815657 0.085419782 0.44465023 4079167
0.08440081 0.085200824 0.44351044 4144704
0.084993526 0.084993526 0.44243139 4144960
0.085590839 0.084794648 0.44139612 4013377
0.08619982 0.084610887 0.44043955 4210754
0.086808182 0.084429875 0.43949732 4276548
0.087426826 0.084262058 0.43862373 4276294
0.088048793 0.084100418 0.43778232 4408135
0.088668369 0.083939388 0.4369441 4407881
0.089285582 0.083778977 0.4361091 4276552
0.08992058 0.083637916 0.4353748 4342342
0.09056747 0.083510265 0.43471029 4342342
0.091212384 0.083383001 0.43404782 4210756
0.091858864 0.083259314 0.43340397 3947591
0.092532158 0.083161809 0.43289644 3487305
0.093215659 0.083075047 0.43244478 2763080
0.093893588 0.08298479 0.43197495 2105161
0.094594747 0.082916386 0.43161887 1973835
0.095294751 0.082848087 0.43126336 1908301
0.095987841 0.082774945 0.4308826 1644874
0.096675567 0.082698375 0.43048403 1381447
0.097362004 0.082621939 0.43008617 1118020
0.098047189 0.082545653 0.42968905 854847
0.09874104 0.082477808 0.42933589 854589
0.099433921 0.082410216 0.42898402 657467
0.10012567 0.082342729 0.42863274 526137
0.10083093 0.082287312 0.42834425 526393
0.10153608 0.082232639 0.42805967 592186
0.10224491 0.082181752 0.42779478 526394
