# .PCD v0.7 - Point Cloud Data file format
VERSION 0.7
FIELDS x y z rgb
SIZE 4 4 4 4
TYPE F F F U
COUNT 1 1 1 1
WIDTH 1174
HEIGHT 1
VIEWPOINT 0 0 0 1 0 0 0
POINTS 1174
DATA ascii
-0.14145288 0.12735166 0.48859209 8684676
-0.14067644 0.12744668 0.48895666 8684676
-0.13991079 0.12755273 0.48936355 8816262
-0.13917229 0.12768506 0.48987117 8947848
-0.13848206 0.12786363 0.4905563 8882055
-0.13776833 0.12802266 0.49116644 8947848
-0.13705283 0.1281821 0.49177814 8552831
-0.13633555 0.12834193 0.49239135 8421244
-0.13561647 0.12850216 0.49300608 8486780
-0.13489559 0.12866279 0.49362233 8420988
-0.1341729 0.12882382 0.49424013 8420987
-0.13344842 0.12898526 0.49485952 8420987
-0.13272211 0.1291471 0.49548042 8421244
-0.13199398 0.12930936 0.4961029 8421244
-0.13141738 0.12962328 0.4973073 9013640
-0.13104329 0.13014264 0.49929985 9276813
-0.13066618 0.13066618 0.50130844 9276813
-0.13046156 0.13137071 0.50401139 9079434
-0.13033581 0.13216509 0.5070591 9605778
-0.12967815 0.1324275 0.50806588 9605778
-0.12901786 0.13269097 0.50907665 9605778
-0.18391491 0.12896203 0.49136987 8421504
-0.18274321 0.12876095 0.49060374 8421504
-0.18157515 0.1285605 0.48984 8421504
-0.18041071 0.12836067 0.48907864 8421504
-0.17924991 0.12816149 0.48831967 6381921
-0.17809269 0.1279629 0.48756301 2039583
-0.17693906 0.12776493 0.48680872 328965
-0.17577805 0.12755963 0.48602647 0
-0.17462085 0.12735505 0.48524702 0
-0.17350899 0.12718165 0.48458633 0
-0.17257798 0.12713972 0.48442656 0
-0.17164917 0.12709901 0.48427141 0
-0.17072096 0.12705831 0.48411638 0
-0.16979335 0.12701765 0.48396143 0
-0.16886632 0.12697701 0.48380658 0
-0.1679399 0.12693639 0.48365185 0
-0.16701408 0.12689582 0.4834972 0
-0.16608882 0.12685524 0.48334265 0
-0.16516417 0.12681471 0.48318818 0
-0.16424011 0.12677419 0.48303384 0
-0.16331665 0.12673372 0.48287961 0
-0.16239376 0.12669326 0.48272544 0
-0.16148584 0.12666409 0.48261431 0
-0.1606119 0.12666142 0.48260412 0
-0.15977019 0.12668426 0.48269117 0
-0.15895808 0.12673096 0.48286912 0
-0.15814538 0.12677769 0.48304719 0
-0.15733208 0.12682447 0.48322541 0
-0.15651818 0.12687127 0.48340374 0
-0.15570366 0.12691812 0.4835822 0
-0.15488857 0.12696499 0.4837608 0
-0.15407102 0.12701038 0.48393375 0
-0.15324876 0.1270524 0.48409382 0
-0.15242597 0.12709443 0.484254 0
-0.15162626 0.12715632 0.48448977 0
-0.15086459 0.127251 0.48485053 394758
-0.15010177 0.12734582 0.48521182 1381400
-0.14933783 0.12744078 0.48557365 3354942
-0.14857273 0.12753588 0.48593602 7631990
-0.14780605 0.12763074 0.48629743 8684676
-0.14703797 0.12772553 0.48665857 8684676
-0.14626876 0.12782045 0.48702025 8684676
-0.14549841 0.12791552 0.4873825 8684676
-0.1447269 0.12801073 0.48774526 8684676
-0.14395426 0.12810609 0.48810858 8684676
-0.14318044 0.12820157 0.4884724 8684676
-0.1424055 0.12829721 0.4888368 8684676
-0.14162938 0.12839299 0.48920175 8684676
-0.14085211 0.12848891 0.48956722 8684676
-0.14007111 0.12858263 0.48992431 8750469
-0.13928676 0.12867443 0.4902741 8882055
-0.13857716 0.12883691 0.49089319 8882055
-0.13786577 0.1289998 0.49151382 8750469
-0.13715258 0.1291631 0.49213603 8487038
-0.13643758 0.12932682 0.49275982 8289658
-0.13572076 0.12949096 0.49338523 8355194
-0.13500212 0.12965551 0.49401218 8289658
-0.13428167 0.12982048 0.49464074 8289658
-0.13355936 0.12998587 0.49527091 8223866
-0.13284327 0.13015956 0.49593273 8158073
-0.13214278 0.13035102 0.4966622 8158073
-0.13144024 0.13054304 0.49739382 8421502
-0.13089578 0.13089578 0.49873787 9276813
-0.13051851 0.13142174 0.5007419 9276813
-0.13030022 0.13211626 0.50338811 9079434
-0.12996182 0.13269785 0.50560409 9605778
-0.12930529 0.13296057 0.50660509 9605778
-0.12864618 0.13322434 0.50761008 9605778
-0.12798442 0.13348913 0.50861901 8158332
-0.18583547 0.13120432 0.49650106 7237230
-0.18304321 0.12985875 0.49140915 8421504
-0.18187277 0.12965626 0.49064291 8421504
-0.18070596 0.1294544 0.48987904 8421504
-0.17954279 0.12925316 0.48911756 8026746
-0.17838323 0.12905256 0.48835844 3092271
-0.17722729 0.12885259 0.4876017 526344
-0.17607489 0.12865323 0.48684728 0
-0.17492607 0.12845449 0.48609519 0
-0.17380123 0.12827143 0.48540249 0
-0.17284074 0.12820846 0.48516417 0
-0.1719124 0.12816879 0.48501408 0
-0.17098464 0.12812915 0.48486409 0
-0.17005745 0.12808955 0.48471418 0
-0.16913083 0.12804995 0.48456439 0
-0.16820401 0.1280098 0.48441243 0
-0.16727664 0.1279688 0.48425731 0
-0.16634986 0.12792784 0.48410228 0
-0.16542366 0.12788689 0.48394734 0
-0.16449808 0.12784599 0.48379251 0
-0.16357307 0.1278051 0.48363778 0
-0.16264866 0.12776423 0.48348314 0
-0.16172485 0.1277234 0.48332861 0
-0.16082676 0.12770255 0.48324972 0
-0.16001153 0.12774763 0.48342031 0
-0.15919828 0.12779479 0.4835988 0
-0.15838031 0.12783866 0.4837648 0
-0.15755978 0.12788093 0.48392478 0
-0.15673871 0.12792324 0.48408484 0
-0.15591708 0.12796555 0.484245 0
-0.15509491 0.12800792 0.48440528 0
-0.1542722 0.1280503 0.48456568 0
-0.15344894 0.12809271 0.48472616 0
-0.15262514 0.12813514 0.48488677 0
-0.15181461 0.12818928 0.4850916 0
-0.15105212 0.12828484 0.48545325 197379
-0.15028851 0.12838055 0.48581544 855309
-0.14952374 0.12847641 0.48617816 2631217
-0.14875735 0.12857199 0.48653984 6447462
-0.14798962 0.12866752 0.48690137 8684676
-0.14722072 0.1287632 0.48726341 8684676
-0.1464507 0.12885901 0.48762602 8684676
-0.1456795 0.12895498 0.48798913 8684676
-0.14490718 0.12905107 0.48835281 8684676
-0.1441337 0.12914732 0.48871702 8684676
-0.14335907 0.12924372 0.48908177 8684676
-0.14257398 0.12933183 0.4894152 8750469
-0.14178701 0.12941928 0.48974618 8750469
-0.14099896 0.12950689 0.49007764 8750469
-0.14020984 0.12959458 0.49040952 8750469
-0.13941965 0.12968241 0.49074185 8750469
-0.13870168 0.12983894 0.49133426 8882055
-0.1379898 0.13000326 0.49195603 8816005
-0.13727613 0.13016798 0.49257937 8553088
-0.13656065 0.13033313 0.4932043 8289658
-0.13584334 0.13049868 0.4938308 8289658
-0.13512421 0.13066466 0.49445891 8223865
-0.13441303 0.1308406 0.49512467 8158072
-0.133716 0.13103274 0.49585178 8158072
-0.13301691 0.13122545 0.49658102 8092536
-0.13231577 0.13141872 0.4973124 8092536
-0.13161257 0.13161257 0.49804595 8158072
-0.13090728 0.13180698 0.49878165 8421501
-0.13037118 0.13217562 0.50017667 9276813
-0.13013929 0.13285998 0.50276637 9408399
-0.12958996 0.13322757 0.50415742 9605778
-0.12893459 0.13349058 0.5051527 9605778
-0.12827663 0.13375463 0.50615191 9605778
-0.12761606 0.13401973 0.50715512 9605778
-0.18334419 0.13096014 0.49221718 8421504
-0.18217136 0.1307556 0.49144843 8421504
-0.18100218 0.1305517 0.49068207 8421504
-0.17983665 0.13034843 0.48991808 8289918
-0.17867677 0.13014728 0.48916203 4539717
-0.1775396 0.12996076 0.48846099 855309
-0.1764057 0.12977476 0.48776194 65793
-0.17527503 0.1295893 0.4870649 257
-0.17414759 0.12940438 0.48636985 258
-0.17307837 0.12926106 0.48583117 257
-0.17214867 0.12922102 0.48568067 514
-0.17121956 0.129181 0.48553026 514
-0.17029104 0.12914102 0.48537996 514
-0.16936307 0.12910104 0.48522973 514
-0.16843568 0.1290611 0.48507962 515
-0.16750886 0.12902118 0.48492959 771
-0.16658261 0.12898129 0.48477966 1542
-0.16565695 0.12894143 0.48462981 2057
-0.16473185 0.12890159 0.48448005 2828
-0.16380732 0.12886176 0.48433039 3599
-0.16288336 0.12882197 0.48418081 4370
-0.16196461 0.12878588 0.48404518 5141
-0.16106048 0.12876108 0.48395202 5656
-0.16023526 0.12879945 0.48409623 7455
-0.15940954 0.12883784 0.4842405 9254
-0.15858707 0.12887929 0.48439631 10797
-0.15776554 0.12892197 0.4845567 12853
-0.15694346 0.12896468 0.48471719 14395
-0.15612082 0.1290074 0.48487777 6169
-0.15529764 0.12905015 0.48503846 1028
-0.15447392 0.12909293 0.48519927 0
-0.15364966 0.12913576 0.48536021 0
-0.15282485 0.1291786 0.48552123 0
-0.15200342 0.12922481 0.48569492 0
-0.15124013 0.12932126 0.48605746 65793
-0.1504757 0.12941788 0.48642057 657930
-0.14970961 0.12951417 0.48678252 2039334
-0.14894219 0.12961046 0.48714441 5197398
-0.14817363 0.12970689 0.48750681 8618883
-0.14740393 0.12980345 0.48786977 8684676
-0.14663307 0.12990017 0.48823327 8684676
-0.1458551 0.1299917 0.48857731 8750469
-0.14507167 0.13007946 0.48890716 8750469
-0.14428718 0.13016735 0.48923746 8750469
-0.14350165 0.13025534 0.4895682 8750469
-0.14271505 0.13034347 0.48989943 8750469
-0.14192738 0.13043171 0.49023107 8750469
-0.14113864 0.13052006 0.49056315 8750469
-0.14034884 0.13060853 0.49089569 8750469
-0.13955796 0.13069713 0.4912287 8750469
-0.13882643 0.13084279 0.49177617 8882055
-0.13811406 0.13100852 0.49239904 8816262
-0.13739991 0.13117467 0.49302351 8618882
-0.13668393 0.13134123 0.49364954 8289659
-0.1359777 0.13151942 0.49431926 8158072
-0.1352841 0.13171224 0.49504399 8158072
-0.13458845 0.13190563 0.49577084 8158072
-0.13389076 0.13209958 0.49649984 8158072
-0.13319102 0.13229412 0.49723098 8158072
-0.13248922 0.13248922 0.49796429 8158072
-0.13178533 0.1326849 0.49869975 8158072
-0.13107938 0.13288115 0.49943739 8158072
-0.13037132 0.13307799 0.5001772 8421502
-0.12987189 0.13349201 0.5017333 9211020
-0.12922023 0.13375428 0.50271904 9408399
-0.12863989 0.13409458 0.5039981 9013641
-0.12810543 0.13448791 0.50547642 9013641
-0.12756783 0.13488355 0.50696343 8947848
-0.18412571 0.13241 0.4943153 8224125
-0.18247525 0.13186167 0.49226823 8421504
-0.18132539 0.13167149 0.49155825 8421504
-0.18017885 0.13148187 0.49085033 8421504
-0.17903562 0.13129279 0.49014446 6052956
-0.17789567 0.13110425 0.48944059 1776411
-0.17675897 0.13091625 0.48873875 263172
-0.17562553 0.13072878 0.4880389 514
-0.17449534 0.13054186 0.48734108 2828
-0.17336839 0.13035548 0.48664525 19279
-0.1723856 0.13027614 0.48634911 22365
-0.17145513 0.13023575 0.48619828 23392
-0.17052525 0.13019538 0.48604757 24163
-0.16959593 0.13015501 0.48589692 24677
-0.1686672 0.13011469 0.48574638 24420
-0.16773903 0.1300744 0.48559594 24163
-0.16681145 0.13003412 0.48544559 23906
-0.16588444 0.12999387 0.48529533 23649
-0.164958 0.12995365 0.48514515 23392
-0.1640403 0.12991992 0.48501921 23135
-0.16312705 0.12988937 0.48490518 22878
-0.16221423 0.12985884 0.48479119 22621
-0.16130184 0.12982832 0.48467726 22364
-0.16046865 0.12986155 0.48480135 22107
-0.1596418 0.12990032 0.48494607 21593
-0.15881446 0.12993911 0.48509088 21078
-0.15798663 0.12997793 0.48523578 20307
-0.1571583 0.13001676 0.48538074 19279
-0.15632947 0.13005561 0.48552582 11054
-0.1555009 0.13009512 0.48567331 1800
-0.15467617 0.13013831 0.48583454 0
-0.15385088 0.13018152 0.48599586 0
-0.15302508 0.13022478 0.48615733 0
-0.15219869 0.13026804 0.48631886 0
-0.15142861 0.13036028 0.48666319 0
-0.15066282 0.13045731 0.48702544 460551
-0.14989573 0.13055435 0.48738769 1578780
-0.14912499 0.13064933 0.48774227 4013127
-0.14834511 0.13073739 0.48807102 8487298
-0.14756419 0.13082556 0.48840019 8750469
-0.14678219 0.13091385 0.4887298 8750469
-0.14599915 0.13100226 0.48905987 8750469
-0.14521505 0.13109079 0.48939037 8750469
-0.14442989 0.13117945 0.48972133 8750469
-0.14364368 0.13126822 0.49005273 8750469
-0.14285639 0.1313571 0.49038458 8750469
-0.14206803 0.13144612 0.49071687 8750469
-0.14127861 0.13153526 0.49104965 8750469
-0.1404881 0.1316245 0.49138284 8750469
-0.13969654 0.13171388 0.4917165 8750469
-0.13895139 0.13184844 0.49221885 8882055
-0.13823855 0.1320156 0.49284285 8750469
-0.13753729 0.13219602 0.49351645 8553090
-0.13684709 0.13238953 0.49423882 8421246
-0.13615488 0.13258359 0.49496332 8223866
-0.13546063 0.13277824 0.49568996 8158072
-0.13476433 0.13297345 0.49641871 8158072
-0.13406599 0.13316923 0.49714962 8223865
-0.1333618 0.1333618 0.49786851 8223865
-0.13265242 0.13355176 0.49857768 8289401
-0.13194102 0.13374226 0.49928886 8289401
-0.13122758 0.13393331 0.50000209 8355195
-0.1305106 0.13412336 0.50071156 8420731
-0.1298666 0.13439156 0.50171286 8816262
-0.12933815 0.13478395 0.50317776 8816262
-0.12880662 0.13517867 0.50465131 8816262
-0.12827194 0.13557568 0.50613344 8947848
-0.12765171 0.1358873 0.50729674 8882055
-0.18513811 0.1340346 0.49703324 8092539
-0.18370356 0.13364322 0.4955819 8092283
-0.18218297 0.1331851 0.49388307 7631988
-0.18067276 0.13273011 0.49219584 7631988
-0.17939591 0.13244291 0.49113083 6645093
-0.17825314 0.13225234 0.49042413 2763306
-0.17711365 0.1320623 0.48971945 460551
-0.17597745 0.13187283 0.48901683 0
-0.17484449 0.13168389 0.48831618 1028
-0.17371477 0.13149549 0.48761755 10796
-0.17262317 0.13133417 0.48701936 14652
-0.17169136 0.13129339 0.48686814 14652
-0.17076011 0.13125263 0.48671699 14138
-0.16982944 0.13121191 0.48656595 13624
-0.16889936 0.1311712 0.486415 13367
-0.16796985 0.13113052 0.48626414 12853
-0.16704091 0.13108985 0.48611337 12339
-0.16612434 0.13105851 0.48599717 12081
-0.16520877 0.13102764 0.48588267 11824
-0.16429362 0.13099678 0.48576823 11311
-0.16337889 0.13096593 0.48565382 11053
-0.16246462 0.1309351 0.4855395 10796
-0.16155076 0.13090427 0.4854252 10539
-0.16070274 0.13092676 0.48550856 9768
-0.15987475 0.13096589 0.4856537 8740
-0.15904628 0.13100506 0.48579893 7711
-0.1582173 0.13104424 0.48594424 6683
-0.15738782 0.13108346 0.48608965 5655
-0.15655786 0.13112269 0.48623514 3855
-0.15572739 0.13116194 0.4863807 515
-0.15489644 0.13120122 0.48652637 0
-0.15406498 0.13124053 0.48667213 0
-0.15323301 0.13127986 0.48681796 0
-0.15240057 0.13131921 0.4869639 0
-0.15160759 0.13139324 0.48723841 0
-0.15083019 0.13148171 0.48756647 263172
-0.15005176 0.13157031 0.48789501 1118227
-0.14927226 0.13165902 0.48822397 2960184
-0.14849173 0.13174784 0.48855338 7368819
-0.14771013 0.1318368 0.48888323 8750469
-0.14692748 0.13192587 0.48921353 8750469
-0.14614376 0.13201506 0.48954427 8750469
-0.14535899 0.13210438 0.48987547 8750469
-0.14457317 0.1321938 0.49020711 8750469
-0.14378627 0.13228336 0.49053919 8750469
-0.14299829 0.13237303 0.49087173 8750469
-0.14220928 0.13246284 0.49120474 8750469
-0.14141916 0.13255276 0.49153817 8750469
-0.14062798 0.13264281 0.49187207 8750469
-0.13983573 0.13273296 0.49220642 8750469
-0.13908467 0.13286364 0.49269098 8947848
-0.13839075 0.13305092 0.49338546 8882055
-0.13769487 0.13323873 0.49408191 8750469
-0.13699701 0.13342705 0.4947803 8750468
-0.13629718 0.13361593 0.49548069 8487038
-0.13559538 0.13380535 0.49618307 8289659
-0.13489158 0.13399529 0.49688745 8289659
-0.13418578 0.13418578 0.49759382 8355195
-0.13347796 0.13437681 0.49830219 8355195
-0.13276812 0.13456838 0.49901259 8355195
-0.13205627 0.1347605 0.49972501 8355451
-0.13133608 0.13494669 0.50041544 8420987
-0.13061109 0.13513049 0.50109708 8487038
-0.13003413 0.13547111 0.50236011 8816262
-0.1295055 0.13586716 0.50382882 8816262
-0.12897377 0.13626556 0.50530618 8882055
-0.12836574 0.13658845 0.50650352 9079434
-0.12778871 0.1369492 0.50784123 8882055
-0.12785944 0.13801435 0.51179111 6250335
-0.18533103 0.13507177 0.4975512 7237230
-0.18409799 0.13482602 0.49664596 8421504
-0.18286942 0.13458116 0.49574399 8421504
-0.1816453 0.13433719 0.49484527 8355711
-0.18042561 0.1340941 0.49394983 5526356
-0.17921034 0.13385189 0.49305764 2697513
-0.1777698 0.13343817 0.49153367 460551
-0.17633078 0.13302146 0.48999867 855823
-0.17519504 0.1328305 0.48929521 257
-0.17406256 0.13264008 0.48859379 514
-0.17293331 0.13245019 0.48789436 771
-0.17192823 0.13235396 0.48753983 515
-0.17099562 0.13231282 0.48738828 514
-0.1700636 0.13227169 0.4872368 514
-0.16913517 0.13223295 0.4870941 514
-0.16821681 0.13220172 0.48697907 514
-0.1672989 0.13217051 0.48686412 514
-0.1663814 0.13213933 0.4867492 258
-0.16546434 0.13210814 0.48663434 257
-0.16454773 0.13207698 0.48651955 257
-0.16363154 0.13204582 0.48640481 257
-0.16271578 0.13201469 0.4862901 257
-0.16180046 0.13198356 0.48617548 257
-0.1609375 0.13199505 0.4862178 0
-0.16010837 0.13203458 0.48636338 0
-0.15927875 0.13207412 0.48650903 0
-0.15844864 0.13211368 0.48665476 0
-0.15761803 0.13215327 0.48680061 0
-0.15678692 0.13219289 0.48694652 0
-0.1559553 0.13223252 0.48709252 0
-0.15512319 0.13227218 0.48723862 0
-0.15429172 0.13231285 0.4873884 0
-0.15346819 0.13236082 0.48756513 0
-0.15264408 0.13240884 0.48774201 0
-0.15181935 0.13245688 0.48791897 0
-0.15099403 0.13250497 0.48809609 131586
-0.15020508 0.13258572 0.48839355 723724
-0.1494249 0.1326752 0.48872319 2499887
-0.14864366 0.1327648 0.48905325 6315877
-0.14786136 0.13285454 0.48938379 8750469
-0.14707802 0.13294439 0.48971477 8750469
-0.14629361 0.13303436 0.4900462 8750469
-0.14550813 0.13312446 0.49037805 8750469
-0.14472158 0.13321467 0.49071038 8750469
-0.14393398 0.13330501 0.49104315 8750469
-0.14314531 0.13339548 0.49137637 8750469
-0.14235556 0.13348606 0.49171007 8750469
-0.14156508 0.13357709 0.49204537 8750469
-0.14077643 0.133671 0.49239129 8750469
-0.13998666 0.13376503 0.49273768 8750469
-0.13920456 0.13386765 0.49311569 8882055
-0.13851021 0.13405651 0.49381137 8947848
-0.1378139 0.1342459 0.49450901 8882054
-0.13711561 0.13443583 0.49520862 8816261
-0.13641535 0.1346263 0.49591023 8552832
-0.1357131 0.1348173 0.49661383 8289659
-0.13500884 0.13500884 0.4973194 8289659
-0.13430259 0.13520093 0.498027 8289915
-0.13359433 0.13539357 0.49873662 8355451
-0.13288201 0.13558471 0.49944064 8420987
-0.13216056 0.13576902 0.50011963 8355451
-0.13143712 0.13595387 0.50080049 8355451
-0.13072787 0.13615602 0.50154513 8618625
-0.13020211 0.13655344 0.50300908 8816262
-0.12967327 0.13695318 0.50448155 8882055
-0.12907754 0.13728741 0.50571275 9079434
-0.12844495 0.13758694 0.50681609 9079434
-0.12807982 0.1381793 0.5089981 8750469
-0.128153 0.13925651 0.5129661 7500402
-0.18428969 0.1358632 0.49716312 8421504
-0.1830595 0.1356162 0.49625927 8421504
-0.18183376 0.13537011 0.49535871 8355711
-0.18061247 0.13512489 0.49446142 5197647
-0.1793956 0.13488056 0.49356735 1579032
-0.17818312 0.13463712 0.49267653 197379
-0.17697501 0.13439456 0.49178889 0
-0.17577124 0.13415286 0.49090445 0
-0.1745718 0.13391204 0.49002323 526859
-0.17337663 0.13367207 0.4891451 0
-0.17216575 0.13341746 0.48821339 67335
-0.17123847 0.13338111 0.48808044 0
-0.17031775 0.13334957 0.48796496 0
-0.16939749 0.13331802 0.48784953 0
-0.16847764 0.13328649 0.48773417 0
-0.16755824 0.13325498 0.48761883 0
-0.16663927 0.13322347 0.48750359 0
-0.16572073 0.13319199 0.48738837 0
-0.16480263 0.13316052 0.48727322 0
-0.16388495 0.13312906 0.48715809 0
-0.16296773 0.13309762 0.48704305 0
-0.16205092 0.13306619 0.48692805 0
-0.16117296 0.13306649 0.48692915 0
-0.16034269 0.1331064 0.48707515 0
-0.15951192 0.13314632 0.48722121 0
-0.15868066 0.13318627 0.48736739 0
-0.15784889 0.13322623 0.48751363 0
-0.15701663 0.13326623 0.48765999 0
-0.15618773 0.13330953 0.48781848 0
-0.15536417 0.13335791 0.48799551 0
-0.15454 0.13340633 0.48817268 0
-0.15371524 0.13345477 0.48834997 0
-0.15288988 0.13350326 0.48852739 0
-0.15206391 0.13355178 0.48870495 0
-0.15123735 0.13360034 0.48888263 65793
-0.15041018 0.13364893 0.48906043 592137
-0.14958242 0.13369755 0.48923838 1973541
-0.1487959 0.13378386 0.48955417 5197398
-0.14801292 0.13387437 0.48988539 8684676
-0.14722887 0.133965 0.49021703 8750469
-0.14644375 0.13405576 0.49054915 8750469
-0.14565757 0.13414663 0.49088168 8750469
-0.14487033 0.13423763 0.49121469 8750469
-0.14408201 0.13432877 0.49154815 8750469
-0.14329463 0.1344219 0.49188894 8750469
-0.14250743 0.13451637 0.49223465 8750469
-0.14171915 0.13461097 0.49258083 8750469
-0.14092973 0.13470571 0.49292749 8750469
-0.14013922 0.13480058 0.49327466 8750469
-0.13934758 0.13489558 0.4936223 8816262
-0.13862988 0.13506384 0.49423799 8947848
-0.13793314 0.13525482 0.49493685 8882055
-0.1372344 0.13544634 0.49563769 8816261
-0.13653371 0.1356384 0.49634051 8618625
-0.13583101 0.13583101 0.49704531 8355451
-0.13512632 0.13602416 0.49775213 8355195
-0.13441962 0.13621788 0.49846098 8355451
-0.13370399 0.13640508 0.49914598 8420987
-0.13298407 0.13659042 0.4998242 8355451
-0.1322622 0.13677627 0.50050426 8355451
-0.13153835 0.13696261 0.50118613 8355451
-0.13089646 0.13723747 0.50219196 8816262
-0.13037051 0.13763857 0.50365967 8816262
-0.12978712 0.1379842 0.50492448 9079434
-0.12915707 0.13828477 0.50602436 9079434
-0.12852426 0.13858666 0.50712901 9013641
-0.12837225 0.13941503 0.51016027 8750469
-0.12844788 0.14050436 0.51414645 7500402
-0.1844818 0.13690256 0.49768138 8421504
-0.18324998 0.13665341 0.49677566 8421504
-0.18202263 0.13640517 0.49587321 8355711
-0.18079972 0.13615783 0.49497405 4539717
-0.17958125 0.13591138 0.49407813 1315860
-0.17836718 0.13566582 0.49318546 263172
-0.17715749 0.13542114 0.49229598 65793
-0.1759534 0.1351783 0.49141321 0
-0.17483026 0.13499551 0.4907487 65793
-0.17371015 0.13481323 0.49008605 0
-0.17259307 0.13463143 0.48942515 0
-0.17150325 0.13446912 0.48883513 0
-0.17058146 0.13443759 0.48872048 0
-0.16966011 0.13440606 0.48860586 0
-0.16873918 0.13437454 0.48849133 0
-0.16781838 0.1343428 0.4883759 0
-0.16689792 0.13431099 0.48826027 0
-0.16597791 0.13427921 0.48814473 0
-0.16505831 0.13424744 0.48802921 0
-0.16413915 0.13421567 0.48791373 0
-0.16322044 0.13418391 0.48779833 0
-0.16230215 0.13415219 0.48768297 0
-0.16140909 0.13414107 0.48764256 0
-0.16057767 0.13418135 0.48778898 0
-0.15974577 0.13422164 0.48793548 0
-0.15891336 0.13426198 0.48808208 0
-0.15808709 0.13430798 0.4882493 0
-0.15726349 0.13435677 0.48842666 0
-0.15643927 0.13440558 0.48860413 65793
-0.15561448 0.13445444 0.48878175 65793
-0.15478908 0.13450332 0.48895946 65793
-0.15396307 0.13455226 0.48913735 65793
-0.15313646 0.13460122 0.48931533 65793
-0.15230927 0.13465022 0.48949346 131586
-0.15148145 0.13469926 0.48967171 131586
-0.15065305 0.13474832 0.4898501 460551
-0.14982402 0.13479742 0.49002862 1381400
-0.1489944 0.13484657 0.49020725 3684161
-0.14816478 0.13489629 0.49038801 8421504
-0.14738002 0.13498771 0.49072033 8750469
-0.1465942 0.13507925 0.4910531 8750469
-0.1458077 0.13517126 0.49138764 8750469
-0.14502308 0.13526617 0.49173263 8750469
-0.14423734 0.13536119 0.4920781 8750469
-0.14345051 0.13545637 0.49242407 8750469
-0.14266257 0.13555166 0.49277049 8750469
-0.14187354 0.1356471 0.49311745 8750469
-0.14108337 0.13574268 0.49346486 8750469
-0.14029211 0.13583839 0.4938128 8750469
-0.13949971 0.13593422 0.49416119 8750469
-0.13874976 0.13607292 0.49466538 8947848
-0.13805257 0.13626549 0.49536544 8882055
-0.13735342 0.13645861 0.49606749 8816262
-0.13665228 0.13665228 0.49677151 8684418
-0.13594913 0.13684648 0.49747756 8421244
-0.13524142 0.13703865 0.4981761 8355451
-0.13452499 0.13722448 0.49885169 8420987
-0.1338066 0.13741082 0.49952909 8355451
-0.13308626 0.13759767 0.50020832 8355707
-0.13236398 0.13778503 0.50088942 8355451
-0.13163972 0.13797291 0.50157243 8487038
-0.1310655 0.13832171 0.50284046 8816262
-0.13049451 0.13867882 0.50413865 9013641
-0.12986696 0.13898043 0.50523508 9079434
-0.1292367 0.13928336 0.50633633 9079434
-0.12860367 0.13958761 0.50744236 8882055
-0.12866603 0.14065641 0.51132774 8750469
-0.12874411 0.14175797 0.51533222 7500402
-0.18467431 0.13794407 0.49820071 7237230
-0.18344085 0.13769276 0.49729308 8421504
-0.18221188 0.13744237 0.49638876 8092540
-0.18098736 0.13719289 0.49548772 3881534
-0.1798321 0.13699368 0.49476826 1907743
-0.17869602 0.13680717 0.49409467 1381397
-0.17756303 0.13662118 0.49342293 921102
-0.17643312 0.13643569 0.492753 657930
-0.17530628 0.13625069 0.49208489 460551
-0.17418247 0.13606621 0.4914186 328965
-0.17306173 0.13588223 0.49075413 263172
-0.17194399 0.13569874 0.49009141 263172
-0.17084473 0.13552798 0.48947474 131586
-0.16992189 0.13549615 0.4893598 131586
-0.16899949 0.13546436 0.48924491 131586
-0.16807753 0.13543254 0.48913005 131586
-0.16715598 0.13540076 0.48901525 131586
-0.16623488 0.13536899 0.48890051 131586
-0.16531421 0.13533723 0.48878583 131586
-0.16439398 0.13530551 0.48867121 131586
-0.16347395 0.13527359 0.48855597 131586
-0.16255417 0.13524155 0.48844025 131586
-0.16164593 0.1352188 0.48835808 131586
-0.16081336 0.13525946 0.48850492 197379
-0.1599898 0.13530818 0.48868087 197379
-0.15916616 0.13535738 0.48885855 197379
-0.15834193 0.1354066 0.48903635 263172
-0.15751708 0.13545586 0.48921427 263172
-0.15669164 0.13550517 0.48939231 263172
-0.15586559 0.13555451 0.4895705 394758
-0.15503895 0.13560387 0.48974881 526344
-0.15421171 0.13565329 0.48992726 592137
-0.15338385 0.13570271 0.49010581 723723
-0.15255284 0.13574992 0.49027628 855309
-0.15172094 0.13579687 0.49044588 921102
-0.15088847 0.13584387 0.49061561 1118481
-0.15005542 0.13589089 0.49078542 1447447
-0.14922179 0.13593796 0.49095538 2762803
-0.14838758 0.13598503 0.49112543 6776426
-0.1475497 0.1360293 0.49128529 8618883
-0.14674607 0.13610588 0.49156186 8750469
-0.14596605 0.1362054 0.49192134 8750469
-0.14518079 0.13630123 0.4922674 8750469
-0.14439431 0.13639709 0.49261361 8750469
-0.14360674 0.13649309 0.49296033 8750469
-0.14281805 0.13658923 0.49330753 8750469
-0.14202826 0.13668551 0.49365523 8750469
-0.14123735 0.1367819 0.49400342 8750469
-0.14044532 0.13687845 0.4943521 8750469
-0.13965216 0.13697512 0.49470127 8750469
-0.13886984 0.13708374 0.49509349 8882055
-0.13817222 0.1372779 0.49579477 8882055
-0.13747263 0.13747263 0.49649802 8816262
-0.13677104 0.13766791 0.49720329 8684675
-0.13605992 0.1378561 0.49788296 8421244
-0.13534503 0.13804293 0.49855775 8355451
-0.13462818 0.13823026 0.49923435 8355451
-0.13390939 0.13841812 0.4999128 8355451
-0.13318864 0.13860647 0.50059307 8355452
-0.13246593 0.13879536 0.50127524 8420988
-0.13175821 0.13900265 0.50202388 8618625
-0.13119969 0.13937129 0.50335526 9013641
-0.13057466 0.13967393 0.50444829 9079434
-0.1299469 0.1399779 0.50554609 9079434
-0.12931642 0.14028318 0.50664866 9079434
-0.12888178 0.14080679 0.50853974 8816262
-0.12896113 0.14190347 0.51250052 8750469
-0.1289887 0.1429586 0.51631123 6250335
-0.18376411 0.13883401 0.49816942 8421504
-0.18261485 0.13864371 0.49748656 8092541
-0.18146874 0.13845393 0.49680558 4538208
-0.18032575 0.13826466 0.49612644 1839687
-0.17918588 0.1380759 0.49544916 1378621
-0.17804913 0.13788767 0.49477375 1444403
-0.17691547 0.13769995 0.49410015 1445164
-0.17578489 0.13751274 0.49342838 1511462
-0.17465739 0.13732603 0.49275845 1577759
-0.17353295 0.13713984 0.49209034 1578265
-0.17241153 0.13695414 0.49142402 1315349
-0.17129315 0.13676895 0.49075952 1052688
-0.17018449 0.13658963 0.49011606 789516
-0.16926061 0.13655752 0.49000081 855309
-0.16833715 0.13652541 0.4898856 855309
-0.16741413 0.13649331 0.48977044 921102
-0.16649155 0.13646124 0.48965538 986895
-0.16556939 0.13642919 0.48954034 986895
-0.16464767 0.13639714 0.48942533 1052688
-0.16372639 0.13636512 0.48931041 1052688
-0.16280554 0.13633309 0.48919553 1118481
-0.16190474 0.13631761 0.48913997 1184018
-0.16103633 0.13632938 0.48918223 1184275
-0.16020921 0.13637644 0.48935106 1381653
-0.15938152 0.13642353 0.48952001 1512983
-0.15855327 0.13647065 0.48968908 1644569
-0.15772444 0.13651779 0.48985827 1710619
-0.15689504 0.13656497 0.49002758 1710110
-0.15606506 0.13661219 0.490197 1644321
-0.15523452 0.13665944 0.49036655 1578276
-0.15440339 0.13670672 0.49053621 1512231
-0.15357168 0.13675404 0.49070597 1446186
-0.15273941 0.13680138 0.49087587 1380141
-0.15190655 0.13684876 0.49104586 1314096
-0.15107313 0.13689618 0.491216 1248307
-0.15023912 0.13694362 0.49138626 1182263
-0.14940251 0.13698925 0.49155 1840452
-0.14855951 0.13702951 0.49169445 5262437
-0.14771599 0.13706979 0.49183896 8618883
-0.14688326 0.13712062 0.49202138 8750469
-0.14610261 0.13722099 0.49238151 8816262
-0.14532082 0.1373215 0.49274218 8816262
-0.14453788 0.13742216 0.49310338 8816262
-0.14375378 0.13752297 0.4934651 8816262
-0.14296854 0.13762392 0.49382734 8816262
-0.14218214 0.13772503 0.49419013 8750469
-0.14139165 0.1378234 0.49454314 8750469
-0.14059888 0.1379208 0.4948926 8750469
-0.13980497 0.13801832 0.49524254 8750469
-0.13900994 0.13811597 0.49559295 8816262
-0.13829209 0.13829209 0.49622485 8947848
-0.1375889 0.13848525 0.49691799 8947847
-0.13687746 0.13867258 0.49759015 8618882
-0.13616408 0.1388604 0.49826413 8355452
-0.13544877 0.13904874 0.49893993 8355451
-0.13473153 0.1392376 0.49961758 8355451
-0.13401233 0.13942696 0.50029707 8355707
-0.13329116 0.13961685 0.50097841 8355451
-0.13256803 0.13980724 0.5016616 8355451
-0.13190266 0.14006159 0.50257427 8947848
-0.13128012 0.14036526 0.5036639 9079434
-0.1306549 0.14067025 0.5047583 9079434
-0.13002694 0.14097658 0.50585747 9079434
-0.12939624 0.14128423 0.50696141 9079434
-0.1291758 0.14204741 0.50969982 8750469
-0.1292576 0.14315628 0.51367873 8816262
-0.1840883 0.13997912 0.49904829 8421504
-0.18289483 0.13975501 0.49824929 8421504
-0.18181118 0.13961303 0.4977431 6183791
-0.18073997 0.13947923 0.49726608 2628429
-0.17967081 0.13934569 0.49678999 2953016
-0.17853791 0.13916112 0.49613196 4528174
-0.17740047 0.13897115 0.49545467 3871537
-0.17626613 0.1387817 0.49477923 3280693
-0.17513488 0.13859275 0.49410561 2624568
-0.17400672 0.13840432 0.49343383 2099513
-0.1728816 0.13821641 0.49276388 1508923
-0.17175956 0.13802899 0.49209577 1378103
-0.17064053 0.13784209 0.49142942 1444656
-0.16952455 0.13765571 0.49076492 1379883
-0.16859758 0.13762164 0.49064347 1314094
-0.16767308 0.13758925 0.49052799 1314095
-0.166749 0.13755687 0.49041253 1248304
-0.16582537 0.1375245 0.49029714 1248305
-0.16490217 0.13749215 0.4901818 1248050
-0.1639794 0.13745981 0.49006653 1182259
-0.16308138 0.13744798 0.49002436 1247795
-0.16218999 0.13744165 0.49000177 1182005
-0.16129869 0.13743532 0.48997921 1181751
-0.16040747 0.137429 0.48995665 1050169
-0.15957613 0.13747418 0.49011773 984382
-0.15874693 0.13752171 0.49028721 918337
-0.15791716 0.13756929 0.49045682 983619
-0.1570868 0.13761689 0.49062654 1246273
-0.15625589 0.13766454 0.49079639 1574208
-0.15542439 0.13771221 0.49096635 1836862
-0.15459231 0.13775991 0.4911364 2165053
-0.15375966 0.13780765 0.4913066 2427451
-0.15292643 0.13785543 0.49147692 2755642
-0.15209262 0.13790321 0.49164733 3018296
-0.15125732 0.13795023 0.49181494 3346486
-0.15041441 0.1379908 0.49195957 2952761
-0.14957099 0.13803138 0.49210426 2100805
-0.14872706 0.138072 0.49224904 3748445
-0.14788264 0.13811262 0.49239388 8553091
-0.14703773 0.13815328 0.49253884 8684676
-0.14623941 0.13823847 0.49284258 8816262
-0.145457 0.13833983 0.49320394 8816262
-0.14467342 0.13844134 0.4935658 8816262
-0.1438887 0.13854298 0.49392819 8816262
-0.14310281 0.13864478 0.49429113 8816262
-0.14231578 0.13874672 0.49465457 8816262
-0.14152758 0.13884883 0.49501857 8816262
-0.14073823 0.13895108 0.49538311 8816262
-0.13994771 0.13905348 0.49574819 8816262
-0.13915601 0.13915601 0.49611378 8684676
-0.13840316 0.13929898 0.49662346 8750469
-0.13769306 0.1394871 0.49729416 8882055
-0.13698103 0.13967574 0.49796665 8618625
-0.13626707 0.13986488 0.49864098 8289915
-0.13555118 0.14005454 0.49931714 8289915
-0.13483334 0.14024471 0.49999514 8355707
-0.13411355 0.1404354 0.50067496 8355707
-0.1333918 0.14062661 0.50135666 8355708
-0.13266808 0.14081834 0.50204021 8421244
-0.13198343 0.14105445 0.502882 9013641
-0.13136069 0.14136048 0.50397301 9079434
-0.13073525 0.14166781 0.50506872 9079434
-0.13010709 0.14197651 0.50616926 9079434
-0.12947617 0.14228654 0.50727457 8882055
-0.12947112 0.14329366 0.51086515 8750469
-0.12946686 0.14431611 0.51451033 8882055
-0.18447401 0.14117448 0.50009388 7237230
-0.1832774 0.14094798 0.49929151 8421504
-0.18208463 0.1407222 0.49849173 8092541
-0.18092519 0.14052007 0.49777567 3090005
-0.17985477 0.14038539 0.4972986 2690876
-0.17878638 0.14025097 0.49682245 5840677
-0.17772004 0.14011681 0.49634719 6693920
-0.17665574 0.13998291 0.49587286 6365730
-0.17559348 0.13984926 0.49539945 6037540
-0.17448309 0.13967572 0.49478471 5709349
-0.17335427 0.13948557 0.49411109 5052970
-0.1722285 0.13929592 0.49343929 4724780
-0.1711058 0.1391068 0.49276933 4265518
-0.16998614 0.13891818 0.49210119 3674674
-0.16886951 0.13873006 0.49143484 3018294
-0.16793281 0.13868858 0.49128786 3084086
-0.16700725 0.13865589 0.49117205 3215157
-0.16608211 0.13862321 0.49105629 3280949
-0.16515742 0.13859054 0.4909406 3346484
-0.16426226 0.13858245 0.49091193 3543347
-0.16336921 0.13857605 0.49088925 3674674
-0.16247624 0.13856965 0.4908666 3871537
-0.16158336 0.13856326 0.49084395 4002864
-0.16069056 0.13855688 0.49082133 4199727
-0.15979785 0.13855049 0.49079868 4396590
-0.15894108 0.13857538 0.49088684 4790317
-0.15811037 0.13862337 0.49105686 4987436
-0.15727904 0.13867138 0.49122697 5118507
-0.15644717 0.13871945 0.49139723 5249834
-0.15561473 0.13876756 0.49156761 5381162
-0.1547817 0.13881569 0.49173811 5512489
-0.15394808 0.13886383 0.4919087 5709352
-0.1531139 0.13891204 0.49207944 5840679
-0.15227132 0.13895312 0.49222496 6037542
-0.15142797 0.13899401 0.4923698 6168869
-0.15058415 0.13903493 0.49251476 5709352
-0.14973983 0.13907586 0.49265978 2953019
-0.14889501 0.13911682 0.49280488 2497874
-0.14804968 0.1391578 0.49295005 7763324
-0.14720386 0.13919882 0.49309534 8618883
-0.14637649 0.13925788 0.49330452 8750469
-0.14559342 0.13936007 0.49366653 8816262
-0.14480922 0.13946241 0.49402907 8816262
-0.14402385 0.1395649 0.49439216 8816262
-0.14323732 0.13966754 0.49475574 8816262
-0.14244965 0.13977034 0.4951199 8816262
-0.14166081 0.1398733 0.49548459 8750469
-0.14087681 0.13998237 0.49587095 8684676
-0.14012513 0.14012513 0.49637663 8618883
-0.13937187 0.14026816 0.49688333 8618883
-0.1386171 0.1404115 0.49739107 8618883
-0.13786076 0.14055511 0.49789983 8553090
-0.13710289 0.14069903 0.49840966 8552832
-0.13636826 0.14086887 0.49901128 8158073
-0.13565198 0.14106002 0.49968845 8355451
-0.13493374 0.14125171 0.50036746 8355452
-0.13421354 0.14144391 0.50104827 8355452
-0.1334914 0.14163662 0.50173098 8355452
-0.13276726 0.14182988 0.50241554 8487039
-0.13208069 0.14206617 0.50325257 8947848
-0.13144134 0.14235689 0.50428241 9079434
-0.13081568 0.14266659 0.5053795 9079434
-0.13018732 0.14297765 0.50648141 9079434
-0.12968232 0.14342956 0.50808221 8882055
-0.12976782 0.14454564 0.51203585 8816262
-0.12962885 0.14542592 0.51515406 6316127
-0.18366159 0.14214595 0.50033814 8421504
-0.18246572 0.14191778 0.49953499 8421504
-0.18127367 0.14169034 0.49873444 7104884
-0.18008545 0.14146364 0.49793646 2758727
-0.17896943 0.14129165 0.49733111 4396846
-0.17790183 0.14115636 0.4968549 6759456
-0.17683627 0.14102133 0.49637958 6759456
-0.17577274 0.14088655 0.49590519 6759456
-0.17471124 0.14075203 0.49543169 6759456
-0.17365178 0.14061777 0.49495912 6759456
-0.17259434 0.14048377 0.49448743 6693920
-0.17153889 0.14035 0.49401662 6628128
-0.17045024 0.14018753 0.49344474 6562593
-0.16932996 0.1399972 0.49277478 6037540
-0.16821268 0.13980737 0.49210662 5774885
-0.16726629 0.1397583 0.49193391 5972004
-0.16634226 0.13972749 0.49182543 5906212
-0.16544744 0.13972104 0.49180269 6037540
-0.16455273 0.13971458 0.49177998 6103075
-0.16365808 0.13970812 0.49175724 6168867
-0.16276352 0.13970166 0.4917345 6234402
-0.16186903 0.1396952 0.49171177 6365730
-0.16097465 0.13968875 0.49168906 6431265
-0.16008033 0.13968229 0.49166632 6497057
-0.15918611 0.13967584 0.49164361 6497057
-0.15830402 0.13968001 0.49165833 6628128
-0.15747178 0.13972847 0.49182889 6825249
-0.15663895 0.13977696 0.49199957 6825249
-0.15580553 0.13982548 0.49217033 6825249
-0.15497155 0.13987404 0.49234125 6825248
-0.15413022 0.13991648 0.49249065 6890784
-0.15328698 0.13995768 0.49263567 6890784
-0.15244325 0.1399989 0.49278075 6890784
-0.15159902 0.14004014 0.49292594 6890784
-0.15075429 0.14008141 0.4930712 6825249
-0.14990905 0.14012271 0.49321654 3871540
-0.14906333 0.14016402 0.49336198 2627916
-0.1482171 0.14020535 0.49350747 6380913
-0.14737037 0.14024673 0.49365309 8618883
-0.14652315 0.14028813 0.49379879 8684676
-0.14573011 0.14038222 0.49412999 8816262
-0.14494526 0.14048541 0.49449322 8816262
-0.14415926 0.14058876 0.49485698 8816262
-0.1433721 0.14069225 0.49522129 8750469
-0.14259632 0.14080828 0.4956297 8684676
-0.14184673 0.1409518 0.49613488 8618883
-0.14109562 0.14109562 0.4966411 8618883
-0.14034297 0.14123973 0.49714833 8618883
-0.13958877 0.14138412 0.49765661 8618883
-0.13883305 0.14152883 0.49816594 8618883
-0.13807575 0.14167382 0.4986763 8553090
-0.13731691 0.1418191 0.49918771 8487296
-0.13655652 0.1419647 0.49970016 8158330
-0.13579457 0.14211059 0.50021368 7960950
-0.13503428 0.14226019 0.50074029 8158072
-0.1343137 0.14245392 0.50142217 8355452
-0.13359115 0.14264816 0.50210589 8355452
-0.13286661 0.14284293 0.50279146 8487039
-0.13218626 0.14308822 0.50365484 8947848
-0.1315221 0.14335454 0.50459224 9013641
-0.13089624 0.14366661 0.50569069 9079434
-0.13026765 0.14398004 0.50679392 9079434
-0.12997787 0.144675 0.50924015 8750469
-0.12994172 0.1456642 0.51272202 8882055
-0.18403199 0.14333695 0.50134718 8553090
-0.18284838 0.14311837 0.50058264 8421504
-0.18165322 0.14288852 0.49977869 8421504
-0.18046191 0.14265941 0.49897736 5327718
-0.17927441 0.14243105 0.4981786 2822975
-0.17809071 0.14220341 0.4973824 6497057
-0.17701715 0.14206187 0.49688736 6759456
-0.17595237 0.14192596 0.49641198 6759456
-0.17488962 0.14179032 0.49593753 6759456
-0.17382891 0.14165492 0.49546397 6759456
-0.1727702 0.14151978 0.4949913 6759456
-0.17171353 0.14138491 0.49451956 6759456
-0.17065887 0.1412503 0.49404871 6759456
-0.16960621 0.14111593 0.49357876 6759456
-0.16855556 0.14098182 0.4931097 6759456
-0.16753025 0.14086761 0.4927102 6693920
-0.1666346 0.14086178 0.49268982 6693919
-0.16573903 0.14085595 0.49266943 6693919
-0.16484351 0.14085013 0.49264905 6693919
-0.16394797 0.14084418 0.49262828 6693919
-0.16305181 0.14083767 0.49260548 6693919
-0.16215573 0.14083114 0.49258268 6693919
-0.16125974 0.14082462 0.49255985 6693919
-0.16036384 0.1408181 0.49253705 6693919
-0.15946801 0.14081159 0.49251425 6693919
-0.15857227 0.14080507 0.49249145 6693919
-0.15767661 0.14079855 0.49246866 6759456
-0.15683118 0.14083706 0.49260336 6890784
-0.15599114 0.14088088 0.49275663 6890784
-0.15514798 0.14092238 0.4929018 6890784
-0.15430436 0.14096391 0.49304706 6890784
-0.1534602 0.14100546 0.49319237 6890784
-0.15261558 0.14104705 0.49333781 6890784
-0.15177043 0.14108863 0.4934833 6890784
-0.15092479 0.14113027 0.49362889 6890785
-0.15007865 0.14117192 0.49377456 4724782
-0.14923203 0.14121358 0.49392033 2757957
-0.1483849 0.14125529 0.49406618 4932966
-0.14753726 0.14129701 0.49421212 8618883
-0.14668912 0.14133875 0.49435812 8618883
-0.14586705 0.14140628 0.49459434 8750469
-0.14508158 0.14151034 0.49495825 8750469
-0.14431415 0.14163339 0.49538869 8684676
-0.14356668 0.14177768 0.49589336 8618883
-0.14281768 0.14192227 0.49639907 8618883
-0.14206715 0.14206715 0.49690583 8618883
-0.14131509 0.14221233 0.49741361 8618883
-0.14056149 0.1423578 0.49792242 8618883
-0.13980635 0.14250357 0.49843231 8618883
-0.13904965 0.14264965 0.49894321 8618883
-0.1382914 0.14279601 0.49945515 8618883
-0.13753161 0.14294268 0.49996817 8553089
-0.13677025 0.14308967 0.50048226 8355709
-0.13600731 0.14323694 0.50099736 8026743
-0.1352428 0.14338452 0.50151354 8092279
-0.13447672 0.1435324 0.50203079 8092279
-0.13370906 0.14368059 0.50254911 8289658
-0.1329661 0.14385752 0.50316799 8421245
-0.13229202 0.14411192 0.50405777 8947848
-0.13161801 0.14436992 0.50496018 8947848
-0.13097689 0.14466785 0.50600225 9079434
-0.13034809 0.14498366 0.50710684 9013641
-0.13025165 0.14590025 0.5103128 8816262
-0.13010374 0.14677182 0.51336128 8816262
-0.18417926 0.14435671 0.50174838 8421504
-0.18300347 0.14414348 0.5010072 8684676
-0.18192174 0.14400256 0.50051743 8618883
-0.18083996 0.14386021 0.50002265 8421504
-0.17964935 0.14362943 0.49922052 3550808
-0.17846258 0.1433994 0.49842098 3412534
-0.17727959 0.1431701 0.49762401 6628384
-0.17613237 0.14296749 0.49691981 6693919
-0.17506836 0.14283071 0.49644437 6759456
-0.1740064 0.14269419 0.49596986 6759456
-0.17294645 0.14255793 0.49549624 6759456
-0.17188853 0.14242192 0.49502352 6759456
-0.17083262 0.14228618 0.49455172 6759456
-0.16977873 0.1421507 0.49408081 6759456
-0.16872685 0.14201547 0.4936108 6693920
-0.16780889 0.14199214 0.49352971 6693920
-0.16691174 0.14198625 0.49350923 6693920
-0.16601466 0.14198036 0.49348879 6693920
-0.16511767 0.14197448 0.49346834 6693920
-0.16422072 0.14196859 0.49344787 6693920
-0.16332388 0.14196271 0.49342743 6693920
-0.1624271 0.14195684 0.49340698 6693920
-0.16153039 0.14195095 0.49338654 6693920
-0.16063376 0.14194506 0.49336609 6693920
-0.1597372 0.14193919 0.49334565 6693920
-0.15882577 0.14191994 0.49327877 6759712
-0.15791249 0.14189883 0.49320537 6825248
-0.15700938 0.14188667 0.49316308 6890785
-0.15617041 0.14193267 0.49332297 6890785
-0.15533082 0.14197861 0.49348265 6890784
-0.15448585 0.14202014 0.49362701 6890784
-0.1536404 0.14206171 0.49377149 6890784
-0.15279445 0.14210328 0.49391603 6890784
-0.151948 0.1421449 0.49406067 6890784
-0.15110105 0.14218654 0.49420536 6890784
-0.15025361 0.14222819 0.49435017 5643816
-0.14940566 0.14226988 0.49449503 2953790
-0.14855723 0.14231159 0.49464002 3353689
-0.1477083 0.14235331 0.49478507 8487041
-0.14685887 0.14239508 0.49493021 8618883
-0.14600894 0.14243685 0.4950754 8750469
-0.14524424 0.14256282 0.49551323 8882055
-0.14449339 0.142704 0.49600396 8882055
-0.14374104 0.14284545 0.4964956 8882055
-0.14298719 0.14298719 0.49698827 8882055
-0.14223185 0.14312921 0.49748188 8882055
-0.14147501 0.14327152 0.49797651 9013641
-0.14071666 0.1434141 0.49847209 9013641
-0.1399568 0.14355698 0.49896869 9013641
-0.13919543 0.14370014 0.49946627 9013641
-0.13843253 0.14384358 0.49996483 9013641
-0.1376681 0.1439873 0.50046438 9013640
-0.13690215 0.14413132 0.50096494 8816262
-0.13613467 0.14427562 0.50146651 8487294
-0.13536565 0.14442022 0.5019691 8421244
-0.13459508 0.14456509 0.50247264 8420987
-0.13383797 0.14472647 0.50303358 8289658
-0.13309088 0.14490099 0.50364017 8289658
-0.13240147 0.14514112 0.50447482 8618881
-0.13172357 0.14539729 0.50536519 8947848
-0.13105763 0.14567034 0.50631422 9013641
-0.13048141 0.14604761 0.50762552 8882055
-0.13041329 0.14700297 0.51094609 8882055
-0.13026614 0.14788221 0.51400214 6250334
-0.18462837 0.14561599 0.50297189 8355711
-0.18305846 0.14509077 0.50115776 8618883
-0.18197632 0.14494888 0.50066763 8684676
-0.18089633 0.14480728 0.50017852 8684676
-0.17981842 0.14466596 0.49969035 7170680
-0.17874262 0.14452489 0.49920312 2890829
-0.17764995 0.14436869 0.4986636 4659502
-0.1764677 0.14413774 0.49786586 6693919
-0.17528921 0.14390752 0.49707064 6693919
-0.17418423 0.14373559 0.49647677 6759456
-0.17312305 0.14359818 0.4960022 6759456
-0.17206387 0.14346105 0.49552852 6759456
-0.17100672 0.14332418 0.49505574 6759456
-0.1699516 0.14318757 0.49458387 6759456
-0.16898718 0.14312635 0.49437243 6693920
-0.16808845 0.14312041 0.49435189 6693920
-0.16718981 0.14311446 0.49433139 6693920
-0.16629121 0.14310853 0.49431086 6693920
-0.1653927 0.14310259 0.49429032 6693920
-0.16449428 0.14309664 0.49426982 6693920
-0.16359591 0.1430907 0.49424928 6693920
-0.16268404 0.14307281 0.4941875 6759712
-0.1617685 0.14305148 0.4941138 6825248
-0.16085322 0.14303015 0.49404013 6825248
-0.15993822 0.14300883 0.49396649 6825248
-0.15902349 0.14298752 0.49389288 6825248
-0.15810904 0.14296621 0.49381927 6825248
-0.15719487 0.1429449 0.49374568 6825248
-0.15634231 0.14297973 0.49386597 6890785
-0.15550195 0.14302614 0.4940263 6890785
-0.15466103 0.14307259 0.49418673 6890785
-0.15381956 0.14311907 0.49434727 6890785
-0.15297754 0.14316557 0.49450791 6890784
-0.15213269 0.14320996 0.49466121 6890784
-0.15128478 0.14325196 0.49480629 6890784
-0.15043636 0.14329398 0.49495143 6759713
-0.14958744 0.14333603 0.49509665 3477814
-0.14873803 0.14337809 0.49524197 2628430
-0.14788811 0.14342019 0.49538738 6973302
-0.1470377 0.14346232 0.49553287 8618883
-0.14618678 0.14350446 0.49567845 8618883
-0.14533536 0.14354663 0.4958241 8816262
-0.14457572 0.14368051 0.49628654 9013641
-0.14382301 0.14382301 0.49677876 9013641
-0.14306882 0.14396581 0.49727198 9013641
-0.14231312 0.14410888 0.49776617 9013641
-0.14155594 0.14425224 0.49826136 9013641
-0.14079723 0.14439589 0.49875751 9013641
-0.14003702 0.14453982 0.49925467 9013641
-0.13927528 0.14468403 0.49975282 9013641
-0.13851203 0.14482854 0.50025195 9013641
-0.13774724 0.14497334 0.50075209 9013641
-0.13698094 0.14511843 0.50125325 8881798
-0.13622102 0.14527224 0.50178456 8487037
-0.13546813 0.14543568 0.50234908 8355194
-0.13471355 0.1455995 0.50291491 8289658
-0.13395727 0.14576367 0.50348198 8289658
-0.13322489 0.14595628 0.50414729 8289658
-0.13253503 0.14619842 0.50498366 8289914
-0.13184284 0.14644136 0.50582278 8289914
-0.13115218 0.14668939 0.50667948 8618881
-0.13071994 0.14723194 0.5085535 8816262
-0.13057533 0.14810841 0.51158094 8816262
-0.18507968 0.14688142 0.50420135 7237230
-0.18333174 0.14621273 0.50190592 8421504
-0.18203098 0.14589579 0.50081801 8684676
-0.18095058 0.1457532 0.50032854 8684676
-0.17987232 0.14561093 0.49984011 8618883
-0.17879614 0.14546891 0.4993526 4208992
-0.17772207 0.14532715 0.49886602 2887741
-0.17665008 0.14518569 0.49838042 6759714
-0.17558019 0.14504451 0.49789575 6824992
-0.17447725 0.14487442 0.49731195 6824992
-0.17330326 0.14464329 0.49651849 6693919
-0.17223959 0.1445023 0.49603453 6759456
-0.17118119 0.1443643 0.4955608 6759456
-0.17016952 0.14426444 0.49521804 6693920
-0.16926919 0.14425844 0.49519745 6693920
-0.16836895 0.14425245 0.49517685 6693920
-0.16746879 0.14424644 0.49515626 6693920
-0.16655655 0.14422993 0.49509957 6759712
-0.16563873 0.14420839 0.4950256 6759712
-0.16472119 0.14418684 0.49495167 6825248
-0.16380394 0.14416531 0.49487776 6825248
-0.16288693 0.14414378 0.49480385 6825248
-0.16197023 0.14412227 0.49473 6825248
-0.16105379 0.14410076 0.49465615 6825248
-0.16013761 0.14407924 0.4945823 6825248
-0.15922172 0.14405775 0.4945085 6825248
-0.15830609 0.14403625 0.49443471 6825248
-0.15739074 0.14401476 0.49436095 6825248
-0.1565146 0.14402911 0.49441019 6890785
-0.15567335 0.1440759 0.49457085 6890785
-0.15483156 0.14412275 0.49473163 6890785
-0.15398923 0.14416961 0.49489254 6890785
-0.15314634 0.14421652 0.49505353 6890785
-0.15230291 0.14426345 0.49521464 6890785
-0.15145892 0.14431041 0.49537584 6890785
-0.15061438 0.14435741 0.49553716 6890785
-0.14976931 0.14440443 0.49569857 4593711
-0.14891927 0.14444721 0.49584544 2692678
-0.14806835 0.14448966 0.49599117 5196391
-0.14721696 0.14453216 0.49613702 8553090
-0.14636508 0.14457467 0.49628296 8618883
-0.14551267 0.1446172 0.49642897 8618883
-0.14465977 0.14465977 0.49657509 8816262
-0.14390507 0.14480169 0.49706224 9013641
-0.14315054 0.14494553 0.497556 9013641
-0.1423945 0.14508966 0.49805078 9013641
-0.14163695 0.14523408 0.49854651 9013641
-0.14087789 0.14537878 0.49904326 9013641
-0.14011732 0.14552377 0.49954095 9013641
-0.13935524 0.14566906 0.5000397 8947848
-0.13859229 0.14581534 0.50054181 8947848
-0.13784392 0.14597897 0.50110352 8882055
-0.13709387 0.14614297 0.50166649 8816005
-0.13634215 0.14630735 0.50223076 8552831
-0.13558872 0.1464721 0.50279629 8355194
-0.13483362 0.14663723 0.50336313 8289658
-0.13407677 0.14680271 0.50393116 8289658
-0.13335921 0.14701372 0.50465554 8289658
-0.13266884 0.14725785 0.50549352 8289914
-0.13197619 0.14750279 0.50633436 8289658
-0.1312862 0.14775415 0.5071972 8487039
-0.13088159 0.14833246 0.50918239 8882055
-0.13073777 0.14921659 0.51221734 8750468
-0.1855332 0.14815304 0.50543684 7237230
-0.18377891 0.14747691 0.50313014 8289918
-0.18208565 0.14684325 0.5009684 8487041
-0.18100488 0.14669971 0.50047868 8618883
-0.17992623 0.14655647 0.49998996 8618883
-0.1788497 0.14641348 0.49950215 7236472
-0.17777525 0.14627077 0.4990153 2890829
-0.17670289 0.14612834 0.49852937 4528176
-0.17563261 0.14598618 0.49804443 6890784
-0.17456442 0.14584431 0.49756041 6890784
-0.1734983 0.1457027 0.49707732 6890785
-0.17243426 0.14556138 0.49659517 6759456
-0.17135601 0.14540654 0.4960669 6824992
-0.17044339 0.14539135 0.49601504 6825248
-0.1695233 0.14536957 0.4959408 6759712
-0.16860346 0.14534782 0.49586657 6825248
-0.16768393 0.14532608 0.49579239 6825248
-0.16676466 0.14530434 0.49571821 6825248
-0.16584568 0.1452826 0.49564406 6825248
-0.16492696 0.14526087 0.49556994 6825248
-0.16400851 0.14523914 0.49549583 6825248
