# .PCD v0.7 - Point Cloud Data file format
VERSION 0.7
FIELDS x y z rgb
SIZE 4 4 4 4
TYPE F F F U
COUNT 1 1 1 1
WIDTH 1121
HEIGHT 1
VIEWPOINT 0 0 0 1 0 0 0
POINTS 1121
DATA ascii
0.082513228 0.089602664 0.218348 3092271
0.082907222 0.089602821 0.21834837 3092271
0.083301231 0.089602977 0.21834876 3092271
0.08369524 0.089603133 0.21834914 3092271
0.084089242 0.08960329 0.21834952 3092271
0.084483251 0.089603446 0.2183499 3092271
0.084877267 0.08960361 0.21835029 3092271
0.085271269 0.089603759 0.21835066 3092271
0.085665286 0.089603923 0.21835105 3092271
0.086059295 0.089604072 0.21835142 3092271
0.086453311 0.089604229 0.21835181 3092271
0.086847335 0.089604393 0.2183522 3092271
0.087241344 0.089604542 0.21835257 3092271
0.087635368 0.089604706 0.21835296 3092271
0.088029392 0.089604862 0.21835335 3092271
0.088423409 0.089605011 0.21835372 3092271
0.088817433 0.089605175 0.21835411 3092271
0.089211456 0.089605324 0.21835448 3092271
0.089605488 0.089605488 0.21835487 3092271
0.089999512 0.089605644 0.21835525 3092271
0.090393543 0.089605801 0.21835563 3092271
0.090787575 0.089605957 0.21835601 3092271
0.091181606 0.089606114 0.2183564 3092271
0.091575637 0.08960627 0.21835677 3092271
0.091969676 0.089606427 0.21835716 3092271
0.092363715 0.089606583 0.21835755 3092271
0.092757747 0.08960674 0.21835792 3092271
0.093151785 0.089606896 0.21835831 3092271
0.093545824 0.089607053 0.21835868 3092271
0.093939863 0.089607209 0.21835907 3092271
0.094333909 0.089607365 0.21835946 3092271
0.094727948 0.089607522 0.21835983 3092271
0.095122002 0.089607678 0.21836022 3092271
0.095516048 0.089607842 0.2183606 3092271
0.095910095 0.089607991 0.21836098 3092271
0.096304148 0.089608148 0.21836136 3092271
0.096698195 0.089608304 0.21836174 3092271
0.097092248 0.089608461 0.21836212 3092271
0.097486302 0.089608625 0.21836251 3092271
0.097880356 0.089608774 0.21836288 3092271
0.09827441 0.089608938 0.21836327 3092271
0.098668471 0.089609094 0.21836366 3092271
0.099062532 0.089609243 0.21836403 3092271
0.099456593 0.089609407 0.21836442 3092271
0.099850647 0.089609556 0.21836479 3092271
0.10024472 0.08960972 0.21836518 3092271
0.10063878 0.089609876 0.21836556 3092271
0.10103285 0.089610025 0.21836594 3092271
0.10142691 0.089610189 0.21836632 3092271
0.10182099 0.089610346 0.21836671 3092271
0.10221505 0.089610502 0.21836708 3092271
0.10260913 0.089610659 0.21836747 3092271
0.1030032 0.089610815 0.21836786 3092271
0.10339727 0.089610972 0.21836823 3092271
0.10379135 0.089611128 0.21836862 3092271
0.10418542 0.089611284 0.21836899 3092271
0.10457951 0.089611441 0.21836938 3092271
0.10497359 0.089611597 0.21836977 2631720
0.045482989 0.089981504 0.21831155 3092271
0.045876864 0.08998166 0.21831194 3092271
0.046270739 0.089981824 0.21831232 3092271
0.046664614 0.089981973 0.2183127 3092271
0.047058489 0.089982137 0.21831308 3092271
0.047452368 0.089982286 0.21831346 3092271
0.047846247 0.08998245 0.21831384 3092271
0.048240129 0.089982606 0.21831423 3092271
0.048634008 0.089982763 0.2183146 3092271
0.049027894 0.089982919 0.21831499 3092271
0.049421776 0.089983076 0.21831536 3092271
0.049815662 0.089983232 0.21831575 3092271
0.050209552 0.089983396 0.21831614 3092271
0.050603438 0.089983545 0.21831651 3092271
0.050997332 0.089983709 0.2183169 3092271
0.051391222 0.089983866 0.21831729 3092271
0.051785115 0.089984022 0.21831766 3092271
0.052179009 0.089984179 0.21831805 3092271
0.052572902 0.089984335 0.21831842 3092271
0.052966803 0.089984491 0.21831881 3092271
0.053360701 0.089984655 0.21831919 3092271
0.053754598 0.089984804 0.21831957 3092271
0.054148503 0.089984968 0.21831995 3092271
0.054542404 0.089985117 0.21832033 3092271
0.054936308 0.089985281 0.21832071 3092271
0.055330213 0.089985438 0.2183211 3092271
0.055724118 0.089985594 0.21832147 3092271
0.05611803 0.089985751 0.21832186 3092271
0.056511939 0.089985915 0.21832225 3092271
0.056905847 0.089986064 0.21832262 3092271
0.057299763 0.089986227 0.21832301 3092271
0.057693675 0.089986376 0.21832338 3092271
0.058087591 0.08998654 0.21832377 3092271
0.058481507 0.089986697 0.21832415 3092271
0.058875423 0.089986853 0.21832453 3092271
0.059269343 0.08998701 0.21832491 3092271
0.059663266 0.089987174 0.2183253 3092271
0.060057186 0.089987323 0.21832567 3092271
0.060451109 0.089987487 0.21832606 3092271
0.060845032 0.089987636 0.21832643 3092271
0.061238959 0.0899878 0.21832682 3092271
0.06163289 0.089987956 0.21832721 3092271
0.062026814 0.089988112 0.21832758 3092271
0.062420748 0.089988269 0.21832797 3092271
0.062814675 0.089988425 0.21832834 3092271
0.06320861 0.089988582 0.21832873 3092271
0.063602544 0.089988746 0.21832912 3092271
0.063996479 0.089988895 0.21832949 3092271
0.064390421 0.089989059 0.21832988 3092271
0.064784355 0.089989215 0.21833026 3092271
0.065178297 0.089989372 0.21833064 3092271
0.065572239 0.089989528 0.21833102 3092271
0.065966181 0.089989685 0.2183314 3092271
0.066360123 0.089989841 0.21833178 3092271
0.066754073 0.089990005 0.21833217 3092271
0.067148015 0.089990154 0.21833254 3092271
0.067541964 0.089990318 0.21833293 3092271
0.067935914 0.089990474 0.21833332 3092271
0.068329863 0.089990631 0.21833369 3092271
0.06872382 0.089990787 0.21833408 3092271
0.06911777 0.089990944 0.21833445 3092271
0.069511726 0.0899911 0.21833484 3092271
0.069905683 0.089991264 0.21833523 3092271
0.07029964 0.089991413 0.2183356 3092271
0.070693597 0.089991577 0.21833599 3092271
0.071087562 0.089991733 0.21833637 3092271
0.071481518 0.08999189 0.21833675 3092271
0.071875483 0.089992046 0.21833713 3092271
0.072269447 0.089992203 0.21833751 3092271
0.072663419 0.089992359 0.21833789 3092271
0.073057383 0.089992523 0.21833828 3092271
0.073451348 0.089992672 0.21833865 3092271
0.073845319 0.089992836 0.21833904 3092271
0.074239299 0.089992993 0.21833943 3092271
0.074633263 0.089993149 0.2183398 3092271
0.075027242 0.089993306 0.21834019 3092271
0.075421214 0.089993462 0.21834056 3092271
0.075815193 0.089993618 0.21834095 3092271
0.076209173 0.089993782 0.21834134 3092271
0.076603152 0.089993931 0.21834171 3092271
0.076997131 0.089994095 0.2183421 3092271
0.077391118 0.089994252 0.21834248 3092271
0.077785097 0.089994408 0.21834286 3092271
0.078179084 0.089994565 0.21834324 3092271
0.07857307 0.089994721 0.21834362 3092271
0.078967057 0.089994878 0.218344 3092271
0.079361051 0.089995041 0.21834439 3092271
0.079755038 0.089995191 0.21834476 3092271
0.080149032 0.089995354 0.21834515 3092271
0.080543026 0.089995511 0.21834554 3092271
0.08093702 0.089995667 0.21834591 3092271
0.081331015 0.089995824 0.2183463 3092271
0.081725009 0.08999598 0.21834667 3092271
0.08211901 0.089996137 0.21834706 3092271
0.082513019 0.089996293 0.21834745 3092271
0.082907014 0.08999645 0.21834782 3092271
0.083301023 0.089996614 0.21834821 3092271
0.083695024 0.08999677 0.21834859 3092271
0.084089026 0.089996926 0.21834897 3092271
0.084483035 0.089997083 0.21834935 3092271
0.084877044 0.089997239 0.21834973 3092271
0.085271053 0.089997396 0.21835011 3092271
0.08566507 0.089997552 0.2183505 3092271
0.086059079 0.089997709 0.21835087 3092271
0.086453095 0.089997873 0.21835126 3092271
0.086847112 0.089998029 0.21835165 3092271
0.087241128 0.089998186 0.21835202 3092271
0.087635145 0.089998342 0.21835241 3092271
0.088029161 0.089998499 0.21835278 3092271
0.088423185 0.089998655 0.21835317 3092271
0.088817209 0.089998811 0.21835355 3092271
0.089211233 0.089998968 0.21835393 3092271
0.089605257 0.089999132 0.21835431 3092271
0.089999288 0.089999288 0.2183547 3092271
0.090393312 0.089999445 0.21835507 3092271
0.090787344 0.089999601 0.21835546 3092271
0.091181368 0.089999758 0.21835583 3092271
0.091575406 0.089999914 0.21835622 3092271
0.091969438 0.090000071 0.21835661 3092271
0.092363469 0.090000227 0.21835698 3092271
0.092757508 0.090000391 0.21835737 3092271
0.093151554 0.090000547 0.21835776 3092271
0.093545586 0.090000704 0.21835813 3092271
0.093939632 0.09000086 0.21835852 3092271
0.094333664 0.090001017 0.21835889 3092271
0.09472771 0.090001173 0.21835928 3092271
0.095121756 0.09000133 0.21835966 3092271
0.095515803 0.090001486 0.21836004 3092271
0.095909849 0.090001643 0.21836042 3092271
0.096303903 0.090001807 0.21836081 3092271
0.096697949 0.090001963 0.21836118 3092271
0.097092003 0.09000212 0.21836157 3092271
0.097486049 0.090002276 0.21836194 3092271
0.09788011 0.090002432 0.21836233 3092271
0.098274164 0.090002589 0.21836272 3092271
0.098668218 0.090002745 0.21836309 3092271
0.099062279 0.090002902 0.21836348 3092271
0.09945634 0.090003066 0.21836387 3092271
0.099850401 0.090003222 0.21836424 3092271
0.10024446 0.090003379 0.21836463 3092271
0.10063853 0.090003535 0.21836501 3092271
0.10103259 0.090003692 0.21836539 3092271
0.10142666 0.090003848 0.21836577 3092271
0.10182072 0.090004005 0.21836615 3092271
0.1022148 0.090004161 0.21836653 3092271
0.10260887 0.090004325 0.21836692 3092271
0.10300294 0.090004481 0.21836729 3092271
0.10339701 0.090004638 0.21836768 3092271
0.10379109 0.090004794 0.21836807 3092271
0.10418516 0.090004951 0.21836844 3092271
0.044695139 0.090374753 0.21831024 3092271
0.045089006 0.090374902 0.21831061 3092271
0.045482878 0.090375066 0.218311 3092271
0.045876749 0.090375222 0.21831138 3092271
0.04627062 0.090375379 0.21831176 3092271
0.046664495 0.090375543 0.21831214 3092271
0.04705837 0.090375699 0.21831253 3092271
0.047452245 0.090375856 0.2183129 3092271
0.047846127 0.090376012 0.21831329 3092271
0.048240002 0.090376168 0.21831366 3092271
0.048633885 0.090376332 0.21831405 3092271
0.049027771 0.090376489 0.21831444 3092271
0.049421649 0.090376645 0.21831481 3092271
0.049815536 0.090376802 0.2183152 3092271
0.050209422 0.090376958 0.21831557 3092271
0.050603312 0.090377122 0.21831596 3092271
0.050997201 0.090377279 0.21831635 3092271
0.051391091 0.090377435 0.21831672 3092271
0.051784985 0.090377592 0.21831711 3092271
0.052178878 0.090377755 0.21831749 3092271
0.052572772 0.090377912 0.21831787 3092271
0.052966669 0.090378068 0.21831825 3092271
0.053360563 0.090378225 0.21831863 3092271
0.053754464 0.090378381 0.21831901 3092271
0.054148365 0.090378545 0.2183194 3092271
0.054542266 0.090378702 0.21831977 3092271
0.054936171 0.090378858 0.21832016 3092271
0.055330075 0.090379022 0.21832055 3092271
0.05572398 0.090379171 0.21832092 3092271
0.056117889 0.090379335 0.21832131 3092271
0.056511793 0.090379491 0.21832168 3092271
0.056905705 0.090379648 0.21832207 3092271
0.057299618 0.090379812 0.21832246 3092271
0.057693526 0.090379961 0.21832283 3092271
0.058087442 0.090380125 0.21832322 3092271
0.058481358 0.090380281 0.21832359 3092271
0.058875274 0.090380438 0.21832398 3092271
0.059269194 0.090380602 0.21832436 3092271
0.059663109 0.090380751 0.21832474 3092271
0.060057033 0.090380915 0.21832512 3092271
0.060450956 0.090381071 0.21832551 3092271
0.06084488 0.090381227 0.21832588 3092271
0.061238807 0.090381391 0.21832627 3092271
0.06163273 0.09038154 0.21832664 3092271
0.062026657 0.090381704 0.21832703 3092271
0.062420588 0.090381861 0.21832742 3092271
0.062814519 0.090382017 0.21832779 3092271
0.063208453 0.090382181 0.21832818 3092271
0.063602388 0.090382338 0.21832857 3092271
0.063996315 0.090382494 0.21832894 3092271
0.064390257 0.09038265 0.21832933 3092271
0.064784192 0.090382807 0.2183297 3092271
0.065178134 0.090382971 0.21833009 3092271
0.065572076 0.090383127 0.21833047 3092271
0.06596601 0.090383284 0.21833085 3092271
0.06635996 0.09038344 0.21833123 3092271
0.066753902 0.090383604 0.21833162 3092271
0.067147844 0.090383753 0.21833199 3092271
0.067541793 0.090383917 0.21833238 3092271
0.067935742 0.090384074 0.21833275 3092271
0.068329692 0.09038423 0.21833314 3092271
0.068723641 0.090384394 0.21833353 3092271
0.069117591 0.090384543 0.2183339 3092271
0.069511548 0.090384707 0.21833429 3092271
0.069905505 0.090384863 0.21833466 3092271
0.070299461 0.09038502 0.21833505 3092271
0.070693418 0.090385184 0.21833543 3092271
0.071087375 0.090385333 0.21833581 3092271
0.07148134 0.090385497 0.21833619 3092271
0.071875304 0.090385653 0.21833658 3092271
0.072269268 0.09038581 0.21833695 3092271
0.072663233 0.090385973 0.21833734 3092271
0.073057197 0.090386122 0.21833771 3092271
0.073451161 0.090386286 0.2183381 3092271
0.073845133 0.090386443 0.21833849 3092271
0.074239105 0.090386599 0.21833886 3092271
0.074633077 0.090386763 0.21833925 3092271
0.075027056 0.09038692 0.21833964 3092271
0.07542102 0.090387076 0.21834001 3092271
0.075815 0.090387233 0.2183404 3092271
0.076208979 0.090387389 0.21834077 3092271
0.076602958 0.090387553 0.21834116 3092271
0.076996937 0.090387709 0.21834154 3092271
0.077390917 0.090387866 0.21834192 3092271
0.077784903 0.090388022 0.2183423 3092271
0.07817889 0.090388186 0.21834269 3092271
0.078572869 0.090388343 0.21834306 3092271
0.078966863 0.090388499 0.21834345 3092271
0.079360843 0.090388656 0.21834382 3092271
0.079754837 0.090388812 0.21834421 3092271
0.080148831 0.090388976 0.2183446 3092271
0.080542818 0.090389132 0.21834497 3092271
0.080936812 0.090389289 0.21834536 3092271
0.081330813 0.090389453 0.21834575 3092271
0.081724808 0.090389602 0.21834612 3092271
0.082118809 0.090389766 0.21834651 3092271
0.082512803 0.090389922 0.21834688 3092271
0.082906805 0.090390079 0.21834727 3092271
0.083300807 0.090390243 0.21834765 3092271
0.083694808 0.090390392 0.21834803 3092271
0.084088817 0.090390556 0.21834841 3092271
0.084482826 0.090390712 0.2183488 3092271
0.084876828 0.090390868 0.21834917 3092271
0.085270837 0.090391032 0.21834956 3092271
0.085664846 0.090391181 0.21834993 3092271
0.086058863 0.090391345 0.21835032 3092271
0.086452879 0.090391502 0.21835071 3092271
0.086846888 0.090391658 0.21835108 3092271
0.087240905 0.090391822 0.21835147 3092271
0.087634929 0.090391979 0.21835186 3092271
0.088028938 0.090392135 0.21835223 3092271
0.088422962 0.090392292 0.21835262 3092271
0.088816978 0.090392448 0.21835299 3092271
0.089211009 0.090392612 0.21835338 3092271
0.089605033 0.090392768 0.21835376 3092271
0.089999057 0.090392925 0.21835414 3092271
0.090393081 0.090393081 0.21835452 3092271
0.090787113 0.090393245 0.21835491 3092271
0.091181144 0.090393402 0.21835528 3092271
0.091575176 0.090393558 0.21835567 3092271
0.091969199 0.090393715 0.21835604 3092271
0.092363238 0.090393871 0.21835643 3092271
0.092757277 0.090394035 0.21835682 3092271
0.093151309 0.090394191 0.21835719 3092271
0.093545347 0.090394348 0.21835758 3092271
0.093939394 0.090394512 0.21835797 3092271
0.094333425 0.090394661 0.21835834 3092271
0.094727471 0.090394825 0.21835873 3092271
0.095121518 0.090394981 0.21835911 3092271
0.095515557 0.090395138 0.21835949 3092271
0.09590961 0.090395302 0.21835987 3092271
0.096303649 0.090395451 0.21836025 3092271
0.096697703 0.090395615 0.21836063 3092271
0.097091757 0.090395771 0.21836102 3092271
0.097485803 0.090395927 0.21836139 3092271
0.097879857 0.090396091 0.21836178 3092271
0.098273918 0.090396248 0.21836217 3092271
0.098667972 0.090396404 0.21836254 3092271
0.099062026 0.090396561 0.21836293 3092271
0.099456087 0.090396717 0.2183633 3092271
0.099850148 0.090396881 0.21836369 3092271
0.10024421 0.090397038 0.21836407 3092271
0.10063827 0.090397194 0.21836445 3092271
0.10103233 0.09039735 0.21836483 3092271
0.1014264 0.090397514 0.21836522 3092271
0.10182047 0.090397671 0.21836559 3092271
0.10221454 0.090397827 0.21836598 3092271
0.1026086 0.090397984 0.21836635 3092271
0.10300267 0.09039814 0.21836674 3092271
0.10339675 0.090398304 0.21836713 3092271
0.10379082 0.090398453 0.2183675 3551793
0.044301156 0.090768151 0.2183093 3092271
0.044695023 0.090768307 0.21830969 3092271
0.045088891 0.090768464 0.21831006 3092271
0.045482762 0.090768628 0.21831045 3092271
0.045876633 0.090768792 0.21831083 3092271
0.046270501 0.090768941 0.21831121 3092271
0.046664376 0.090769105 0.21831159 3092271
0.047058251 0.090769261 0.21831197 3092271
0.047452126 0.090769418 0.21831235 3092271
0.047846004 0.090769581 0.21831274 3092271
0.048239883 0.090769738 0.21831311 3092271
0.048633762 0.090769894 0.2183135 3092271
0.04902764 0.090770051 0.21831387 3092271
0.049421526 0.090770215 0.21831426 3092271
0.049815413 0.090770371 0.21831465 3092271
0.050209295 0.090770528 0.21831502 3092271
0.050603185 0.090770692 0.21831541 3092271
0.050997071 0.090770848 0.2183158 3092271
0.051390961 0.090771005 0.21831617 3092271
0.051784851 0.090771168 0.21831656 3092271
0.052178744 0.090771325 0.21831693 3092271
0.052572638 0.090771481 0.21831731 3092271
0.052966535 0.090771645 0.2183177 3092271
0.053360429 0.090771802 0.21831807 3092271
0.05375433 0.090771958 0.21831846 3092271
0.054148223 0.090772115 0.21831883 3092271
0.054542128 0.090772279 0.21831922 3092271
0.054936029 0.090772435 0.21831961 3092271
0.05532993 0.090772592 0.21831998 3092271
0.055723839 0.090772755 0.21832037 3092271
0.056117747 0.090772912 0.21832076 3092271
0.056511652 0.090773068 0.21832113 3092271
0.05690556 0.090773232 0.21832152 3092271
0.057299469 0.090773389 0.21832189 3092271
0.057693381 0.090773545 0.21832228 3092271
0.058087297 0.090773709 0.21832266 3092271
0.058481209 0.090773866 0.21832304 3092271
0.058875125 0.090774022 0.21832342 3092271
0.059269045 0.090774186 0.21832381 3092271
0.05966296 0.090774342 0.21832418 3092271
0.060056884 0.090774499 0.21832457 3092271
0.0604508 0.090774655 0.21832494 3092271
0.060844727 0.090774819 0.21832533 3092271
0.06123865 0.090774976 0.21832572 3092271
0.061632574 0.090775132 0.21832609 3092271
0.062026501 0.090775296 0.21832648 3092271
0.062420428 0.090775445 0.21832685 3092271
0.062814362 0.090775609 0.21832724 3092271
0.063208289 0.090775773 0.21832763 3092271
0.063602224 0.090775922 0.218328 3092271
0.063996159 0.090776086 0.21832839 3092271
0.064390093 0.09077625 0.21832877 3092271
0.064784028 0.090776399 0.21832915 3092271
0.06517797 0.090776563 0.21832953 3092271
0.065571904 0.090776719 0.21832991 3092271
0.065965846 0.090776883 0.21833029 3092271
0.066359788 0.09077704 0.21833068 3092271
0.06675373 0.090777196 0.21833105 3092271
0.06714768 0.09077736 0.21833144 3092271
0.067541622 0.090777516 0.21833183 3092271
0.067935571 0.090777673 0.2183322 3092271
0.068329521 0.090777837 0.21833259 3092271
0.06872347 0.090777986 0.21833296 3092271
0.069117419 0.09077815 0.21833335 3092271
0.069511376 0.090778314 0.21833374 3092271
0.069905326 0.090778463 0.21833411 3092271
0.070299283 0.090778627 0.2183345 3092271
0.07069324 0.09077879 0.21833488 3092271
0.071087196 0.090778939 0.21833526 3092271
0.071481161 0.090779103 0.21833564 3092271
0.071875118 0.09077926 0.21833602 3092271
0.072269082 0.090779416 0.2183364 3092271
0.072663046 0.09077958 0.21833679 3092271
0.073057011 0.090779737 0.21833716 3092271
0.073450983 0.090779893 0.21833755 3092271
0.073844947 0.090780057 0.21833794 3092271
0.074238919 0.090780213 0.21833831 3092271
0.074632891 0.090780377 0.2183387 3092271
0.075026855 0.090780526 0.21833907 3092271
0.075420834 0.09078069 0.21833946 3092271
0.075814813 0.090780854 0.21833985 3092271
0.076208785 0.090781003 0.21834022 3092271
0.076602764 0.090781167 0.21834061 3092271
0.076996744 0.090781331 0.21834099 3092271
0.077390723 0.09078148 0.21834137 3092271
0.077784702 0.090781644 0.21834175 3092271
0.078178689 0.0907818 0.21834213 3092271
0.078572676 0.090781957 0.21834251 3092271
0.078966662 0.090782121 0.2183429 3092271
0.079360642 0.090782277 0.21834327 3092271
0.079754636 0.090782434 0.21834366 3092271
0.08014863 0.090782598 0.21834405 3092271
0.080542617 0.090782754 0.21834442 3092271
0.080936611 0.090782911 0.21834481 3092271
0.081330605 0.090783067 0.21834518 3092271
0.081724599 0.090783231 0.21834557 3092271
0.082118601 0.090783387 0.21834596 3092271
0.082512595 0.090783544 0.21834633 3092271
0.082906596 0.090783708 0.21834671 3092271
0.083300598 0.090783872 0.2183471 3092271
0.0836946 0.090784021 0.21834747 3092271
0.084088601 0.090784185 0.21834786 3092271
0.084482603 0.090784341 0.21834823 3092271
0.084876612 0.090784498 0.21834862 3092271
0.085270628 0.090784661 0.21834901 3092271
0.08566463 0.090784818 0.21834938 3092271
0.086058646 0.090784974 0.21834977 3092271
0.086452655 0.090785138 0.21835016 3092271
0.086846672 0.090785295 0.21835053 3092271
0.087240689 0.090785451 0.21835092 3092271
0.087634698 0.090785608 0.21835129 3092271
0.088028722 0.090785772 0.21835168 3092271
0.088422738 0.090785928 0.21835206 3092271
0.088816755 0.090786085 0.21835244 3092271
0.089210778 0.090786248 0.21835282 3092271
0.08960481 0.090786405 0.21835321 3092271
0.089998826 0.090786561 0.21835358 3092271
0.090392858 0.090786725 0.21835397 3092271
0.090786882 0.090786882 0.21835434 3092271
0.091180913 0.090787038 0.21835473 3092271
0.091574945 0.090787202 0.21835512 3092271
0.091968969 0.090787359 0.21835549 3092271
0.092363007 0.090787515 0.21835588 3092271
0.092757039 0.090787679 0.21835627 3092271
0.093151078 0.090787835 0.21835664 3092271
0.093545116 0.090787992 0.21835703 3092271
0.093939148 0.090788148 0.2183574 3092271
0.094333187 0.090788312 0.21835779 3092271
0.094727233 0.090788469 0.21835817 3092271
0.095121272 0.090788625 0.21835855 3092271
0.095515318 0.090788789 0.21835893 3092271
0.095909365 0.090788946 0.21835932 3092271
0.096303411 0.090789102 0.21835969 3092271
0.096697457 0.090789266 0.21836008 3092271
0.097091503 0.090789422 0.21836045 3092271
0.097485557 0.090789579 0.21836084 3092271
0.097879611 0.090789743 0.21836123 3092271
0.098273665 0.090789899 0.2183616 3092271
0.098667718 0.090790056 0.21836199 3092271
0.09906178 0.09079022 0.21836238 3092271
0.099455833 0.090790376 0.21836275 3092271
0.099849895 0.090790533 0.21836314 3092271
0.10024395 0.090790689 0.21836351 3092271
0.10063802 0.090790853 0.2183639 3092271
0.10103208 0.090791009 0.21836428 3092271
0.10142614 0.090791166 0.21836466 3092271
0.10182021 0.09079133 0.21836504 3092271
0.10221428 0.090791486 0.21836543 3092271
0.10260835 0.090791643 0.2183658 3092271
0.10300241 0.090791807 0.21836619 3551793
0.04351332 0.091161393 0.21830799 3092271
0.04390718 0.091161549 0.21830836 3092271
0.044301044 0.091161706 0.21830875 3092271
0.044694908 0.091161862 0.21830912 3092271
0.045088775 0.091162026 0.21830951 3092271
0.045482647 0.09116219 0.21830989 3092271
0.045876514 0.091162339 0.21831027 3092271
0.046270385 0.091162503 0.21831065 3092271
0.04666426 0.091162667 0.21831104 3092271
0.047058132 0.091162823 0.21831141 3092271
0.047452006 0.091162987 0.2183118 3092271
0.047845881 0.091163136 0.21831217 3092271
0.04823976 0.0911633 0.21831256 3092271
0.048633639 0.091163464 0.21831295 3092271
0.049027517 0.09116362 0.21831332 3092271
0.0494214 0.091163777 0.21831371 3092271
0.049815286 0.091163941 0.2183141 3092271
0.050209168 0.091164097 0.21831447 3092271
0.050603054 0.091164261 0.21831486 3092271
0.050996941 0.091164418 0.21831523 3092271
0.05139083 0.091164574 0.21831562 3092271
0.05178472 0.091164738 0.218316 3092271
0.05217861 0.091164894 0.21831638 3092271
0.052572504 0.091165058 0.21831676 3092271
0.052966397 0.091165215 0.21831714 3092271
0.053360295 0.091165371 0.21831752 3092271
0.053754192 0.091165535 0.21831791 3092271
0.054148089 0.091165692 0.21831828 3092271
0.05454199 0.091165856 0.21831867 3092271
0.054935891 0.091166012 0.21831906 3092271
0.055329792 0.091166168 0.21831943 3092271
0.055723697 0.091166332 0.21831982 3092271
0.056117598 0.091166489 0.21832019 3092271
0.056511506 0.091166645 0.21832058 3092271
0.056905419 0.091166809 0.21832097 3092271
0.057299323 0.091166966 0.21832134 3092271
0.057693236 0.09116713 0.21832173 3092271
0.058087144 0.091167286 0.2183221 3092271
0.05848106 0.091167443 0.21832249 3092271
0.058874976 0.091167606 0.21832287 3092271
0.059268892 0.091167763 0.21832325 3092271
0.059662811 0.091167927 0.21832363 3092271
0.060056731 0.091168083 0.21832402 3092271
0.060450647 0.09116824 0.21832439 3092271
0.06084457 0.091168404 0.21832478 3092271
0.061238494 0.09116856 0.21832515 3092271
0.061632417 0.091168724 0.21832554 3092271
0.062026344 0.09116888 0.21832593 3092271
0.062420271 0.091169037 0.2183263 3092271
0.062814198 0.091169201 0.21832669 3092271
0.063208133 0.091169365 0.21832708 3092271
0.06360206 0.091169514 0.21832745 3092271
0.063995995 0.091169678 0.21832784 3092271
0.064389929 0.091169834 0.21832821 3092271
0.064783864 0.091169998 0.2183286 3092271
0.065177798 0.091170155 0.21832898 3092271
0.06557174 0.091170311 0.21832936 3092271
0.065965682 0.091170475 0.21832974 3092271
0.066359624 0.091170639 0.21833013 3092271
0.066753559 0.091170795 0.2183305 3092271
0.067147508 0.091170952 0.21833089 3092271
0.06754145 0.091171108 0.21833126 3092271
0.0679354 0.091171272 0.21833165 3092271
0.068329349 0.091171436 0.21833204 3092271
0.068723291 0.091171592 0.21833241 3092271
0.069117248 0.091171749 0.2183328 3092271
0.069511198 0.091171905 0.21833317 3092271
0.069905147 0.091172069 0.21833356 3092271
0.070299104 0.091172233 0.21833394 3092271
0.070693061 0.091172382 0.21833432 3092271
0.071087018 0.091172546 0.2183347 3092271
0.071480982 0.09117271 0.21833509 3092271
0.071874939 0.091172867 0.21833546 3092271
0.072268903 0.091173023 0.21833585 3092271
0.07266286 0.091173179 0.21833622 3092271
0.073056825 0.091173343 0.21833661 3092271
0.073450796 0.091173507 0.218337 3092271
0.073844761 0.091173664 0.21833737 3092271
0.074238725 0.09117382 0.21833776 3092271
0.074632697 0.091173984 0.21833815 3092271
0.075026669 0.091174141 0.21833852 3092271
0.07542064 0.091174304 0.21833891 3092271
0.075814612 0.091174461 0.21833928 3092271
0.076208591 0.091174617 0.21833967 3092271
0.076602571 0.091174781 0.21834005 3092271
0.076996543 0.091174938 0.21834043 3092271
0.077390529 0.091175102 0.21834081 3092271
0.077784508 0.091175258 0.2183412 3092271
0.078178488 0.091175415 0.21834157 3092271
0.078572474 0.091175579 0.21834196 3092271
0.078966454 0.091175735 0.21834233 3092271
0.079360448 0.091175891 0.21834272 3092271
0.079754435 0.091176055 0.21834311 3092271
0.080148421 0.091176212 0.21834348 3092271
0.080542415 0.091176376 0.21834387 3092271
0.08093641 0.091176532 0.21834426 3092271
0.081330396 0.091176689 0.21834463 3092271
0.08172439 0.091176853 0.21834502 3092271
0.082118385 0.091177009 0.21834539 3092271
0.082512386 0.091177173 0.21834578 3092271
0.082906388 0.091177329 0.21834616 3092271
0.083300382 0.091177486 0.21834654 3092271
0.083694384 0.09117765 0.21834692 3092271
0.084088393 0.091177814 0.21834731 3092271
0.084482394 0.09117797 0.21834768 3092271
0.084876403 0.091178127 0.21834807 3092271
0.085270405 0.091178283 0.21834844 3092271
0.085664414 0.091178447 0.21834883 3092271
0.08605843 0.091178611 0.21834922 3092271
0.086452432 0.09117876 0.21834959 3092271
0.086846448 0.091178924 0.21834998 3092271
0.087240465 0.091179088 0.21835037 3092271
0.087634474 0.091179244 0.21835074 3092271
0.088028498 0.091179408 0.21835113 3092271
0.088422507 0.091179557 0.2183515 3092271
0.088816531 0.091179721 0.21835189 3092271
0.089210555 0.091179885 0.21835227 3092271
0.089604571 0.091180041 0.21835265 3092271
0.089998603 0.091180198 0.21835303 3092271
0.090392627 0.091180362 0.21835342 3092271
0.090786651 0.091180518 0.21835379 3092271
0.091180682 0.091180682 0.21835418 3092271
0.091574706 0.091180839 0.21835455 3092271
0.091968738 0.091180995 0.21835494 3092271
0.092362769 0.091181159 0.21835533 3092271
0.0927568 0.091181315 0.2183557 3092271
0.093150839 0.091181479 0.21835609 3092271
0.093544878 0.091181636 0.21835648 3092271
0.093938909 0.091181792 0.21835685 3092271
0.094332948 0.091181956 0.21835724 3092271
0.094726987 0.091182113 0.21835761 3092271
0.095121033 0.091182277 0.218358 3092271
0.09551508 0.091182433 0.21835838 3092271
0.095909119 0.09118259 0.21835876 3092271
0.096303165 0.091182753 0.21835914 3092271
0.096697219 0.091182917 0.21835953 3092271
0.097091258 0.091183066 0.2183599 3092271
0.097485311 0.09118323 0.21836029 3092271
0.097879365 0.091183394 0.21836068 3092271
0.098273411 0.091183551 0.21836105 3092271
0.098667473 0.091183707 0.21836144 3092271
0.099061519 0.091183864 0.21836181 3092271
0.09945558 0.091184027 0.2183622 3092271
0.099849641 0.091184191 0.21836258 3092271
0.1002437 0.091184348 0.21836296 3092271
0.10063776 0.091184504 0.21836334 3092271
0.10103182 0.091184668 0.21836373 3092271
0.10142589 0.091184825 0.2183641 3092271
0.10181995 0.091184989 0.21836449 3092271
0.10221402 0.091185145 0.21836486 3551792
0.042725489 0.091554619 0.21830666 3092271
0.043119349 0.091554783 0.21830705 3092271
0.043513209 0.09155494 0.21830742 3092271
0.043907069 0.091555104 0.21830781 3092271
0.044300932 0.09155526 0.2183082 3092271
0.044694796 0.091555417 0.21830857 3092271
0.045088664 0.09155558 0.21830896 3092271
0.045482531 0.091555744 0.21830934 3092271
0.045876399 0.091555901 0.21830972 3092271
0.04627027 0.091556065 0.2183101 3092271
0.046664137 0.091556221 0.21831048 3092271
0.047058012 0.091556385 0.21831086 3092271
0.047451887 0.091556542 0.21831125 3092271
0.047845758 0.091556698 0.21831162 3092271
0.048239637 0.091556862 0.21831201 3092271
0.048633512 0.091557018 0.21831238 3092271
0.049027395 0.091557182 0.21831277 3092271
0.049421277 0.091557346 0.21831316 3092271
0.049815156 0.091557503 0.21831353 3092271
0.050209042 0.091557667 0.21831392 3092271
0.050602928 0.091557823 0.2183143 3092271
0.05099681 0.09155798 0.21831468 3092271
0.0513907 0.091558143 0.21831506 3092271
0.051784586 0.0915583 0.21831544 3092271
0.05217848 0.091558464 0.21831582 3092271
0.052572373 0.091558628 0.21831621 3092271
0.052966263 0.091558784 0.21831658 3092271
0.05336016 0.091558948 0.21831697 3092271
0.053754054 0.091559097 0.21831734 3092271
0.054147951 0.091559261 0.21831773 3092271
0.054541852 0.091559425 0.21831812 3092271
0.05493575 0.091559581 0.21831849 3092271
0.055329651 0.091559745 0.21831888 3092271
0.055723555 0.091559909 0.21831927 3092271
0.056117456 0.091560066 0.21831964 3092271
0.056511365 0.091560222 0.21832003 3092271
0.05690527 0.091560379 0.2183204 3092271
0.057299178 0.091560543 0.21832079 3092271
0.05769309 0.091560706 0.21832117 3092271
0.058086999 0.091560863 0.21832155 3092271
0.058480915 0.091561027 0.21832193 3092271
0.058874827 0.091561191 0.21832232 3092271
0.059268743 0.091561347 0.21832269 3092271
0.059662659 0.091561504 0.21832308 3092271
0.060056575 0.09156166 0.21832345 3092271
0.060450494 0.091561824 0.21832384 3092271
0.060844418 0.091561988 0.21832423 3092271
0.061238337 0.091562144 0.2183246 3092271
0.061632261 0.091562308 0.21832499 3092271
0.062026184 0.091562465 0.21832536 3092271
0.062420111 0.091562629 0.21832575 3092271
0.062814042 0.091562785 0.21832614 3092271
0.063207969 0.091562942 0.21832651 3092271
0.063601896 0.091563106 0.2183269 3092271
0.063995831 0.091563269 0.21832728 3092271
0.064389765 0.091563426 0.21832766 3092271
0.0647837 0.09156359 0.21832804 3092271
0.065177634 0.091563746 0.21832842 3092271
0.065571569 0.091563903 0.2183288 3092271
0.065965511 0.091564067 0.21832919 3092271
0.066359453 0.091564223 0.21832956 3092271
0.066753395 0.091564387 0.21832995 3092271
0.067147337 0.091564551 0.21833034 3092271
0.067541279 0.091564707 0.21833071 3092271
0.067935228 0.091564871 0.2183311 3092271
0.06832917 0.091565028 0.21833147 3092271
0.06872312 0.091565184 0.21833186 3092271
0.069117069 0.091565348 0.21833225 3092271
0.069511019 0.091565505 0.21833262 3092271
0.069904976 0.091565669 0.21833301 3092271
0.070298925 0.091565832 0.21833339 3092271
0.070692882 0.091565989 0.21833377 3092271
0.071086839 0.091566153 0.21833415 3092271
0.071480796 0.091566309 0.21833453 3092271
0.071874753 0.091566466 0.21833491 3092271
0.072268717 0.09156663 0.2183353 3092271
0.072662674 0.091566786 0.21833567 3092271
0.073056638 0.09156695 0.21833606 3092271
0.07345061 0.091567114 0.21833645 3092271
0.073844574 0.09156727 0.21833682 3092271
0.074238539 0.091567434 0.21833721 3092271
0.074632503 0.091567591 0.21833758 3092271
0.075026482 0.091567747 0.21833797 3092271
0.075420454 0.091567911 0.21833836 3092271
0.075814426 0.091568068 0.21833873 3092271
0.076208398 0.091568232 0.21833912 3092271
0.076602377 0.091568395 0.2183395 3092271
0.076996349 0.091568552 0.21833988 3092271
0.077390328 0.091568716 0.21834026 3092271
0.077784307 0.091568865 0.21834064 3092271
0.078178294 0.091569029 0.21834102 3092271
0.078572273 0.091569193 0.21834141 3092271
0.07896626 0.091569349 0.21834178 3092271
0.079360247 0.091569513 0.21834217 3092271
0.079754226 0.09156967 0.21834254 3092271
0.08014822 0.091569833 0.21834293 3092271
0.080542207 0.09156999 0.21834332 3092271
0.080936193 0.091570146 0.21834369 3092271
0.081330188 0.09157031 0.21834408 3092271
0.081724189 0.091570474 0.21834446 3092271
0.082118176 0.091570631 0.21834484 3092271
0.082512178 0.091570795 0.21834522 3092271
0.082906172 0.091570951 0.2183456 3092271
0.083300173 0.091571115 0.21834598 3092271
0.083694175 0.091571271 0.21834637 3092271
0.084088176 0.091571428 0.21834674 3092271
0.084482178 0.091571592 0.21834713 3092271
0.084876187 0.091571756 0.21834752 3092271
0.085270189 0.091571912 0.21834789 3092271
0.085664198 0.091572076 0.21834828 3092271
0.086058207 0.091572233 0.21834865 3092271
0.086452216 0.091572396 0.21834904 3092271
0.086846232 0.091572553 0.21834943 3092271
0.087240241 0.091572709 0.2183498 3092271
0.087634258 0.091572873 0.21835019 3092271
0.088028274 0.091573037 0.21835057 3092271
0.088422291 0.091573194 0.21835095 3092271
0.088816307 0.091573358 0.21835133 3092271
0.089210324 0.091573514 0.21835171 3092271
0.089604348 0.091573671 0.21835209 3092271
0.089998372 0.091573834 0.21835248 3092271
0.090392396 0.091573991 0.21835285 3092271
0.09078642 0.091574155 0.21835324 3092271
0.091180451 0.091574319 0.21835363 3092271
0.091574475 0.091574475 0.218354 3092271
0.091968507 0.091574639 0.21835439 3092271
0.092362538 0.091574796 0.21835478 3092271
0.092756569 0.091574952 0.21835515 3092271
0.093150601 0.091575116 0.21835554 3092271
0.093544632 0.091575272 0.21835591 3092271
0.093938671 0.091575436 0.2183563 3092271
0.094332717 0.0915756 0.21835668 3092271
0.094726749 0.091575757 0.21835706 3092271
0.095120795 0.091575921 0.21835744 3092271
0.095514834 0.091576077 0.21835783 3092271
0.095908873 0.091576234 0.2183582 3092271
0.096302919 0.091576397 0.21835859 3092271
0.096696965 0.091576554 0.21835896 3092271
0.097091012 0.091576718 0.21835935 3092271
0.097485065 0.091576882 0.21835974 3092271
0.097879112 0.091577038 0.21836011 3092271
0.098273166 0.091577202 0.2183605 3092271
0.098667219 0.091577359 0.21836089 3092271
0.099061273 0.091577515 0.21836126 3092271
0.099455327 0.091577679 0.21836165 3092271
0.099849381 0.091577835 0.21836202 3092271
0.10024344 0.091577999 0.21836241 3092271
0.1006375 0.091578163 0.21836279 3092271
0.10103156 0.09157832 0.21836317 3092271
0.10142563 0.091578484 0.21836355 3092271
0.042331524 0.09194801 0.21830572 3092271
0.042725381 0.091948174 0.21830611 3092271
0.043119241 0.091948338 0.2183065 3092271
0.043513097 0.091948494 0.21830687 3092271
0.043906961 0.091948651 0.21830726 3092271
0.044300821 0.091948815 0.21830763 3092271
0.044694684 0.091948971 0.21830802 3092271
0.045088548 0.091949135 0.2183084 3092271
0.045482412 0.091949292 0.21830878 3092271
0.045876283 0.091949455 0.21830916 3092271
0.046270151 0.091949619 0.21830955 3092271
0.046664018 0.091949776 0.21830992 3092271
0.047057893 0.09194994 0.21831031 3092271
0.047451764 0.091950096 0.21831068 3092271
0.047845639 0.09195026 0.21831107 3092271
0.048239514 0.091950424 0.21831146 3092271
0.048633389 0.09195058 0.21831183 3092271
0.049027272 0.091950744 0.21831222 3092271
0.04942115 0.091950908 0.21831261 3092271
0.049815029 0.091951065 0.21831298 3092271
0.050208915 0.091951229 0.21831337 3092271
0.050602797 0.091951385 0.21831374 3092271
0.050996684 0.091951549 0.21831413 3092271
0.05139057 0.091951713 0.21831451 3092271
0.051784456 0.091951869 0.21831489 3092271
0.052178346 0.091952033 0.21831527 3092271
0.052572235 0.09195219 0.21831565 3092271
0.052966129 0.091952354 0.21831603 3092271
0.053360023 0.091952518 0.21831642 3092271
0.053753916 0.091952674 0.21831679 3092271
0.054147813 0.091952838 0.21831718 3092271
0.054541714 0.091952994 0.21831757 3092271
0.054935612 0.091953151 0.21831794 3092271
0.055329513 0.091953315 0.21831833 3092271
0.05572341 0.091953471 0.2183187 3092271
0.056117315 0.091953635 0.21831909 3092271
0.056511223 0.091953799 0.21831948 3092271
0.056905124 0.091953956 0.21831985 3092271
0.057299033 0.09195412 0.21832024 3092271
0.057692941 0.091954276 0.21832061 3092271
0.058086853 0.09195444 0.218321 3092271
0.058480766 0.091954604 0.21832138 3092271
0.058874674 0.09195476 0.21832176 3092271
0.05926859 0.091954924 0.21832214 3092271
0.05966251 0.091955088 0.21832253 3092271
0.060056422 0.091955245 0.2183229 3092271
0.060450342 0.091955408 0.21832329 3092271
0.060844261 0.091955565 0.21832366 3092271
0.061238181 0.091955729 0.21832405 3092271
0.061632108 0.091955893 0.21832444 3092271
0.062026028 0.091956049 0.21832481 3092271
0.062419955 0.091956213 0.2183252 3092271
0.062813886 0.091956377 0.21832559 3092271
0.063207805 0.091956533 0.21832596 3092271
0.06360174 0.091956697 0.21832635 3092271
0.063995667 0.091956854 0.21832672 3092271
0.064389601 0.091957018 0.21832711 3092271
0.064783536 0.091957174 0.21832749 3092271
0.06517747 0.091957331 0.21832787 3092271
0.065571405 0.091957495 0.21832825 3092271
0.065965347 0.091957659 0.21832864 3092271
0.066359282 0.091957815 0.21832901 3092271
0.066753224 0.091957979 0.2183294 3092271
0.067147166 0.091958135 0.21832977 3092271
0.067541108 0.091958299 0.21833016 3092271
0.067935057 0.091958463 0.21833055 3092271
0.068328999 0.09195862 0.21833092 3092271
0.068722948 0.091958784 0.21833131 3092271
0.06911689 0.09195894 0.21833168 3092271
0.06951084 0.091959104 0.21833207 3092271
0.069904797 0.091959268 0.21833245 3092271
0.070298746 0.091959424 0.21833283 3092271
0.070692703 0.091959588 0.21833321 3092271
0.07108666 0.091959752 0.2183336 3092271
0.071480617 0.091959909 0.21833397 3092271
0.071874574 0.091960073 0.21833436 3092271
0.072268531 0.091960229 0.21833473 3092271
0.072662495 0.091960393 0.21833512 3092271
0.073056459 0.091960557 0.21833551 3092271
0.073450416 0.091960713 0.21833588 3092271
0.073844388 0.091960877 0.21833627 3092271
0.074238352 0.091961034 0.21833666 3092271
0.074632317 0.091961198 0.21833703 3092271
0.075026289 0.091961354 0.21833742 3092271
0.07542026 0.091961518 0.21833779 3092271
0.075814232 0.091961674 0.21833818 3092271
0.076208204 0.091961838 0.21833856 3092271
0.076602176 0.091961995 0.21833894 3092271
0.076996155 0.091962159 0.21833932 3092271
0.077390134 0.091962323 0.21833971 3092271
0.077784114 0.091962479 0.21834008 3092271
0.078178093 0.091962643 0.21834047 3092271
0.078572072 0.091962799 0.21834084 3092271
0.078966059 0.091962963 0.21834123 3092271
0.079360045 0.091963127 0.21834162 3092271
0.079754025 0.091963284 0.21834199 3092271
0.080148011 0.091963448 0.21834238 3092271
0.080542006 0.091963612 0.21834277 3092271
0.080935992 0.091963768 0.21834314 3092271
0.081329986 0.091963932 0.21834353 3092271
0.081723973 0.091964088 0.2183439 3092271
0.082117975 0.091964252 0.21834429 3092271
0.082511969 0.091964416 0.21834467 3092271
0.082905963 0.091964573 0.21834505 3092271
0.083299965 0.091964737 0.21834543 3092271
0.083693966 0.0919649 0.21834582 3092271
0.08408796 0.091965057 0.21834619 3092271
0.084481969 0.091965221 0.21834658 3092271
0.084875964 0.091965377 0.21834695 3092271
0.085269973 0.091965534 0.21834734 3092271
0.085663982 0.091965698 0.21834773 3092271
0.086057983 0.091965854 0.2183481 3092271
0.086452 0.091966018 0.21834849 3092271
0.086846009 0.091966182 0.21834888 3092271
0.087240018 0.091966338 0.21834925 3092271
0.087634034 0.091966502 0.21834964 3092271
0.088028044 0.091966659 0.21835001 3092271
0.088422067 0.091966823 0.2183504 3092271
0.088816084 0.091966987 0.21835078 3092271
0.0892101 0.091967143 0.21835116 3092271
0.089604124 0.091967307 0.21835154 3092271
0.089998148 0.091967471 0.21835193 3092271
0.090392165 0.091967627 0.2183523 3092271
0.090786189 0.091967791 0.21835269 3092271
0.091180213 0.091967948 0.21835306 3092271
0.091574244 0.091968112 0.21835345 3092271
0.091968276 0.091968276 0.21835384 3092271
0.0923623 0.091968432 0.21835421 3092271
0.092756331 0.091968596 0.2183546 3092271
0.09315037 0.09196876 0.21835499 3092271
0.093544401 0.091968916 0.21835536 3092271
0.09393844 0.09196908 0.21835575 3092271
0.094332471 0.091969237 0.21835612 3092271
0.09472651 0.091969401 0.21835651 3092271
0.095120549 0.091969557 0.21835689 3092271
0.095514588 0.091969721 0.21835726 3092271
0.095908634 0.091969877 0.21835765 3092271
0.096302681 0.091970041 0.21835804 3092271
0.09669672 0.091970198 0.21835841 3092271
0.097090766 0.091970362 0.2183588 3092271
0.097484812 0.091970518 0.21835917 3092271
0.097878866 0.091970682 0.21835956 3092271
0.09827292 0.091970846 0.21835995 3092271
0.098666966 0.091971003 0.21836032 3092271
0.09906102 0.091971166 0.21836071 3092271
0.099455081 0.09197133 0.21836109 3092271
0.099849127 0.091971487 0.21836147 3092271
0.10024319 0.091971651 0.21836185 3092271
0.10063725 0.091971815 0.21836224 3092271
0.10103131 0.091971971 0.21836261 3486000
0.041543711 0.092341237 0.21830441 3092271
0.041937564 0.092341401 0.2183048 3092271
0.042331416 0.092341557 0.21830517 3092271
0.042725272 0.092341721 0.21830556 3092271
0.043119129 0.092341878 0.21830593 3092271
0.043512989 0.092342041 0.21830632 3092271
0.043906849 0.092342205 0.21830671 3092271
0.044300709 0.092342362 0.21830708 3092271
0.044694569 0.092342526 0.21830747 3092271
0.045088436 0.09234269 0.21830785 3092271
0.0454823 0.092342846 0.21830823 3092271
0.045876168 0.09234301 0.21830861 3092271
0.046270031 0.092343166 0.21830899 3092271
0.046663903 0.09234333 0.21830937 3092271
0.047057774 0.092343494 0.21830976 3092271
0.047451645 0.092343658 0.21831013 3092271
0.04784552 0.092343822 0.21831052 3092271
0.048239391 0.092343979 0.21831089 3092271
0.048633266 0.092344142 0.21831128 3092271
0.049027145 0.092344306 0.21831167 3092271
0.049421024 0.092344463 0.21831204 3092271
0.049814906 0.092344627 0.21831243 3092271
0.050208788 0.092344791 0.21831281 3092271
0.050602667 0.092344947 0.21831319 3092271
0.050996553 0.092345111 0.21831357 3092271
0.051390439 0.092345268 0.21831395 3092271
0.051784325 0.092345431 0.21831433 3092271
0.052178215 0.092345595 0.21831472 3092271
0.052572101 0.092345752 0.21831509 3092271
0.052965995 0.092345916 0.21831548 3092271
0.053359888 0.09234608 0.21831587 3092271
0.053753782 0.092346236 0.21831624 3092271
0.054147679 0.0923464 0.21831663 3092271
0.054541573 0.092346564 0.218317 3092271
0.05493547 0.092346728 0.21831739 3092271
0.055329371 0.092346892 0.21831778 3092271
0.055723272 0.092347048 0.21831815 3092271
0.056117173 0.092347212 0.21831854 3092271
0.056511074 0.092347369 0.21831891 3092271
0.056904983 0.092347533 0.2183193 3092271
0.057298891 0.092347696 0.21831968 3092271
0.057692796 0.092347853 0.21832006 3092271
0.058086704 0.092348017 0.21832044 3092271
0.058480617 0.092348181 0.21832083 3092271
0.058874529 0.092348337 0.2183212 3092271
0.059268441 0.092348501 0.21832159 3092271
0.059662353 0.092348658 0.21832196 3092271
0.060056273 0.092348821 0.21832235 3092271
0.060450189 0.092348985 0.21832274 3092271
0.060844105 0.092349142 0.21832311 3092271
0.061238028 0.092349306 0.2183235 3092271
0.061631948 0.09234947 0.21832387 3092271
0.062025871 0.092349634 0.21832426 3092271
0.062419798 0.092349797 0.21832465 3092271
0.062813722 0.092349954 0.21832502 3092271
0.063207649 0.092350118 0.21832541 3092271
0.063601576 0.092350282 0.21832579 3092271
0.063995503 0.092350438 0.21832617 3092271
0.064389437 0.092350602 0.21832655 3092271
0.064783365 0.092350759 0.21832693 3092271
0.065177307 0.092350923 0.21832731 3092271
0.065571241 0.092351086 0.2183277 3092271
0.065965176 0.092351243 0.21832807 3092271
0.066359118 0.092351407 0.21832846 3092271
0.066753052 0.092351571 0.21832885 3092271
0.067146994 0.092351727 0.21832922 3092271
0.067540936 0.092351891 0.21832961 3092271
0.067934878 0.092352048 0.21832998 3092271
0.068328828 0.092352211 0.21833037 3092271
0.06872277 0.092352375 0.21833076 3092271
0.069116719 0.092352539 0.21833113 3092271
0.069510669 0.092352703 0.21833152 3092271
0.069904618 0.092352867 0.2183319 3092271
0.070298567 0.092353024 0.21833228 3092271
0.070692524 0.092353188 0.21833266 3092271
0.071086474 0.092353344 0.21833304 3092271
0.071480431 0.092353508 0.21833342 3092271
0.071874395 0.092353672 0.21833381 3092271
0.072268344 0.092353828 0.21833418 3092271
0.072662309 0.092353992 0.21833457 3092271
0.073056273 0.092354156 0.21833496 3092271
0.07345023 0.092354313 0.21833533 3092271
0.073844202 0.092354476 0.21833572 3092271
0.074238159 0.092354633 0.21833609 3092271
0.074632131 0.092354797 0.21833648 3092271
0.075026102 0.092354961 0.21833687 3092271
0.075420067 0.092355117 0.21833724 3092271
0.075814039 0.092355281 0.21833763 3092271
0.07620801 0.092355445 0.218338 3092271
0.076601982 0.092355609 0.21833839 3092271
0.076995961 0.092355773 0.21833877 3092271
0.077389933 0.092355929 0.21833915 3092271
0.077783912 0.092356093 0.21833953 3092271
0.078177899 0.092356257 0.21833992 3092271
0.078571871 0.092356414 0.21834029 3092271
0.078965858 0.092356578 0.21834068 3092271
0.079359837 0.092356734 0.21834105 3092271
0.079753824 0.092356898 0.21834144 3092271
0.08014781 0.092357062 0.21834183 3092271
0.080541797 0.092357218 0.2183422 3092271
0.080935791 0.092357382 0.21834259 3092271
0.081329778 0.092357546 0.21834297 3092271
0.081723772 0.092357703 0.21834335 3092271
0.082117766 0.092357866 0.21834373 3092271
0.082511753 0.092358023 0.21834411 3092271
0.082905754 0.092358187 0.21834449 3092271
0.083299749 0.092358351 0.21834488 3092271
0.08369375 0.092358515 0.21834525 3092271
0.084087752 0.092358679 0.21834564 3092271
0.084481753 0.092358842 0.21834603 3092271
0.084875755 0.092358999 0.2183464 3092271
0.085269757 0.092359163 0.21834679 3092271
0.085663758 0.092359319 0.21834716 3092271
0.086057767 0.092359483 0.21834755 3092271
0.086451776 0.092359647 0.21834794 3092271
0.086845785 0.092359804 0.21834831 3092271
0.087239802 0.092359968 0.2183487 3092271
0.087633811 0.092360131 0.21834908 3092271
0.08802782 0.092360288 0.21834946 3092271
0.088421844 0.092360452 0.21834984 3092271
0.088815853 0.092360608 0.21835022 3092271
0.089209877 0.092360772 0.2183506 3092271
0.089603893 0.092360936 0.21835099 3092271
0.08999791 0.092361093 0.21835136 3092271
0.090391934 0.092361256 0.21835175 3092271
0.090785965 0.09236142 0.21835214 3092271
0.091179982 0.092361584 0.21835251 3092271
0.091574013 0.092361748 0.2183529 3092271
0.091968037 0.092361905 0.21835327 3092271
0.092362069 0.092362069 0.21835366 3092271
0.0927561 0.092362233 0.21835405 3092271
0.093150124 0.092362389 0.21835442 3092271
0.093544163 0.092362553 0.21835481 3092271
0.093938202 0.092362717 0.21835519 3092271
0.094332233 0.092362873 0.21835557 3092271
0.094726272 0.092363037 0.21835595 3092271
0.095120311 0.092363201 0.21835634 3092271
0.09551435 0.092363358 0.21835671 3092271
0.095908388 0.092363521 0.2183571 3092271
0.096302427 0.092363678 0.21835747 3092271
0.096696474 0.092363842 0.21835786 3092271
0.097090527 0.092364006 0.21835825 3092271
0.097484566 0.092364162 0.21835862 3092271
0.09787862 0.092364326 0.21835901 3092271
0.098272666 0.09236449 0.2183594 3092271
0.09866672 0.092364654 0.21835977 3092271
0.099060774 0.092364818 0.21836016 3092271
0.09945482 0.092364974 0.21836053 3092271
0.099848881 0.092365138 0.21836092 3092271
0.10024294 0.092365302 0.2183613 3420463
0.040755909 0.092734456 0.2183031 3092271
0.041149754 0.092734613 0.21830347 3092271
0.041543607 0.092734776 0.21830386 3092271
0.041937456 0.09273494 0.21830423 3092271
0.042331312 0.092735104 0.21830462 3092271
0.042725164 0.092735268 0.21830501 3092271
0.043119021 0.092735425 0.21830538 3092271
0.043512877 0.092735589 0.21830577 3092271
0.043906737 0.092735752 0.21830615 3092271
0.044300597 0.092735916 0.21830653 3092271
0.044694457 0.09273608 0.21830691 3092271
0.045088317 0.092736237 0.21830729 3092271
