# .PCD v0.7 - Point Cloud Data file format
VERSION 0.7
FIELDS x y z rgb
SIZE 4 4 4 4
TYPE F F F U
COUNT 1 1 1 1
WIDTH 1119
HEIGHT 1
VIEWPOINT 0 0 0 1 0 0 0
POINTS 1119
DATA ascii
0.11881865 -0.0025067225 0.55587345 4014902
0.11974043 -0.00250503 0.55549812 3883061
0.12066422 -0.002503407 0.55513823 3290672
0.12159001 -0.0025018521 0.55479342 2895663
0.12252744 -0.0025005599 0.5545069 2895412
0.12347043 -0.0024994013 0.55424994 2631992
0.12441249 -0.0024982428 0.55399305 2434363
0.12536798 -0.0024973704 0.55379957 2434363
0.12634061 -0.0024968502 0.55368423 2368311
0.12731285 -0.0024963303 0.55356896 2697530
0.12829648 -0.0024960404 0.55350465 3158589
0.12930036 -0.0024961459 0.55352807 3356222
0.13030434 -0.0024962516 0.5535515 3421758
0.13130626 -0.0024963166 0.55356592 3487809
0.13231125 -0.0024964388 0.55359298 3553346
0.13334361 -0.0024970714 0.55373329 3487297
0.13438013 -0.002497772 0.55388862 3223868
0.13541722 -0.0024984728 0.55404407 3026486
0.13645491 -0.0024991741 0.55419958 2565932
0.13751915 -0.0025003483 0.55445993 2368808
0.13858896 -0.0025016058 0.55473882 2829361
0.13967265 -0.0025030943 0.55506885 3224632
0.14077885 -0.0025049618 0.55548298 3159095
0.14190182 -0.0025070994 0.55595702 3027255
0.14302756 -0.0025092554 0.55643511 3224634
0.14420882 -0.0025123488 0.5571211 3619647
0.14539203 -0.0025154331 0.55780506 3817026
0.14658962 -0.0025187221 0.55853438 4014403
0.14784369 -0.00252293 0.55946749 4539974
0.14908375 -0.0025268432 0.56033528 4605510
0.15038367 -0.0025317115 0.56141484 4540233
0.15176181 -0.002537823 0.56277007 4277068
0.15320759 -0.0025449765 0.56435639 2960716
0.15471031 -0.0025529754 0.56613016 2960460
0.15629631 -0.0025622346 0.56818342 3157836
0.15804277 -0.0025739865 0.57078946 3025997
0.16055512 -0.0025979795 0.57610995 3158084
0.096443854 -0.0015985169 0.59079343 1841973
0.096813485 -0.0015871064 0.58657622 2105138
0.097376838 -0.0015790839 0.58361119 1908011
0.098015733 -0.0015724449 0.58115751 1842221
0.098694228 -0.001566575 0.57898808 1842223
0.099409118 -0.0015613998 0.57707536 1973808
0.10014758 -0.0015566982 0.57533771 2368563
0.10093274 -0.0015528114 0.57390118 2566449
0.10171904 -0.001549021 0.57250029 2040098
0.10252953 -0.0015456713 0.5712623 2039584
0.10333497 -0.0015423129 0.57002109 2565672
0.10414998 -0.0015391624 0.56885666 2960689
0.10497203 -0.0015361761 0.56775296 2894897
0.10579246 -0.0015332241 0.56666195 2960943
0.10662118 -0.0015304475 0.56563574 3553589
0.10745684 -0.0015278225 0.56466556 4211516
0.10830117 -0.0015253687 0.56375867 4342847
0.10914281 -0.0015229229 0.56285477 4408639
0.11000998 -0.0015208753 0.56209797 4474686
0.11087929 -0.0015188943 0.56136584 4409148
0.11175117 -0.0015169842 0.56065989 4474685
0.11263184 -0.0015152266 0.56001025 4474687
0.1135233 -0.0015136441 0.55942541 4474431
0.11441401 -0.0015120794 0.55884713 4343101
0.11530621 -0.0015105617 0.55828619 4342845
0.11621071 -0.00150923 0.55779403 4277051
0.11711813 -0.0015079587 0.55732417 4080184
0.11802401 -0.0015066895 0.55685508 3948857
0.11893157 -0.0015054629 0.55640173 3751228
0.11985649 -0.0015044748 0.55603653 3224635
0.12078427 -0.0015035386 0.55569053 2566201
0.1217109 -0.0015026036 0.555345 2236474
0.12264836 -0.0015018167 0.55505413 2170429
0.12359221 -0.0015011199 0.55479664 2236221
0.12453518 -0.0015004239 0.55453938 2763070
0.12550211 -0.0015000253 0.55439204 3158333
0.12647575 -0.0014997126 0.55427647 2829366
0.12744901 -0.0014994001 0.55416101 2895159
0.12843762 -0.001499272 0.55411363 3092795
0.12944263 -0.0014993355 0.55413711 3290172
0.13044675 -0.0014993879 0.55415648 3356476
0.13144808 -0.0014994077 0.55416381 3553600
0.13245805 -0.0014995252 0.55420721 3422015
0.1334908 -0.0014998968 0.55434453 3356220
0.1345281 -0.0015003134 0.55449855 3026997
0.1355664 -0.0015007349 0.55465436 2895153
0.13660896 -0.0015011973 0.55482525 2500139
0.13767904 -0.0015019531 0.55510455 2697519
0.13875018 -0.0015027095 0.5553841 3092792
0.13983504 -0.0015036026 0.55571419 3290428
0.1409529 -0.0015048352 0.55616975 3422014
0.14207742 -0.001506121 0.55664498 3421757
0.14321224 -0.0015074974 0.55715364 3487804
0.14439507 -0.0015093562 0.55784065 3817024
0.14557983 -0.0015112094 0.55852556 3817282
0.14678994 -0.0015132984 0.55929762 4211524
0.14804238 -0.0015157922 0.56021935 4671303
0.14928043 -0.0015181061 0.5610745 4539974
0.15060256 -0.001521238 0.56223202 4474442
0.15199646 -0.0015250482 0.56364024 3816010
0.15345167 -0.0015294185 0.56525546 3289420
0.15497892 -0.0015344447 0.5671131 3092044
0.15658513 -0.0015401816 0.56923336 2828876
0.15837947 -0.0015476821 0.57200545 2697037
0.096405871 -0.00053262908 0.59056073 1907764
0.096842028 -0.0005291914 0.58674914 2302768
0.097425595 -0.00052662485 0.58390343 2236968
0.098068334 -0.0005244296 0.58146942 1973801
0.098752908 -0.00052250217 0.57933235 1973548
0.099473752 -0.00052080501 0.57745057 1908010
0.10021765 -0.00051926239 0.57574022 2105388
0.10100693 -0.00051798427 0.57432306 2434864
0.10179791 -0.00051674066 0.57294416 2171685
0.10260732 -0.00051561469 0.57169574 1974047
0.1034132 -0.0005144935 0.57045263 2368036
0.10423496 -0.00051347271 0.5693208 2565672
0.10505667 -0.00051247154 0.56821072 3026481
0.10587848 -0.00051149022 0.5671227 3289654
0.10671273 -0.00051058724 0.56612146 3684664
0.10754769 -0.0005097047 0.56514293 4079674
0.1083926 -0.00050888542 0.56423455 4079931
0.1092389 -0.00050808792 0.56335032 4277309
0.11010828 -0.00050741143 0.56260026 4409150
0.11097854 -0.00050675136 0.56186837 4409148
0.11185074 -0.00050611194 0.56115943 4343354
0.11273576 -0.00050554151 0.56052697 4277562
0.11362793 -0.00050501304 0.55994099 4277307
0.11451887 -0.00050448842 0.55935931 4211515
0.11541177 -0.00050398154 0.5587973 4080185
0.11632018 -0.00050355057 0.55831945 3948601
0.11722835 -0.00050312601 0.55784869 3817018
0.11813501 -0.00050270214 0.55737877 3553086
0.11904613 -0.00050230435 0.55693769 2829118
0.11997592 -0.00050199131 0.55659062 2302527
0.12090456 -0.00050167867 0.55624396 1973311
0.12183203 -0.00050136639 0.55589771 1841725
0.12276952 -0.00050110009 0.55560243 2039356
0.12371424 -0.00050086738 0.5553444 2434107
0.12466482 -0.00050066196 0.55511665 3026234
0.12563746 -0.00050054764 0.55498993 3355191
0.1266112 -0.00050043955 0.55487007 3421238
0.12758547 -0.00050033513 0.55475432 3355446
0.1285791 -0.00050030771 0.55472392 3289654
0.12958521 -0.00050032896 0.55474746 3158324
0.1305878 -0.00050033641 0.55475569 3026995
0.1315902 -0.00050034298 0.55476302 3092277
0.13260518 -0.00050039694 0.5548228 3355706
0.13363911 -0.00050052104 0.55496043 3421498
0.13467641 -0.00050065579 0.55510986 2960691
0.1357159 -0.00050079665 0.55526602 2960435
0.13676788 -0.00050098129 0.55547071 2631725
0.13783929 -0.00050123379 0.55575067 2960947
0.13891175 -0.00050148647 0.55603087 3422267
0.14000325 -0.00050180376 0.55638266 3422267
0.14112739 -0.00050223269 0.55685824 3422268
0.14225344 -0.00050266233 0.5573346 3553086
0.14339742 -0.00050314883 0.55787402 3882049
0.14458159 -0.00050376862 0.55856121 4014147
0.14576812 -0.00050438795 0.55924791 4079939
0.14699082 -0.00050512305 0.560063 4539974
0.14823765 -0.00050593051 0.56095827 4737095
0.14949466 -0.00050676154 0.56187969 4605510
0.1508221 -0.00050781853 0.56305164 4474184
0.15223829 -0.00050915818 0.56453699 4145226
0.15369649 -0.0005106196 0.56615734 3750220
0.15524848 -0.00051237125 0.5680995 3026251
0.15689307 -0.00051440351 0.57035285 2697292
0.15878381 -0.0005172111 0.57346576 2631245
0.096768022 0.00054060348 0.59940243 2697273
0.096378341 0.00053247705 0.59039211 2104884
0.096868254 0.00052933471 0.58690804 2565935
0.097474769 0.00052689062 0.58419812 2566186
0.09812776 0.00052474736 0.58182174 2105127
0.098813541 0.00052282296 0.57968801 2039339
0.099540487 0.00052115438 0.57783794 1842725
0.10029155 0.00051964534 0.57616478 2434863
0.10107892 0.00051835342 0.57473236 2500402
0.10187301 0.00051712192 0.57336688 2434348
0.10268523 0.00051600614 0.57212979 2040096
0.10349695 0.00051491021 0.57091463 2170657
0.10432009 0.0005138921 0.56978577 2302243
0.10514143 0.00051288505 0.5686692 3289653
0.10596964 0.00051193062 0.56761098 3618878
0.10680443 0.00051102601 0.56660795 3553085
0.10763869 0.00051013596 0.56562114 3553081
0.10848416 0.00050931534 0.56471121 3750713
0.10933553 0.00050853734 0.56384861 4079674
0.1102049 0.00050785666 0.5630939 4277311
0.11107798 0.00050720538 0.56237179 4080185
0.11195048 0.00050656323 0.56165981 4146233
0.11283986 0.00050600833 0.56104457 4080440
0.11373276 0.00050547888 0.56045753 4080185
0.11462393 0.00050495123 0.55987245 3948600
0.11551939 0.00050445145 0.55931836 3619640
0.11642986 0.00050402537 0.55884588 3487802
0.11733879 0.00050359993 0.55837423 3158334
0.1182457 0.00050317316 0.55790102 2630974
0.11916329 0.00050279871 0.55748582 2301505
0.12009559 0.00050249201 0.55714577 2170178
0.12102509 0.00050217879 0.55679846 2039105
0.1219534 0.00050186587 0.5564515 1973565
0.12289091 0.00050159555 0.55615181 2302523
0.12383652 0.00050136243 0.5558933 2697271
0.12479992 0.00050120451 0.55571824 3026226
0.12577356 0.0005010899 0.55559117 3158064
0.12674692 0.00050097599 0.55546486 3552821
0.1277222 0.00050087139 0.55534887 3882043
0.12872088 0.00050085946 0.55533564 3947835
0.12972569 0.00050087139 0.55534887 3684664
0.13072915 0.00050087797 0.5553562 3223857
0.13173266 0.00050088461 0.55536354 2828843
0.13275263 0.00050095329 0.55543971 2960430
0.13378777 0.00050107774 0.5555777 2960689
0.13482505 0.00050120841 0.55572253 2500138
0.13586572 0.00050134951 0.555879 2631724
0.13692719 0.00050156482 0.55611771 2697517
0.13799991 0.00050181785 0.55639827 3092787
0.13907371 0.00050207117 0.55667913 3487802
0.14017662 0.00050242519 0.55707169 3488059
0.1413023 0.00050285517 0.5575484 3356220
0.1424299 0.00050328585 0.55802596 3290172
0.14358306 0.00050380023 0.55859625 3750976
0.1447686 0.0005044202 0.55928367 4145475
0.14595689 0.00050504116 0.55997217 4408644
0.14719222 0.0005058152 0.56083041 4605765
0.14843343 0.00050659874 0.56169915 4671301
0.14971244 0.00050749979 0.56269825 4408131
0.15104228 0.00050855987 0.56387359 4539974
0.1524809 0.00050996954 0.5654366 4539978
0.15394212 0.00051143562 0.56706214 4211019
0.15551896 0.00051326392 0.56908929 2894666
0.15720223 0.00051541714 0.5714767 2565707
0.15919022 0.00051853491 0.57493359 2763085
0.096371308 0.0016151615 0.59694511 2170936
0.096405059 0.0015978739 0.59055579 2236724
0.09689448 0.0015884341 0.58706695 2828847
0.097524121 0.0015814723 0.58449394 2697772
0.098183893 0.0015751426 0.58215457 1973797
0.098874234 0.0015694323 0.58004409 2039340
0.099608056 0.0015645245 0.5782302 2105640
0.10036255 0.0015600396 0.57657266 2895414
0.10114972 0.0015561496 0.57513493 2829368
0.10194822 0.001552511 0.57379019 2697778
0.10276261 0.0015491851 0.57256097 2105889
0.1035817 0.0015459956 0.57138216 2171170
0.10440535 0.0015429363 0.57025146 2302498
0.10522635 0.0015398978 0.56912845 3486775
0.10606094 0.0015371151 0.56810004 3882050
0.1068963 0.0015343967 0.56709534 3750722
0.10772985 0.0015317041 0.56610018 3552828
0.10857629 0.0015292435 0.56519079 3158323
0.10943231 0.0015269625 0.56434774 3026736
0.11030167 0.0015249079 0.56358838 3618871
0.11117731 0.0015229768 0.56287467 3816505
0.11205039 0.001521046 0.56216109 3948601
0.11294417 0.0015194283 0.56156319 3882554
0.11383778 0.0015178371 0.56097507 3685180
0.11472951 0.001516249 0.56038815 3487548
0.1156285 0.0015147838 0.55984664 3158589
0.11653974 0.0015135031 0.55937332 2697534
0.11744889 0.0015122175 0.55889815 2302528
0.11835498 0.0015109148 0.55841666 2236225
0.11927988 0.0015098719 0.55803126 2170178
0.12021469 0.0015089711 0.55769831 2170178
0.12114584 0.0015080395 0.55735403 2104641
0.12207502 0.001507099 0.55700642 2236733
0.12301254 0.001506276 0.55670226 2829115
0.12396017 0.0015055891 0.5564484 3355705
0.12493531 0.0015052446 0.55632108 3487028
0.12590998 0.0015049002 0.55619377 3157807
0.12688421 0.0015045559 0.55606651 3223600
0.12785925 0.0015042264 0.55594474 3618614
0.12886171 0.0015042224 0.55594325 4013371
0.12986626 0.0015042424 0.55595064 4144700
0.13087082 0.0015042623 0.55595803 3947578
0.13187541 0.0015042822 0.55596536 3553077
0.13290042 0.001504533 0.55605805 3355442
0.13393673 0.0015049072 0.55619633 2960429
0.13497402 0.0015052864 0.55633652 2697769
0.13601588 0.0015057108 0.55649334 2631720
0.13708685 0.001506449 0.55676615 2631464
0.1381609 0.0015072097 0.55704737 2763308
0.13923605 0.0015079717 0.55732894 3092531
0.14035043 0.0015091444 0.55776238 3289911
0.14147764 0.0015104375 0.55824029 3092791
0.14260679 0.0015117328 0.55871904 3355963
0.14376894 0.0015133572 0.55931938 3881792
0.14495608 0.0015152204 0.56000799 4342595
0.14614615 0.001517088 0.56069827 4539715
0.14738965 0.0015194808 0.56158262 4605507
0.14862971 0.001521806 0.56244195 4408386
0.14993086 0.0015247207 0.56351918 4408129
0.15127108 0.0015279906 0.56472772 4802887
0.15272427 0.0015323504 0.56633908 4802890
0.15420099 0.0015368869 0.56801569 4342347
0.1557904 0.0015424793 0.57008255 2828874
0.15751056 0.0015492843 0.57259762 2499659
0.15961787 0.0015597838 0.57647812 3289416
0.096314266 0.0026903425 0.59659177 2236726
0.096431792 0.0026638615 0.59071952 2368309
0.096923411 0.0026481808 0.58724225 2960689
0.097572528 0.0026370953 0.58478403 2763309
0.0982401 0.0026267406 0.58248782 2039594
0.098936588 0.0026173701 0.58040988 2105135
0.099677958 0.0026093707 0.57863599 2237228
0.10043357 0.0026019062 0.57698071 3027000
0.10122062 0.0025954004 0.57553804 2829623
0.10202356 0.0025894304 0.57421416 2960952
0.10283962 0.00258391 0.57299 2566701
0.10366361 0.0025786967 0.57183397 2566186
0.1044884 0.0025736059 0.57070506 2500390
0.10531184 0.0025685814 0.56959087 2829100
0.10615242 0.0025640682 0.56859004 3816256
0.10698833 0.0025595294 0.56758356 4013637
0.1078213 0.0025550071 0.56658071 4079428
0.10867263 0.0025510008 0.56569231 3289912
0.10952927 0.0025471924 0.56484777 3223865
0.11039862 0.002543747 0.56408376 3026490
0.11127491 0.002540523 0.5633688 3026237
0.11215246 0.0025373858 0.56267315 3092287
0.11304866 0.0025347234 0.56208271 3026496
0.11394298 0.0025320663 0.56149352 2829120
0.11483544 0.0025294151 0.56090558 2697537
0.11573782 0.0025270265 0.56037593 2434113
0.11664923 0.0025248751 0.55989885 2763075
0.11755765 0.0025226963 0.5594157 2828867
0.11846449 0.0025205209 0.55893332 2433857
0.1193967 0.0025189177 0.55857778 2236225
0.12033235 0.0025174131 0.55824411 2302016
0.12126685 0.0025159097 0.55791074 2433599
0.12219688 0.0025143393 0.55756247 2565690
0.12313442 0.0025129474 0.55725384 3092279
0.12409483 0.002512041 0.55705285 3552565
0.12507097 0.0025114652 0.55692518 3947321
0.12604669 0.0025108901 0.55679762 3552821
0.12702195 0.002510315 0.55667013 2894891
0.12799652 0.0025097358 0.55654162 2894890
0.1290015 0.0025097569 0.55654633 3289391
0.13000713 0.0025097902 0.55655372 3618612
0.13101278 0.0025098235 0.55656111 3750198
0.13201848 0.0025098568 0.5565685 3487283
0.13304852 0.0025103495 0.55667776 3815736
0.13408604 0.0025109744 0.55681634 3618358
0.13512406 0.0025115998 0.55695498 3421236
0.13617259 0.0025124096 0.55713457 2894892
0.13724689 0.0025136792 0.55741614 2565926
0.13832104 0.0025149281 0.55769306 2565926
0.1393989 0.0025162259 0.55798084 2697514
0.14052378 0.0025183475 0.55845129 2697515
0.14165343 0.0025205237 0.55893391 3092274
0.14278415 0.0025226881 0.55941385 3618619
0.14395514 0.0025255289 0.56004381 4211009
0.14514405 0.0025286418 0.56073415 4473922
0.14633657 0.0025317746 0.56142884 4473922
0.14758451 0.0025358165 0.56232512 4605251
0.14882652 0.0025397018 0.56318671 4079165
0.15014993 0.0025449141 0.56434256 4539458
0.15150952 0.0025506653 0.56561792 4737093
0.15296668 0.0025579713 0.56723803 4802889
0.15446964 0.0025659408 0.56900531 4078922
0.1560628 0.0025752936 0.57107931 2697290
0.15781899 0.0025871964 0.57371879 2697292
0.16031048 0.00261092 0.57897955 3552835
0.096262217 0.0037644443 0.59626937 1907764
0.096457236 0.0037303902 0.59087539 2499894
0.096969083 0.0037091998 0.58751893 3092274
0.097618297 0.0036936651 0.58505833 2631724
0.098301396 0.0036797314 0.58285129 2105135
0.0990064 0.0036669036 0.58081943 2105137
0.099747956 0.0036556842 0.57904232 2236975
0.10050471 0.0036452485 0.57738936 2895415
0.10129171 0.0036361127 0.57594228 2763827
0.10210019 0.0036279256 0.57464552 2829620
0.10291882 0.0036202602 0.57343131 3026998
0.10374372 0.0036129653 0.57227588 3027253
0.104569 0.0036058272 0.57114524 3092788
0.10539792 0.0035989534 0.57005644 3224118
0.10624015 0.003592662 0.56905991 3882049
0.10707943 0.0035863924 0.56806684 4013893
0.10791404 0.0035800866 0.56706804 3816514
0.10876915 0.003574573 0.56619471 3355706
0.1096264 0.0035692318 0.56534868 3223870
0.11049575 0.0035643789 0.56458002 2894401
0.11137268 0.0035598574 0.56386381 2565442
0.1122551 0.0035555915 0.56318814 2433604
0.11315268 0.0035518778 0.5625999 2368069
0.11404838 0.0035481718 0.56201291 2302533
0.11494156 0.0035444533 0.5614239 2433860
0.11584672 0.003541166 0.56090319 2433859
0.11675745 0.0035381042 0.56041825 2828610
0.11766659 0.0035350479 0.55993414 3289151
0.11857612 0.0035320548 0.55946004 3157821
0.11951375 0.0035299419 0.55912536 2960443
0.12045024 0.0035278313 0.55879104 3157816
0.12138563 0.0035257235 0.5584572 3223604
0.12231898 0.0035235921 0.5581196 3092018
0.12325653 0.0035216152 0.55780643 3289650
0.12422976 0.0035206815 0.55765855 3552563
0.12520695 0.0035198738 0.55753064 3618357
0.12618291 0.0035190452 0.55739939 3355699
0.12715754 0.003518193 0.55726439 3158319
0.12813231 0.0035173576 0.55713207 2697512
0.12914152 0.0035174736 0.55715042 2565926
0.13014832 0.003517522 0.55715811 2500134
0.13115506 0.0035175686 0.5571655 2894636
0.13216184 0.0035176156 0.55717295 2894378
0.13319696 0.0035184105 0.55729884 3355187
0.13423567 0.0035192873 0.55743772 3684409
0.13527489 0.0035201644 0.55757666 3619129
0.13633105 0.0035214664 0.55778289 3290164
0.13740408 0.0035231817 0.55805457 2960940
0.13847816 0.0035248988 0.55832654 2829610
0.13956769 0.0035269812 0.55865639 2960940
0.14069672 0.003530025 0.55913854 3092526
0.14182802 0.0035330821 0.55962276 3092526
0.14296128 0.0035361445 0.56010783 3684406
0.14414182 0.0035403257 0.56077009 4342335
0.14533252 0.0035446957 0.56146228 4473920
0.14653759 0.0035493532 0.56220001 4473921
0.14777993 0.0035548434 0.56306964 4474178
0.14903815 0.0035606385 0.56398755 4013371
0.15036961 0.0035680926 0.56516826 4210749
0.15174942 0.0035765856 0.56651348 4671300
0.15320957 0.0035868462 0.56813872 4868681
0.15473923 0.0035985869 0.56999838 3552841
0.15635967 0.0036122696 0.57216567 2631242
0.15817805 0.0036303157 0.57502407 3026252
0.096210226 0.0048373858 0.59594733 1710388
0.096480049 0.0047973506 0.59101516 2499894
0.097020037 0.0047714775 0.58782768 3224115
0.097671121 0.0047515682 0.58537495 2566189
0.098371051 0.0047344356 0.58326429 2170928
0.099076308 0.0047179195 0.58122957 2170932
0.099815883 0.0047033662 0.57943666 2236723
0.10057714 0.0046901256 0.57780546 2697525
0.10136575 0.0046784193 0.57636327 2961208
0.10217907 0.0046680793 0.57508945 3027001
0.10299816 0.0046582082 0.57387334 3290173
0.10382395 0.0046488335 0.57271844 3487550
0.10465091 0.0046396954 0.57159263 3619134
0.10548414 0.0046310113 0.57052279 3882308
0.1063269 0.0046229088 0.56952459 4145734
0.10716671 0.0046148347 0.5685299 4145478
0.10800536 0.0046068639 0.56754792 3619136
0.10886585 0.0045999656 0.56669807 3355963
0.10972371 0.0045930855 0.5658505 3355454
0.11059304 0.0045868079 0.56507713 3026242
0.11147062 0.0045809844 0.56435966 2565444
0.11235673 0.0045756134 0.56369799 2433605
0.11325502 0.0045708301 0.56310874 2433604
0.11415143 0.0045660571 0.56252068 2368068
0.11504596 0.0045612939 0.56193388 2499652
0.11595437 0.0045571588 0.56142443 2697026
0.11686585 0.0045532151 0.5609386 3355203
0.11777576 0.0045492779 0.56045359 3749951
0.11869255 0.0045456723 0.56000936 3289396
0.11963102 0.0045429501 0.55967402 3157808
0.12056836 0.0045402311 0.55933905 3158063
0.1215046 0.0045375163 0.55900455 3157804
0.1224397 0.0045348038 0.5586704 3223598
0.12338634 0.0045325593 0.5583939 3487026
0.1243637 0.0045314706 0.55825979 3355441
0.1253403 0.0045303721 0.55812442 3486770
0.1263164 0.0045292731 0.55798906 3750199
0.12729204 0.0045281756 0.55785382 3486770
0.12826924 0.0045271497 0.55772746 2960425
0.12927955 0.0045272997 0.55774593 2565926
0.13028981 0.004527445 0.55776381 2499882
0.13129765 0.0045275055 0.55777127 2434093
0.13230635 0.004527594 0.55778217 2434091
0.13334574 0.0045287232 0.55792129 2631726
0.13438565 0.0045298534 0.55806053 2829102
0.13542797 0.0045310473 0.55820763 3026735
0.13648595 0.0045327437 0.5584166 3619128
0.13756026 0.0045349537 0.55868888 3750458
0.13863564 0.0045371661 0.55896145 3619128
0.1397392 0.0045402627 0.55934292 3684664
0.14087008 0.0045441962 0.55982751 3815992
0.14200291 0.0045481357 0.56031287 3618613
0.14314105 0.0045521888 0.56081218 3750198
0.14432974 0.0045577814 0.56150115 3750199
0.14552148 0.0045633912 0.56219226 4276286
0.14673373 0.0045695626 0.56295258 4342591
0.14797582 0.0045765718 0.56381607 3750455
0.14925608 0.004584658 0.56481224 3815733
0.15058875 0.0045942334 0.56599188 4144956
0.15199006 0.0046057594 0.56741184 4736837
0.15345323 0.0046189935 0.56904227 4671304
0.15500976 0.0046348437 0.57099491 3157833
0.15666616 0.0046534501 0.57328719 2631498
0.15856524 0.0046789739 0.57643163 3092044
0.096158288 0.0059091686 0.59562564 1907763
0.096502878 0.0058648158 0.59115499 2368309
0.097065993 0.0058345678 0.5881061 3289907
0.097725198 0.0058106873 0.58569902 2631983
0.098431051 0.0057900618 0.58362001 2170928
0.099146314 0.0057704207 0.58164024 2170419
0.099883772 0.0057524689 0.57983077 2170676
0.10065272 0.0057366835 0.57823968 2368307
0.10144174 0.0057223546 0.57679534 2763320
0.10225806 0.0057098414 0.57553405 3158332
0.10307762 0.0056977579 0.57431608 3355710
0.10390431 0.0056863055 0.57316172 3619137
0.10473663 0.0056753843 0.57206088 3882308
0.1055705 0.0056647584 0.57098985 4013894
0.1064138 0.0056548393 0.56999004 4145735
0.10725415 0.0056449552 0.56899375 4211271
0.10809876 0.0056354804 0.5680387 3816514
0.10896271 0.0056271823 0.56720227 3684669
0.10982119 0.0056187585 0.5663532 3882048
0.1106905 0.0056110392 0.56557512 3684416
0.11156943 0.005603944 0.56485993 3355457
0.11245854 0.0055974843 0.56420881 3157826
0.11335754 0.0055916277 0.56361848 2894658
0.11425465 0.0055857827 0.56302935 2697282
0.11515096 0.0055800024 0.56244671 2960195
0.11606222 0.0055750413 0.56194663 3486788
0.11697446 0.0055702124 0.5614599 4079171
0.11788512 0.0055653919 0.560974 4210753
0.11880921 0.0055612819 0.56055975 3815737
0.11974853 0.0055579487 0.56022376 3552820
0.12068672 0.0055546188 0.55988812 3947578
0.1216238 0.005551294 0.55955297 3815736
0.12255941 0.005547957 0.55921662 3684150
0.12351494 0.0055455687 0.55897588 3618869
0.12449547 0.0055443328 0.5588513 3553075
0.12547307 0.0055429866 0.55871564 3750454
0.12645017 0.0055416408 0.55857998 3947577
0.12742682 0.005540296 0.55844444 3618357
0.12840648 0.0055391029 0.55832416 3355185
0.12941787 0.005539286 0.55834264 3158064
0.13042933 0.0055394694 0.55836111 3158325
0.13144055 0.0055396399 0.55837828 3092281
0.13245428 0.0055399123 0.55840576 2828854
0.1334949 0.0055412981 0.55854541 2565681
0.13453887 0.0055427998 0.55869681 2434349
0.1355834 0.0055443025 0.55884826 2499884
0.13664256 0.005546377 0.55905735 2697516
0.1377168 0.0055490285 0.55932462 3289650
0.13880137 0.0055520548 0.55962968 3684150
0.13991144 0.0055560498 0.56003237 3881529
0.14104387 0.0055608694 0.56051815 3750200
0.14217825 0.0055656969 0.56100476 3421234
0.14332806 0.0055710552 0.56154484 3618869
0.14451854 0.0055779084 0.56223565 4079419
0.14571194 0.0055847783 0.56292808 4013627
0.14692822 0.0055924235 0.56369871 3750198
0.14817226 0.0056010131 0.56456453 3158062
0.14947467 0.0056116767 0.56563938 3618356
0.15080409 0.0056232032 0.56680119 4013371
0.15223147 0.0056382027 0.56831312 4474179
0.15370382 0.0056546554 0.5699715 4211014
0.15528125 0.0056747301 0.57199496 3026248
0.15697327 0.0056987 0.57441103 2697290
0.15896934 0.0057333205 0.57790071 3157835
0.096106417 0.0069797956 0.59530431 1907763
0.096525706 0.0069327853 0.59129483 2368308
0.097111993 0.0068986663 0.58838481 3290163
0.097779319 0.006870979 0.58602339 2697776
0.098487079 0.0068466957 0.58395225 2105136
0.099216431 0.0068244105 0.58205158 2104882
0.09996295 0.0068037608 0.58029038 2038835
0.10072842 0.0067848158 0.57867455 2105138
0.10151947 0.0067679645 0.57723731 2499895
0.10233886 0.0067533255 0.57598877 2894650
0.1031572 0.0067389128 0.57475948 3092539
0.10398544 0.0067254268 0.57360929 3553087
0.10482251 0.0067127715 0.57252991 3750722
0.105657 0.0067002 0.57145768 3882051
0.10650084 0.0066884584 0.57045627 4013638
0.10734203 0.0066767773 0.56945997 4013636
0.10819232 0.0066658771 0.56853032 3816256
0.1090586 0.0066561582 0.5677014 3882045
0.10991884 0.0066462555 0.5668568 4013117
0.11078814 0.0066370778 0.56607401 4013116
0.11167138 0.0066288947 0.5653761 3815994
0.11256055 0.006621209 0.56472057 3750200
0.11346025 0.0066142748 0.56412917 3684411
0.11435807 0.0066073546 0.56353897 3750206
0.11525916 0.006600745 0.56297523 3947329
0.11617044 0.0065948288 0.56247061 4144963
0.11708327 0.0065891016 0.56198215 4473668
0.11799468 0.006583394 0.56149536 4473922
0.11892609 0.0065788901 0.56111121 4276543
0.11986627 0.0065749427 0.56077456 4144957
0.12080531 0.006571 0.56043828 4144956
0.12174301 0.0065670502 0.56010139 4144700
0.12267629 0.0065629291 0.5597499 4144701
0.12364082 0.0065605333 0.55954558 4144958
0.12462416 0.0065591661 0.55942899 4079420
0.12560612 0.0065577491 0.55930811 4079419
0.12658422 0.0065561552 0.55917215 4013884
0.12756187 0.0065545621 0.55903631 4013628
0.128544 0.0065532238 0.55892217 4013371
0.12955648 0.0065534408 0.55894065 4079164
0.13056903 0.0065536578 0.55895919 4079167
0.13158163 0.0065538748 0.55897766 3815999
0.13260359 0.0065545496 0.55903524 3223609
0.13364822 0.0065563275 0.55918688 2894644
0.13469341 0.0065581063 0.55933857 2697265
0.13573918 0.006559886 0.55949038 2565677
0.13680087 0.0065624034 0.55970508 2434087
0.13787369 0.0065654139 0.55996186 2697256
0.13896991 0.006569487 0.56030923 2960683
0.14008412 0.0065743448 0.56072354 2960939
0.14121808 0.0065800543 0.56121051 2829096
0.14235568 0.0065858499 0.56170481 2960681
0.14351556 0.0065925876 0.56227946 3487282
0.14470783 0.0066007082 0.56297207 4145212
0.14590304 0.0066088485 0.56366634 4013627
0.1471232 0.0066179992 0.56444681 3750198
0.14836921 0.0066281776 0.56531495 3487285
0.14969316 0.0066416762 0.56646621 3420980
0.15102889 0.0066555105 0.56764615 3749944
0.15247364 0.0066739307 0.56921721 4144959
0.15395723 0.0066937925 0.57091123 4079429
0.1555537 0.0067182658 0.57299852 3355208
0.15728161 0.0067480556 0.57553929 2697289
0.1594068 0.0067943879 0.57949096 3289414
0.096061304 0.0080498299 0.59502488 1907763
0.096548826 0.0080012837 0.59143645 2368564
0.097158045 0.0079637738 0.58866382 3355699
0.097833507 0.0079324469 0.58634818 2829360
0.098543175 0.0079045324 0.58428484 2039600
0.099276677 0.0078791017 0.58240503 2039089
0.1000432 0.0078567956 0.58075625 1973298
0.10080905 0.0078349011 0.5791378 1907761
0.10159998 0.0078153834 0.57769513 2104884
0.10241984 0.007798465 0.57644457 2368309
0.1032369 0.007781676 0.57520354 2763061
0.10407092 0.0077664871 0.57408082 3289403
0.10490853 0.0077518611 0.57299972 3487293
0.10574364 0.0077373395 0.5719263 3421500
0.10658801 0.0077237692 0.57092321 3618621
0.10743517 0.0077106585 0.5699541 3881792
0.10828604 0.0076980595 0.56902283 3882047
0.10915332 0.0076868539 0.56819451 4013630
0.11001667 0.0076755816 0.5673613 3947579
0.11088596 0.0076649277 0.5665738 3815735
0.11177352 0.0076557207 0.56589323 3420976
0.11266273 0.0076467921 0.56523323 3486768
0.11356314 0.0076387767 0.56464076 3684406
0.11446166 0.0076307775 0.56404948 3882042
0.11536756 0.0076234075 0.5635047 4144700
0.1162796 0.0076165679 0.56299913 4408129
0.11719228 0.0076098884 0.56250542 4539715
0.11810444 0.00760329 0.56201768 4539715
0.11904321 0.0075985026 0.56166381 4539714
0.11998423 0.0075939386 0.56132644 4408128
0.12092401 0.0075893733 0.56098896 4342334
0.12185928 0.0075846026 0.56063634 4276286
0.1228027 0.0075804135 0.5603267 4342336
0.12376695 0.0075775688 0.56011641 4342337
0.12475127 0.0075759883 0.55999959 4210751
0.12573519 0.0075744092 0.55988288 4145214
0.12671858 0.0075728232 0.55976564 4145213
0.12769721 0.0075709815 0.5596295 4079421
0.12868184 0.0075695193 0.55952144 4145214
0.1296954 0.0075697703 0.55953997 4145213
0.13070904 0.0075700213 0.55955851 4144957
0.13172612 0.007570466 0.55959141 3881786
0.13275123 0.0075713629 0.55965769 3223855
0.13380188 0.0075736907 0.55982977 2960428
0.13484831 0.007575748 0.55998182 2763305
0.13589533 0.0075778067 0.56013399 2500132
0.13695957 0.0075807879 0.56035435 2500132
0.13803241 0.0075841979 0.56060642 2763304
0.13913886 0.0075893924 0.56099039 3289905
0.14025721 0.0075951554 0.56141639 3223855
0.14139272 0.0076017594 0.56190455 3223854
0.14253406 0.0076085799 0.56240869 3421232
0.14370355 0.0076167961 0.563016 3816247
0.14489761 0.0076261899 0.56371039 4276542
0.14609021 0.0076353769 0.56438947 4210750
0.14731874 0.0076463008 0.56519693 3881785
0.14857821 0.0076586707 0.56611127 3092530
0.1499074 0.0076744398 0.5672769 3223602
0.15125594 0.0076909801 0.56849951 3487027
0.15271661 0.0077129598 0.57012421 4013372
0.15422684 0.0077371323 0.57191098 4013378
0.1558307 0.0077656494 0.5740189 3618631
0.15759115 0.0078015421 0.57667202 3158089
0.16013095 0.0078752926 0.58212346 3355458
0.09608493 0.0091253845 0.59517121 1907507
0.096572429 0.0090703387 0.59158105 2434355
0.097204119 0.0090298913 0.588943 3289906
0.097885907 0.0089949211 0.58666223 3158065
0.098600134 0.0089636482 0.58462256 2171439
0.099350169 0.008936259 0.58283615 1973042
0.10011799 0.0089110257 0.58119041 1973041
0.10088984 0.0088866698 0.57960188 1907503
0.10168063 0.0088644652 0.57815367 1907503
0.10250096 0.0088452604 0.57690114 1907759
0.10331748 0.008826117 0.57565254 2302255
0.10415656 0.008809261 0.57455319 2828595
0.10499468 0.0087926574 0.57347029 2960693
0.10583042 0.0087761814 0.57239568 2894898
0.10667533 0.0087607764 0.57139093 3421239
0.10752846 0.0087463344 0.57044899 3947581
0.10837992 0.008732032 0.56951618 4079167
0.10924821 0.0087193409 0.56868845 3947836
0.11011453 0.0087067299 0.56786597 3750199
0.11098407 0.008694605 0.56707513 3421234
0.11187585 0.0086844265 0.56641132 3355183
0.11276555 0.0086742733 0.56574905 3552818
0.11366623 0.0086651389 0.5651533 3881783
0.11456545 0.0086560566 0.56456095 4079419
0.11547616 0.0086479941 0.56403512 4342335
0.11638895 0.0086402278 0.5635286 4473921
0.1173015 0.008632578 0.56302965 4473921
0.11821754 0.0086253136 0.56255585 4408128
0.11916055 0.0086201243 0.56221741 4408384
0.12010241 0.0086149406 0.56187934 4473920
0.12103968 0.0086095175 0.56152558 4408128
0.12197578 0.0086041009 0.56117231 4276543
0.12292941 0.0086000003 0.56090486 4342336
0.12389335 0.008596682 0.56068844 4342336
0.12487865 0.0085948864 0.56057137 4276543
0.12586354 0.0085930927 0.56045437 4145214
0.12684801 0.0085912999 0.56033742 4145213
0.12783208 0.008589508 0.56022054 4079421
0.12881994 0.0085879965 0.56012195 4079420
0.12983634 0.0085883951 0.560148 4079420
0.13085462 0.0085889138 0.5601818 4079420
0.13187306 0.0085894326 0.56021565 3881783
0.13289778 0.0085903499 0.5602755 3289390
0.13395226 0.0085931644 0.56045902 3158061
0.13500357 0.008595733 0.56062657 2960683
0.13605183 0.0085980715 0.56077909 2763560
0.13711862 0.008601537 0.56100512 2960683
0.13820408 0.0086061144 0.56130368 3618613
0.1393082 0.0086117797 0.56167316 3684662
0.14043073 0.0086184926 0.56211096 3421235
0.14156918 0.0086260792 0.5626058 3092269
0.14271291 0.0086338762 0.56311435 3355441
0.14389203 0.0086436905 0.56375444 4210493
0.1450879 0.0086543662 0.56445068 4276543
0.14628424 0.00866492 0.56513906 3750199
0.14751542 0.0086773774 0.56595153 3421239
0.14879607 0.0086925542 0.56694138 3355191
0.15012226 0.0087101646 0.56808996 3421235
0.15149345 0.0087301312 0.5693922 3815992
0.15296146 0.00875537 0.57103831 4013628
0.15449737 0.0087841311 0.57291418 4079425
0.15613008 0.0088179782 0.5751217 3816006
0.15797763 0.0088634314 0.57808626 3487048
0.096111991 0.010201831 0.59533882 1776179
0.096600138 0.010140346 0.5917508 2500147
0.097249947 0.010096989 0.58922064 3224114
0.097931929 0.010057873 0.58693802 2960684
0.098673396 0.010025639 0.58505696 2631725
0.099423766 0.0099949818 0.58326793 1973808
0.10018888 0.009966433 0.58160192 1841713
0.10096646 0.0099397032 0.58004206 1841710
0.1017613 0.0099152038 0.57861239 1841963
0.1025814 0.0098936381 0.57735389 1907753
0.10339902 0.009872268 0.57610679 2104874
0.10424194 0.009853716 0.57502419 2170407
0.10508098 0.009835165 0.57394165 2631211
0.10591735 0.0098167304 0.57286584 2697516
0.10676708 0.0097998772 0.57188237 3421236
0.10762193 0.0097838119 0.57094485 4013372
0.10847397 0.0097677978 0.57001036 4013628
0.10934328 0.0097536249 0.56918329 3947577
0.1102102 0.009739507 0.56835938 3749942
0.11108589 0.0097264145 0.56759536 3618612
0.11197837 0.0097150188 0.56693035 3552819
0.11286876 0.0097036492 0.56626689 3552562
0.11376949 0.0096933646 0.56566674 4013369
0.11466976 0.0096832244 0.56507498 4342078
0.11558497 0.0096745128 0.56456661 4408128
0.11649853 0.009665817 0.56405914 4539713
0.11741091 0.0096571753 0.56355482 4539714
0.11833425 0.0096495738 0.56311125 4408384
0.11927812 0.0096437633 0.56277215 4342591
0.12021749 0.0096376883 0.56241769 4276798
0.12115558 0.0096316151 0.56206328 4210749
0.12209506 0.0096257515 0.56172109 4342335
0.1230564 0.0096216938 0.56148428 4408128
0.12402 0.0096178781 0.56126159 4408128
0.12500629 0.0096158683 0.56114435 4276542
0.12599216 0.0096138595 0.56102711 4079164
0.12697762 0.0096118515 0.56090993 4013628
0.12796265 0.0096098436 0.56079274 4079420
0.12896015 0.0096087959 0.56073159 4079421
0.12998131 0.0096095139 0.56077349 4079421
0.13100076 0.0096100951 0.56080741 4013883
0.13202034 0.0096106762 0.56084132 3487283
0.13304465 0.0096115898 0.56089467 3289391
0.13410035 0.0096147424 0.56107861 3289648
0.13515674 0.0096178949 0.56126261 3289648
0.1362087 0.0096206889 0.56142563 3223598
0.13728389 0.0096250707 0.56168133 3421233
0.13837662 0.0096306074 0.56200445 3750198
0.13947798 0.0096366601 0.56235766 3487283
0.14060469 0.0096443649 0.56280726 3618612
0.14174688 0.0096530141 0.56331199 3815991
0.14289218 0.009661749 0.56382173 4210750
0.14408101 0.0096732834 0.56449485 4276542
0.14527825 0.0096852165 0.56519121 3881787
0.1464809 0.0096973423 0.56589884 3420984
0.14771402 0.0097113028 0.56671351 3618368
0.1490092 0.0097291227 0.56775343 4013374
0.15033771 0.0097488612 0.56890529 4079164
0.15173493 0.009772758 0.5702998 4210750
0.15321283 0.009801494 0.57197672 4276799
0.15476887 0.0098348111 0.57392097 4276546
0.15643409 0.0098745767 0.57624155 4144965
0.15836641 0.0099305669 0.5795089 3487047
0.096149661 0.011280128 0.59557217 1776177
0.09663716 0.011212046 0.5919776 2500402
0.097295009 0.011165001 0.58949369 3223858
0.097979009 0.011121942 0.58722019 2697512
0.098746769 0.011089209 0.58549201 2829101
0.099497475 0.011055275 0.5837003 2171437
0.10025987 0.011023337 0.58201402 1842222
0.10103781 0.010993752 0.58045197 1776173
0.10184097 0.010967489 0.57906538 1973291
0.10266154 0.010943617 0.57780492 1973287
0.10348333 0.010920351 0.57657659 2104870
0.1043268 0.010899815 0.57549226 2236454
0.10516708 0.010879353 0.57441193 2499623
0.10600442 0.010858989 0.57333678 2894891
0.10686011 0.010840881 0.57238066 3487027
0.10771555 0.010823093 0.57144153 3881785
0.10856843 0.010805389 0.57050675 4079164
0.10943851 0.010789712 0.56967902 4079420
0.11030605 0.010774079 0.56885362 4013114
0.11118789 0.010760118 0.56811655 3947320
0.11208108 0.010747501 0.56745034 3618355
0.11297216 0.010734911 0.56678563 3618355
0.11387295 0.010723461 0.56618112 4078906
0.114778 0.010712614 0.56560838 4342079
0.11569398 0.010702968 0.56509906 4473665
0.11660831 0.010693338 0.56459063 4605251
0.11752098 0.010683726 0.5640831 4605507
0.11845119 0.010675859 0.56366777 4408128
0.11939266 0.010669132 0.56331259 4276542
0.12033278 0.010662397 0.56295705 4276799
0.12127171 0.010655673 0.56260198 4276542
0.12222137 0.010649994 0.56230217 4473664
0.12318363 0.010645499 0.56206483 4407871
0.12414693 0.010641165 0.561836 4342335
0.12513418 0.010638939 0.56171846 4276542
0.12612103 0.010636714 0.56160098 4013371
0.12710747 0.01063449 0.56148356 3947834
0.12809455 0.010632354 0.56137079 4013627
0.12909688 0.010631507 0.56132609 4145214
0.13012548 0.010632821 0.56139547 4079421
0.13114722 0.010633559 0.56143439 3882298
0.13216794 0.010634203 0.56146836 3618613
0.13319185 0.010635091 0.56151527 3749943
0.13424876 0.010638582 0.56169957 3815992
0.13530637 0.010642074 0.56188399 3815992
0.13636468 0.01064557 0.56206858 3749942
0.13745542 0.010651526 0.56238306 3486769
0.13854961 0.010657662 0.56270701 3158061
0.13964817 0.010664041 0.56304383 3026475
0.14078018 0.010672866 0.56350976 3487283
0.14192502 0.010682529 0.56401992 4144957
0.14307396 0.01069236 0.56453902 3947578
0.14427049 0.010705585 0.56523722 3815993
0.14546452 0.010718439 0.56591594 3289910
0.14667812 0.010732545 0.5666607 3618620
0.14791317 0.010748016 0.56747752 4210753
0.14922294 0.010768666 0.56856781 4342336
0.15056363 0.01079125 0.5697602 4342079
0.15197715 0.010818712 0.57121021 4473922
0.15346502 0.010851061 0.57291818 4539971
0.15504262 0.010889281 0.57493609 4408130
0.15674081 0.010935405 0.57737142 4342340
0.15875711 0.011002968 0.58093858 3618630
0.096189804 0.012359584 0.59582084 1841968
0.096676499 0.012284859 0.59221858 2434353
0.097340114 0.012234004 0.58976698 3092272
0.098038837 0.012188612 0.58757877 2566182
0.098800793 0.01215197 0.58581233 2894890
0.099571288 0.012117141 0.58413333 3092273
0.10033096 0.012081739 0.58242673 2171180
0.10111717 0.012050233 0.58090788 1841706
0.10192075 0.012021422 0.57951903 2105131
0.10274179 0.011995235 0.57825661 2039336
0.10356779 0.011970147 0.57704717 2236456
0.10441178 0.011947617 0.57596105 2434088
0.10525259 0.01192517 0.57487899 2565672
0.10609391 0.011903219 0.57382077 2894635
0.10695331 0.011883701 0.57287985 3421234
0.10780933 0.011864185 0.57193905 3618613
0.10866322 0.011844805 0.57100481 4079421
0.1095339 0.011827604 0.57017559 4144957
0.11040501 0.011810767 0.56936395 4210749
0.11128973 0.011795686 0.56863689 3881528
0.11218397 0.011781879 0.56797129 3684148
0.11307576 0.011768065 0.56730539 3947320
0.1139766 0.011755434 0.56669647 4276541
0.11488646 0.011743949 0.5661428 4473664
0.1158032 0.011733363 0.56563252 4605251
0.11671828 0.011722798 0.56512314 4605251
0.11763172 0.011712249 0.56461465 4605251
0.11856523 0.011703864 0.56421041 4473665
0.11950735 0.011696463 0.56385368 4342335
0.12044829 0.011689075 0.56349748 4276799
0.12138805 0.011681695 0.5631417 4276543
0.12234793 0.011676358 0.56288445 4342335
0.12331114 0.011671425 0.56264663 4342335
0.1242741 0.011666548 0.56241155 4276799
0.12526235 0.011664106 0.56229377 4211006
0.12625018 0.011661664 0.56217605 4145213
0.1272376 0.011659223 0.56205839 4144956
0.12822878 0.011657162 0.56195903 4145213
0.12923388 0.011656389 0.56192178 4210750
0.1302636 0.011657831 0.56199133 4210751
0.13129357 0.011659275 0.56206089 4079165
0.13231587 0.01166002 0.56209683 3815993
0.13333936 0.011660857 0.56213719 3947322
0.13439751 0.011664689 0.5623219 3881785
0.13545634 0.011668523 0.56250674 3618869
0.1365303 0.011673594 0.56275117 3223854
0.13762271 0.011680157 0.56306756 2829352
0.13872141 0.011687151 0.56340474 3026731
0.13981995 0.011694032 0.56373644 3224367
0.14095716 0.011704025 0.56421816 3750711
0.1421036 0.011714633 0.56472957 4079163
0.14326213 0.011726082 0.56528151 3618614
0.14446047 0.011740603 0.56598151 3684409
0.1456513 0.011754315 0.56664252 3289909
0.14687584 0.011770538 0.5674246 4408130
0.1481173 0.011787883 0.56826073 4342595
0.14943728 0.011811194 0.56938452 4276543
0.1507908 0.01183682 0.57061988 4539714
0.15222016 0.011868013 0.57212359 4671557
0.15371802 0.01190409 0.57386273 4802887
0.15532152 0.01194781 0.57597035 4408386
0.15705028 0.01200052 0.57851136 4210755
0.15919349 0.012083994 0.58253545 3618628
0.096229978 0.013439941 0.59606969 1908015
0.096729182 0.013360384 0.59254128 2171184
0.097385265 0.013303998 0.5900405 2960687
0.098098747 0.013256587 0.58793783 2632232
0.098854847 0.013215889 0.58613282 2368546
0.099638283 0.013179667 0.58452636 3092526
0.10040216 0.013141644 0.58284003 3158322
0.10120121 0.013108965 0.58139068 2565677
0.10200299 0.013077306 0.57998657 2499885
0.10282218 0.013048501 0.57870907 2368554
0.10365239 0.013021657 0.57751852 2631467
0.1044969 0.012997127 0.57643062 2829101
0.10533824 0.012972689 0.57534677 2829099
0.10618441 0.012949318 0.57431024 2894635
0.10704645 0.012928315 0.57337874 3355185
0.10790329 0.012907092 0.57243747 3618614
0.10875814 0.012886036 0.57150364 4079164
0.10962945 0.012867306 0.57067299 4210749
0.11050567 0.012849497 0.56988311 4276542
0.11139162 0.012833135 0.56915748 3749942
0.11228706 0.012818158 0.56849319 3815991
0.11317953 0.012803115 0.56782603 4144699
0.11408044 0.012789287 0.56721276 4407871
0.11499512 0.012777235 0.56667829 4539458
0.11591262 0.012765707 0.566167 4671044
0.11682848 0.012754201 0.56565666 4605251
0.1177406 0.01274249 0.56513727 4605251
0.1186793 0.01273383 0.56475323 4539458
0.11962226 0.012725772 0.56439584 4473921
0.12056403 0.012717725 0.56403893 4342336
0.12150978 0.012710228 0.56370646 4342335
0.12247475 0.012704849 0.56346792 4342336
0.12343891 0.012699476 0.56322962 4276543
0.12440227 0.012694109 0.56299156 4276543
0.12539077 0.012691373 0.5628702 4211006
0.12637958 0.012688713 0.56275225 4145212
0.12737043 0.012686298 0.56264514 4144956
0.12836328 0.012684119 0.56254852 4079420
0.12937118 0.012683448 0.56251878 4013629
0.130402 0.01268502 0.56258845 3816251
0.13143308 0.012686591 0.56265813 3618618
0.13246414 0.012688137 0.56272668 3552823
0.1334873 0.012688907 0.56276083 3750199
0.13454656 0.012693073 0.5629456 3421490
0.13561995 0.012698497 0.56318617 2960939
0.13669695 0.012704178 0.56343812 2763560
0.13778819 0.012711088 0.5637446 2829352
0.1388883 0.012718708 0.56408256 3487026
0.13999248 0.012726589 0.56443208 3684661
0.14113459 0.012737779 0.56492835 3618867
0.14228263 0.012749339 0.56544107 3355439
0.1434508 0.012762526 0.56602591 3158064
0.14464948 0.012778223 0.56672204 3092273
0.14583874 0.012792871 0.56737173 4013117
0.14707412 0.012811334 0.56819057 4407872
0.14832439 0.012830829 0.5690552 4342336
0.14965226 0.012856723 0.5702036 4474178
0.15101866 0.012885552 0.57148218 4737094
0.15246692 0.012920926 0.57305104 4868680
0.15398152 0.012961408 0.57484645 4671557
0.15560144 0.013010154 0.57700837 4342593
0.15738665 0.013071981 0.57975042 4144961
0.16008715 0.01320851 0.58580559 3552833
0.096276864 0.014522208 0.59636009 2368560
0.096781917 0.014437081 0.59286433 1907759
0.09743765 0.014376046 0.5903579 2829103
0.098158725 0.014325868 0.58829731 2895148
0.098908961 0.014280973 0.58645368 2368546
0.09969268 0.014241812 0.58484548 2565668
0.10047926 0.014203874 0.5832876 3158062
0.10128539 0.014169459 0.58187431 3750199
0.10208763 0.014135211 0.58046788 3421237
0.1029027 0.014103414 0.57916218 3026479
0.10373712 0.014074886 0.57799065 3158064
0.10458217 0.014048351 0.57690096 2894636
0.10542727 0.014022347 0.57583308 2894891
0.10627506 0.013997203 0.57480055 2894891
0.10713769 0.013974482 0.5738675 3289392
0.1079974 0.013951818 0.57293677 3750199
0.10885325 0.01392909 0.57200342 3947835
0.10972904 0.013909315 0.57119137 4276543
0.11060651 0.01389012 0.57040316 4210749
0.11149369 0.013872487 0.56967902 3684661
0.11239007 0.01385631 0.56901473 4079163
0.11328351 0.013840067 0.56834769 4144957
0.11418445 0.013825024 0.56772995 4342335
0.11510398 0.013812478 0.56721473 4473665
0.11602225 0.013800004 0.56670249 4671044
0.11693647 0.013787269 0.56617951 4539715
0.11785638 0.01377542 0.56569296 4473665
0.11879361 0.013765783 0.56529719 4342335
0.11973738 0.013757061 0.56493902 4276542
0.12067998 0.013748352 0.56458139 4342335
0.12163592 0.013741297 0.56429166 4408128
0.12260184 0.013735476 0.56405264 4342335
0.12356696 0.013729662 0.56381387 4276543
0.12453125 0.013723852 0.56357527 4211007
0.12551945 0.01372075 0.56344789 4145213
0.12650999 0.013717951 0.56333297 3947833
0.1275042 0.013715591 0.56323606 4013626
0.12849808 0.013713233 0.5631392 3947578
0.12950876 0.013712693 0.56311703 3816250
0.1305407 0.013714393 0.56318682 3487546
0.1315729 0.013716093 0.56325668 3158327
0.13260536 0.013717796 0.5633266 2960946
0.13363704 0.013719393 0.56339216 2961198
0.13470818 0.013724984 0.56362176 2895660
0.13578562 0.01373113 0.56387419 2895147
0.13686404 0.013737282 0.56412679 2829097
0.13795406 0.0137445 0.5644232 2894889
0.13905559 0.013752752 0.56476206 3223855
0.14017121 0.013762265 0.5651527 3026733
0.14131248 0.013774141 0.56564039 2960683
0.14246212 0.013786656 0.56615436 2631721
0.14363997 0.013801705 0.56677234 2434347
0.14483546 0.013818224 0.5674507 3552824
0.14603557 0.013834949 0.56813753 4013372
0.14727329 0.013854978 0.56896001 4210750
0.14853536 0.013877005 0.56986457 4342336
0.14986822 0.013905298 0.57102644 4539715
0.15124723 0.013937458 0.5723471 4802886
0.15271837 0.013977612 0.57399607 4868936
0.15425304 0.014023003 0.57586002 4539972
0.15590525 0.0140784 0.57813495 4276799
0.15777509 0.014152583 0.58118129 4145218
0.096868388 0.01552035 0.59339404 1776428
0.097513631 0.01545298 0.59081829 2631983
0.098219462 0.015396564 0.58866131 3026477
0.098963134 0.015347225 0.58677489 2500133
0.099753365 0.015306072 0.5852015 2303009
0.10055171 0.015267014 0.58370817 2631461
0.10136972 0.015231718 0.58235872 2894889
0.1021724 0.015194871 0.5809499 3552820
0.10298333 0.015159982 0.57961601 3684662
0.10382199 0.015129838 0.57846349 2960427
0.10466896 0.015101491 0.5773797 2894891
0.10551669 0.015073813 0.57632148 2829098
0.10636587 0.015046879 0.57529169 2960427
0.10722909 0.015022432 0.57435703 3355441
0.1080895 0.014998064 0.57342535 3815992
0.10894883 0.014974009 0.57250565 3487027
0.1098294 0.014953298 0.57171381 4276543
0.11070754 0.014932645 0.57092416 4144957
0.11159596 0.014913746 0.57020158 3750455
0.11249304 0.014896338 0.56953603 4144958
0.11338767 0.014878925 0.56887025 4079167
0.11429234 0.014863129 0.56826633 4210751
0.11521304 0.014849681 0.56775218 4276542
0.11612967 0.014835948 0.56722713 4473665
0.11704452 0.014822231 0.56670266 4407872
0.11797237 0.014810384 0.56624973 4407872
0.11891043 0.014800011 0.56585312 4342079
0.11985274 0.014790338 0.56548327 4276286
0.12079616 0.014780965 0.56512493 4342078
0.12176232 0.014774508 0.56487805 4342335
0.1227292 0.014768244 0.56463856 4276542
0.12369526 0.014761986 0.5643993 4211006
0.12466049 0.014755731 0.56416017 4210750
0.12564839 0.014752241 0.56402671 3882042
0.12664302 0.014749589 0.56392533 3684662
0.12763825 0.01474705 0.56382823 4079419
0.12863316 0.014744512 0.56373119 4013371
0.12964664 0.014744128 0.56371653 3750458
0.1306797 0.014745958 0.56378651 3421498
0.13171302 0.01474779 0.56385654 3158071
0.13274659 0.014749622 0.56392658 2829104
0.13378735 0.014752218 0.56402582 2895150
0.13487287 0.014759673 0.56431085 3618870
0.13595171 0.014766291 0.56456387 3092270
0.1370315 0.014772912 0.56481707 2631463
0.13812034 0.014780405 0.56510353 3026219
0.13922329 0.014789287 0.5654431 2894891
0.14035039 0.014800586 0.56587511 2500134
0.14149079 0.014813116 0.56635416 2434599
0.14264205 0.014826593 0.56686944 2565677
0.14382961 0.014843626 0.56752068 3158070
0.14502192 0.014860903 0.56818122 4013373
0.14623295 0.014879844 0.56890541 4079420
0.14747602 0.014901757 0.56974322 4144959
0.1487492 0.014926391 0.57068503 4342592
0.15009485 0.014957907 0.57189 4671300
0.15147719 0.014992622 0.57321727 4868679
0.15297063 0.01503779 0.5749442 4803143
0.15452996 0.015088785 0.57689387 4408385
0.15621041 0.015150842 0.57926655 4210750
0.15817261 0.015239222 0.5826456 4276804
0.097592883 0.016532129 0.59129846 2434607
