# .PCD v0.7 - Point Cloud Data file format
VERSION 0.7
FIELDS x y z rgb
SIZE 4 4 4 4
TYPE F F F U
COUNT 1 1 1 1
WIDTH 1069
HEIGHT 1
VIEWPOINT 0 0 0 1 0 0 0
POINTS 1069
DATA ascii
-0.0026124225 -0.0047023604 0.57931274 9145227
-0.0015686203 -0.0047058607 0.57974398 9211020
-0.00052337663 -0.0047103893 0.58030188 9013641
0.00052394689 -0.0047155218 0.58093417 8816005
0.0015735454 -0.0047206362 0.58156425 8487037
0.0026253874 -0.0047256975 0.58218777 8552574
0.0036794872 -0.0047307694 0.58281261 8552830
0.0047358517 -0.0047358517 0.58343875 8552830
0.0057944888 -0.0047409455 0.58406627 8552830
0.0068554059 -0.0047460501 0.58469516 8881797
0.0079462575 -0.0047677546 0.58736902 9211020
0.0090594841 -0.0047961976 0.59087312 9671571
-0.036278412 -0.0036804187 0.58296013 8421504
-0.035137769 -0.0036711104 0.58148575 8421504
-0.033993375 -0.0036608248 0.57985657 8487297
-0.032910664 -0.0036567405 0.57920963 8421504
-0.03186309 -0.0036564202 0.5791589 8421504
-0.030815704 -0.0036561002 0.57910824 8421504
-0.029768495 -0.0036557801 0.57905751 8618883
-0.028692339 -0.0036517521 0.57841951 8816262
-0.027612437 -0.0036469258 0.57765502 8816262
-0.026535384 -0.0036421116 0.5768925 8816262
-0.025470637 -0.0036386624 0.57634616 8618883
-0.024435921 -0.0036393926 0.57646179 8487297
-0.023400787 -0.0036401225 0.57657743 8618883
-0.022360764 -0.0036401243 0.57657772 8882055
-0.021317359 -0.003639549 0.57648659 8816263
-0.020274283 -0.0036389739 0.57639551 8618883
-0.019231537 -0.0036383991 0.57630444 8684933
-0.018189382 -0.0036378764 0.57622164 8947848
-0.017150687 -0.0036380247 0.57624513 8947848
-0.016111908 -0.003638173 0.57626861 8947848
-0.015073045 -0.0036383211 0.5762921 8947848
-0.014035421 -0.003638813 0.57637 8947848
-0.01300069 -0.0036401933 0.57658863 8947848
-0.011965172 -0.0036415742 0.57680738 8947848
-0.01092887 -0.0036429567 0.57702637 8947848
-0.0098917801 -0.0036443402 0.57724547 8947848
-0.0088539021 -0.0036457246 0.57746476 8947848
-0.0078152362 -0.0036471102 0.57768422 8947848
-0.0067757792 -0.0036484965 0.57790381 8947848
-0.0057355324 -0.0036498841 0.57812363 8947848
-0.0046944935 -0.0036512727 0.57834357 8947848
-0.0036526625 -0.0036526625 0.57856369 8947848
-0.002610038 -0.0036540532 0.57878399 9013641
-0.0015666201 -0.0036554467 0.5790047 9013641
-0.00052275008 -0.0036592504 0.57960719 8947848
0.00052330858 -0.0036631601 0.58022648 9013641
0.001571605 -0.0036670782 0.58084708 8618625
0.0026221464 -0.0036710049 0.58146906 8552574
0.00367494 -0.00367494 0.58209234 8552830
0.0047299927 -0.0036788832 0.58271694 8552830
0.0057873125 -0.0036828353 0.58334291 8552830
0.0068469066 -0.0036867957 0.58397025 8552830
0.0079159318 -0.0036941015 0.58512741 9079177
0.0090131545 -0.0037112988 0.58785141 9079434
-0.036287934 -0.0026295604 0.58311313 8421504
-0.035140645 -0.0026224363 0.58153331 8487297
-0.033993866 -0.0026149128 0.57986498 8421504
-0.032933265 -0.002613751 0.57960737 8421504
-0.031884968 -0.0026135221 0.57955658 8421504
-0.030836858 -0.002613293 0.5795058 8618883
-0.029760513 -0.0026105712 0.57890224 8816262
-0.028678298 -0.0026071179 0.57813644 8816262
-0.027598942 -0.0026036736 0.57737267 8816262
-0.026522433 -0.0026002387 0.57661092 8816262
-0.025470961 -0.0025990778 0.57635349 8618883
-0.02442815 -0.0025987392 0.57627845 8882055
-0.023384959 -0.0025983287 0.57618743 8816262
-0.022342099 -0.0025979183 0.57609642 8553091
-0.021299567 -0.0025975083 0.57600546 8750470
-0.020257365 -0.002597098 0.5759145 9013641
-0.019215699 -0.0025967162 0.5758298 9013641
-0.018177753 -0.0025968221 0.57585329 8947848
-0.017139722 -0.0025969276 0.57587671 8947848
-0.016101608 -0.0025970335 0.5759002 8947848
-0.015063407 -0.0025971392 0.57592362 8947848
-0.014025563 -0.0025973264 0.57596517 8947848
-0.012991555 -0.0025983111 0.5761835 8947848
-0.011956763 -0.0025992964 0.57640201 8947848
-0.010921186 -0.0026002824 0.57662064 8947848
-0.0098848222 -0.0026012692 0.57683945 8947848
-0.0088476725 -0.0026022566 0.57705843 8947848
-0.007809734 -0.0026032447 0.57727754 8947848
-0.006771008 -0.0026042338 0.57749689 8947848
-0.0057314918 -0.0026052236 0.57771635 8947848
-0.0046912194 -0.0026062331 0.57794023 8947848
-0.0036501458 -0.0026072469 0.57816505 8947848
-0.0026082613 -0.0026082613 0.57839 8947848
-0.0015658137 -0.0026096895 0.57870668 8816262
-0.00052241143 -0.0026120571 0.57923174 8816262
0.00052288588 -0.0026144295 0.57975781 8750469
0.0015700836 -0.002616806 0.58028477 8553089
0.0026191864 -0.0026191864 0.58081269 8355451
0.003670404 -0.0026217171 0.58137387 8420987
0.0047241482 -0.0026245269 0.58199692 8487037
0.0057801539 -0.0026273427 0.58262134 8552830
0.0068384279 -0.0026301646 0.58324713 8552830
0.007898978 -0.0026329926 0.58387423 8552830
0.0089787291 -0.0026408026 0.58560616 9079434
-0.036294568 -0.0015780248 0.58321977 8421504
-0.035141151 -0.0015734844 0.58154172 8487297
-0.034005094 -0.0015694659 0.58005649 8421504
-0.032955892 -0.0015693282 0.58000565 8421504
-0.031906877 -0.0015691908 0.5799548 8487297
-0.030830473 -0.0015676512 0.57938582 8816262
-0.029745936 -0.0015655756 0.57861871 8816262
-0.02866427 -0.0015635057 0.57785368 8816262
-0.027585117 -0.0015614217 0.57708347 8882055
-0.026510937 -0.0015594669 0.576361 8618883
-0.025455864 -0.0015585223 0.5760119 8553090
-0.024407769 -0.0015579427 0.57579768 8421504
-0.023365451 -0.0015576968 0.57570678 8750469
-0.022323465 -0.001557451 0.57561594 9013641
-0.021281807 -0.0015572053 0.57552516 9079434
-0.020240624 -0.0015569711 0.57543856 9013641
-0.019203424 -0.0015570344 0.57546198 8947848
-0.018166142 -0.0015570978 0.57548541 8947848
-0.017128773 -0.0015571612 0.57550883 8947848
-0.016091321 -0.0015572245 0.57553226 8947848
-0.015053784 -0.001557288 0.57555568 8947848
-0.014016162 -0.0015573513 0.57557911 8947848
-0.012982434 -0.0015578921 0.57577896 8947848
-0.011948366 -0.0015584825 0.57599717 8947848
-0.010913513 -0.0015590732 0.57621551 8947848
-0.0098778754 -0.0015596645 0.57643402 8947848
-0.0088414997 -0.0015602646 0.57665581 8947848
-0.0078043509 -0.0015608702 0.57687962 8947848
-0.006766397 -0.0015614763 0.57710361 8947848
-0.0057276366 -0.0015620828 0.57732779 8947848
-0.0046880692 -0.0015626898 0.57755214 8947848
-0.0036476937 -0.0015632974 0.57777667 8947848
-0.0026065088 -0.0015639053 0.57800138 8947848
-0.0015650219 -0.0015650219 0.57841408 8816262
-0.00052214711 -0.0015664414 0.57893866 8816262
0.00052262103 -0.0015678632 0.57946414 8816262
0.0015692875 -0.0015692875 0.57999057 8750212
0.0026178577 -0.0015707146 0.58051801 8421503
0.0036683362 -0.0015721441 0.58104634 8158329
0.0047207293 -0.0015735764 0.58157569 8223865
0.0057750409 -0.0015750112 0.58210599 8223865
0.0068312776 -0.0015764487 0.58263725 8355195
0.007889444 -0.0015778888 0.58316952 8420988
0.0089507028 -0.0015795358 0.5837782 8487038
0.010183028 -0.0016078466 0.59424156 9342606
-0.036295097 -0.00052601588 0.58322823 9276813
-0.035141665 -0.00052450242 0.58155018 8487297
-0.034028482 -0.0005235151 0.58045542 8421504
-0.032978557 -0.00052346918 0.58040452 8487297
-0.03190222 -0.00052298722 0.57987016 8816262
-0.030815361 -0.00052229426 0.5791018 8816262
-0.029730802 -0.00052159303 0.57832432 8882055
-0.028644053 -0.00052080094 0.5774461 8947848
-0.027567988 -0.0005201507 0.57672513 8618883
-0.026506737 -0.00051973993 0.57626969 8421504
-0.025448466 -0.00051935646 0.57584447 8224125
-0.024400318 -0.0005191557 0.5756219 8553347
-0.023352979 -0.00051895512 0.57539946 8750469
-0.022306452 -0.00051875471 0.57517725 8882055
-0.021264154 -0.00051863794 0.57504779 8947848
-0.0202277 -0.00051865901 0.57507116 8882055
-0.019191165 -0.00051868014 0.57509458 8882055
-0.018154541 -0.00051870121 0.57511795 8882055
-0.017117836 -0.00051872234 0.57514137 8882055
-0.016081044 -0.00051874341 0.57516474 8750469
-0.015044171 -0.00051876454 0.57518816 8750469
-0.014007211 -0.00051878561 0.57521152 8816262
-0.012973373 -0.00051893492 0.57537711 8882055
-0.011940126 -0.00051913591 0.57559997 8947848
-0.010906078 -0.00051933702 0.57582295 8947848
-0.0098712277 -0.0005195383 0.57604611 8947848
-0.0088355765 -0.00051973981 0.57626951 8947848
-0.0077991206 -0.00051994139 0.57649302 8947848
-0.0067618606 -0.00052014313 0.57671672 8947848
-0.0057237949 -0.000520345 0.57694054 8947848
-0.0046849237 -0.0005205471 0.57716459 8947848
-0.0036452452 -0.00052074931 0.57738882 8947848
-0.0026047586 -0.0005209517 0.57761323 8882055
-0.0015642312 -0.00052141043 0.57812184 8816262
-0.00052188302 -0.00052188302 0.57864583 8816262
0.00052235648 -0.00052235648 0.57917082 8816262
0.0015684924 -0.00052283081 0.57969671 8816262
0.0026165298 -0.00052330596 0.58022356 8684675
0.0036664743 -0.00052378204 0.58075142 8355452
0.0047183307 -0.000524259 0.58128023 8223865
0.0057721045 -0.00052473677 0.58181 8289658
0.0068274769 -0.00052519055 0.58231312 8486781
0.0078838943 -0.00052559294 0.58275926 8486781
0.0089424876 -0.00052602869 0.58324242 8421244
0.010126473 -0.00053297228 0.59094125 8421503
-0.036465328 0.00052848307 0.58596373 9211020
-0.035142172 0.00052451005 0.58155859 8487297
-0.034051899 0.00052387535 0.58085489 8487297
-0.032975763 0.00052342482 0.58035535 8816262
-0.031885736 0.00052271702 0.57957053 8882055
-0.030793367 0.00052192149 0.5786885 8947848
-0.029704321 0.00052112847 0.57780921 8947848
-0.028626375 0.00052047957 0.57708973 8618883
-0.02756362 0.00052006828 0.57663375 8421504
-0.02650254 0.00051965762 0.57617843 8158589
-0.025443137 0.00051924767 0.57572389 8618883
-0.024393229 0.00051900488 0.57545465 8750469
-0.023346199 0.00051880442 0.57523239 8750469
-0.022299977 0.00051860412 0.5750103 8750469
-0.021258697 0.00051850482 0.57490021 8618883
-0.020222669 0.00051852997 0.5749281 8618883
-0.019186541 0.00051855517 0.57495606 8618883
-0.018150313 0.00051858032 0.57498395 8618883
-0.017113984 0.00051860558 0.57501191 8618883
-0.016077552 0.00051863072 0.5750398 8618883
-0.015040996 0.00051865506 0.5750668 8618883
-0.014004041 0.00051866821 0.57508135 8684676
-0.012968195 0.00051872781 0.57514745 8750469
-0.011934269 0.00051888125 0.57531762 8750469
-0.010899732 0.00051903486 0.57548791 8816262
-0.0098646218 0.00051919062 0.57566059 8816262
-0.0088296607 0.00051939179 0.57588369 8882055
-0.0077938968 0.00051959313 0.57610691 8947848
-0.0067573301 0.00051979464 0.5763303 8947848
-0.0057199583 0.00051999622 0.57655382 8947848
-0.0046817823 0.00052019802 0.57677758 8947848
-0.0036427998 0.0005204 0.57700151 8947848
-0.0026033788 0.00052067573 0.57730728 8816262
-0.0015634411 0.00052114704 0.57782984 8816262
-0.00052161916 0.00052161916 0.57835329 8816262
0.00052209216 0.00052209216 0.57887775 8816262
0.0015676981 0.00052256603 0.57940316 8882055
0.0026152036 0.00052304071 0.57992947 8882055
0.0036640852 0.00052344071 0.58037299 8816261
0.004714564 0.00052384043 0.58081615 8421502
0.0057666469 0.00052424066 0.58125991 8487037
0.0068203406 0.0005246416 0.58170444 8487038
0.0078756455 0.00052504305 0.58214957 8420988
0.0089358464 0.00052563805 0.58280927 8355195
0.0099990321 0.00052626483 0.58350426 8355451
-0.036682095 0.0015948737 0.58944696 9145227
-0.035142682 0.001573553 0.58156705 8487297
-0.034049977 0.0015715373 0.58082211 8882055
-0.032951951 0.0015691406 0.57993627 8947848
-0.031857274 0.0015667512 0.57905316 8947848
-0.030765923 0.001564369 0.57817274 8947848
-0.029686103 0.0015624264 0.57745481 8618883
-0.028621837 0.001561191 0.57699823 8421504
-0.027559252 0.0015599576 0.57654238 8158332
-0.026498346 0.0015587262 0.57608724 8618883
-0.025439112 0.0015574966 0.57563281 8618883
-0.024386147 0.0015565626 0.57528758 8750469
-0.023339422 0.0015559614 0.57506543 8750469
-0.022293506 0.0015553609 0.57484347 8684676
-0.021255216 0.0015552596 0.57480603 8618883
-0.020219356 0.0015553351 0.57483393 8618883
-0.019183397 0.0015554106 0.57486182 8618883
-0.01814734 0.0015554862 0.57488978 8618883
-0.017111178 0.0015555617 0.57491767 8618883
-0.016074715 0.0015556177 0.57493836 8684676
-0.015038018 0.001555657 0.5749529 8684676
-0.014001267 0.0015556964 0.57496744 8684676
-0.012964464 0.0015557357 0.57498199 8684676
-0.011930593 0.0015561644 0.57514042 8750469
-0.010896374 0.0015566248 0.57531059 8750469
-0.0098615419 0.0015570855 0.57548088 8750469
-0.0088260975 0.0015575467 0.57565129 8750469
-0.0077900393 0.0015580079 0.57582176 8750469
-0.0067533674 0.0015584695 0.57599235 8816262
-0.0057161269 0.0015589438 0.57616764 8816262
-0.0046786452 0.0015595483 0.5763911 8882055
-0.0036403576 0.0015601533 0.57661468 8947848
-0.0026020657 0.0015612395 0.57701612 8882055
-0.0015626519 0.0015626519 0.57753813 8882055
-0.00052130612 0.0015639184 0.57800621 9079434
0.00052170252 0.0015651076 0.57844573 9145227
0.0015662987 0.0015662987 0.57888591 9079434
0.002612486 0.0015674916 0.57932681 9079434
0.0036602675 0.0015686861 0.5797683 9013641
0.0047096475 0.0015698826 0.58021051 8684418
0.0057606301 0.001571081 0.58065343 8486781
0.0068132179 0.001572281 0.58109695 8487037
0.0078693554 0.001573871 0.58168459 8355195
0.0089292163 0.001575744 0.58237684 8355195
0.009991603 0.0015776216 0.58307076 8355451
0.011056525 0.0015795035 0.58376628 9211017
-0.035124704 0.0026212465 0.5812695 8553090
-0.034019519 0.002616886 0.58030254 8947848
-0.032922521 0.0026128986 0.5794183 8947848
-0.031828862 0.002608923 0.57853675 8947848
-0.030747171 0.0026056925 0.57782036 8618883
-0.029681392 0.002603631 0.57736319 8355712
-0.028617298 0.0026015725 0.57690674 8158333
-0.027554885 0.0025995173 0.576451 8618883
-0.026494147 0.0025974654 0.57599598 8618883
-0.025435086 0.002595417 0.57554173 8618883
-0.024379067 0.0025935178 0.57512057 8684676
-0.023332648 0.0025925166 0.57489854 8750469
-0.02228732 0.002591549 0.57468396 8684676
-0.021251732 0.0025916747 0.57471186 8618883
-0.020216044 0.0025918004 0.57473975 8618883
-0.019180257 0.0025919266 0.57476771 8618883
-0.018144362 0.0025920516 0.57479542 8618883
-0.017107973 0.0025921171 0.57480997 8684676
-0.016071532 0.0025921827 0.57482451 8684676
-0.015035039 0.0025922479 0.574839 8684676
-0.013998494 0.0025923136 0.57485354 8684676
-0.012961896 0.0025923792 0.57486808 8684676
-0.01192692 0.0025928088 0.57496333 8750469
-0.010893019 0.0025935757 0.57513344 8750469
-0.0098585039 0.0025943432 0.57530361 8750469
-0.0088233771 0.0025951108 0.57547385 8750469
-0.0077876379 0.0025958794 0.57564425 8750469
-0.0067512849 0.0025966482 0.57581472 8750469
-0.0057143182 0.0025974174 0.57598531 8750469
-0.0046767364 0.002598187 0.57615596 8750469
-0.0036385902 0.002598993 0.57633471 8684676
-0.0026000729 0.0026000729 0.57657421 8882055
-0.0015611106 0.002601851 0.57696849 9013641
-0.0005207652 0.0026038261 0.57740647 9145227
0.00052116078 0.0026058038 0.57784504 9145227
0.0015646708 0.0026077847 0.57828432 9145227
0.0026097686 0.0026097686 0.57872427 9079434
0.0036564581 0.0026117559 0.57916492 9079434
0.0047047422 0.0026137456 0.57960618 8882054
0.0057546254 0.0026157389 0.58004814 8487038
0.0068069715 0.002618066 0.5805642 8420987
0.0078635262 0.0026211755 0.58125377 8355194
0.0089225955 0.0026242926 0.581945 8355195
0.009984185 0.002627417 0.58263785 8355195
0.011048307 0.0026305493 0.58333242 8355451
-0.035099644 0.0036671271 0.58085483 8816262
-0.033989109 0.0036603657 0.57978386 8882055
-0.03289314 0.0036547934 0.57890123 8947848
-0.031809583 0.0036502802 0.57818633 8618883
-0.030742288 0.0036473901 0.57772857 8355712
-0.029676683 0.0036445051 0.57727158 8158333
-0.028612759 0.003641624 0.57681525 8618883
-0.02755052 0.0036387478 0.57635969 8618883
-0.026489956 0.0036358763 0.57590485 8618883
-0.025431065 0.0036330093 0.57545072 8618883
-0.024373839 0.0036301464 0.57499725 8618883
-0.023325881 0.0036284702 0.57473177 8750469
-0.022283673 0.0036275748 0.57458991 8618883
-0.021248253 0.0036277503 0.57461774 8618883
-0.020212734 0.0036279266 0.57464564 8618883
-0.019176899 0.0036280621 0.5746671 8684676
-0.018140769 0.0036281538 0.57468164 8684676
-0.017104585 0.0036282453 0.57469612 8684676
-0.016068351 0.0036283371 0.57471067 8684676
-0.015032062 0.0036284288 0.57472521 8684676
-0.013995721 0.0036285203 0.57473969 8684676
-0.012959329 0.003628612 0.57475424 8684676
-0.011923249 0.0036288151 0.57478637 8750469
-0.010889664 0.0036298882 0.57495636 8750469
-0.0098554678 0.0036309618 0.57512641 8750469
-0.0088206595 0.003632036 0.57529658 8750469
-0.0077852383 0.0036331112 0.57546687 8750469
-0.0067493655 0.0036342735 0.57565099 8684676
-0.0057128696 0.0036354624 0.57583928 8684676
-0.0046756398 0.0036366086 0.57602084 8684676
-0.0036374843 0.0036374843 0.57615954 8684676
-0.0025993371 0.0036390719 0.57641101 8684676
-0.0015603075 0.0036407174 0.57667166 8684676
-0.00052033778 0.0036423644 0.57693255 8816262
0.0005206202 0.0036443411 0.57724565 8882055
0.0015630465 0.0036471086 0.57768399 9145227
0.0026070573 0.0036498804 0.57812303 9079434
0.0036526565 0.0036526565 0.57856274 9079434
0.0046998472 0.0036554364 0.5790031 9013641
0.0057486724 0.003658246 0.5794481 8552832
0.0068019396 0.003662583 0.58013505 8289658
0.0078577073 0.0036669299 0.5808236 8355194
0.0089159841 0.0036712876 0.58151382 8355194
0.0099767791 0.0036756555 0.58220565 8355451
0.011040101 0.0036800336 0.58289915 8355195
0.012105959 0.0036844225 0.58359432 8355451
-0.036305692 0.0047355252 0.58339852 10263708
-0.035074625 0.0047115167 0.58044076 8816262
-0.033964239 0.0047027408 0.57935959 8816262
-0.032873344 0.0046961918 0.57855278 8816262
-0.031804528 0.0046924711 0.57809442 8421505
-0.030737406 0.004688757 0.57763684 8158589
-0.029671973 0.0046850485 0.57717997 8618883
-0.028608223 0.0046813455 0.57672381 8618883
-0.027546154 0.0046776491 0.57626837 8618883
-0.026485763 0.0046739583 0.57581371 8618883
-0.025427042 0.004670273 0.5753597 8618883
-0.024369989 0.0046665939 0.57490641 8618883
-0.023319114 0.0046638227 0.57456505 8750469
-0.022280023 0.0046632607 0.57449579 8618883
-0.021244774 0.004663487 0.57452369 8618883
-0.020208977 0.0046636099 0.57453883 8684676
-0.019173104 0.0046637282 0.57455337 8684676
-0.018137177 0.0046638455 0.57456785 8684676
-0.0171012 0.0046639638 0.5745824 8684676
-0.016065169 0.0046640811 0.57459688 8684676
-0.015029087 0.0046641994 0.57461143 8684676
-0.01399295 0.0046643168 0.57462591 8684676
-0.012956764 0.0046644351 0.57464045 8684676
-0.011920523 0.0046645524 0.57465494 8684676
-0.010886312 0.0046655624 0.57477939 8750469
-0.0098526124 0.0046670269 0.57495981 8684676
-0.0088183749 0.0046685515 0.57514763 8684676
-0.0077834618 0.004670077 0.57533556 8684676
-0.0067478726 0.0046716039 0.57552367 8684676
-0.0057115597 0.004673094 0.57570726 8684676
-0.0046742191 0.0046742191 0.57584584 8750469
-0.0036363986 0.0046753697 0.57598758 8684676
-0.0025986012 0.0046774819 0.57624781 8684676
-0.0015598655 0.004679597 0.57650834 8684676
-0.00052019034 0.0046817129 0.57676905 8684676
0.00052042573 0.0046838317 0.57703006 8684676
0.001561984 0.0046859519 0.57729125 8684676
0.0026044857 0.0046880743 0.57755274 8882055
0.0036488625 0.0046913945 0.5779618 9079434
0.0046949619 0.0046949619 0.57840127 8947848
0.0057444312 0.0046999892 0.57902062 8684676
0.0067969155 0.0047055571 0.57970655 8289659
0.0078518968 0.0047111381 0.58039409 8355194
0.0089093819 0.0047167316 0.58108324 8355451
0.0099693825 0.0047223391 0.58177406 8355451
0.011031907 0.0047279601 0.58246654 8355451
0.012096963 0.0047335941 0.58316064 8355195
0.013164562 0.0047392426 0.58385646 6321012
-0.036163334 0.0057651694 0.58111095 8684675
-0.03504964 0.0057544182 0.58002728 8816262
-0.033945352 0.0057445979 0.57903743 8684676
-0.032854393 0.0057364814 0.57821929 8487554
-0.031788394 0.0057323333 0.57780117 8553091
-0.030723933 0.0057281908 0.57738364 8882055
-0.029661009 0.0057240543 0.5769667 8947848
-0.02859962 0.0057199239 0.57655036 8882055
-0.027539762 0.0057157995 0.57613462 8750469
-0.026481429 0.0057116807 0.57571948 8750469
-0.025423022 0.005707209 0.57526875 8750469
-0.024366139 0.005702713 0.57481557 8684676
-0.023312353 0.0056985752 0.57439846 8684676
-0.022276158 0.0056985519 0.57439613 8684676
-0.021240594 0.0056986958 0.57441062 8684676
-0.020204976 0.0056988392 0.5744251 8684676
-0.019169308 0.0056989836 0.57443964 8684676
-0.018133538 0.0056991121 0.57445258 8684676
-0.017097693 0.0056992308 0.57446456 8684676
-0.016061803 0.0056993496 0.57447654 8684676
-0.015025872 0.0056994688 0.57448852 8684676
-0.013989897 0.0056995875 0.5745005 8684676
-0.012953878 0.0056997063 0.57451248 8684676
-0.011917843 0.005699838 0.57452577 8684676
-0.010883769 0.0057010222 0.5746451 8684676
-0.009850435 0.0057028835 0.57483274 8684676
-0.0088164257 0.0057047461 0.57502049 8684676
-0.0077817412 0.0057066102 0.57520837 8684676
-0.0067463531 0.0057084528 0.57539409 8684676
-0.0057098251 0.0057098251 0.57553244 8750469
-0.0046727993 0.0057111988 0.5756709 8750469
-0.0036353702 0.0057127248 0.57582468 8684676
-0.0025978659 0.005715305 0.57608479 8684676
-0.001559424 0.005717888 0.57634515 8684676
-0.00052004302 0.0057204734 0.57660574 8684676
0.00052027829 0.005723061 0.57686657 8684676
0.0015615412 0.005725651 0.57712764 8684676
0.002603747 0.0057282434 0.57738894 8684676
0.0036468972 0.0057308385 0.57765049 8684676
0.0046911701 0.0057336525 0.57793415 8750469
0.0057403594 0.0057403594 0.57861018 8816005
0.0067921146 0.0057471739 0.57929707 8552832
0.0078463694 0.0057540042 0.57998556 8223866
0.0089031337 0.0057608513 0.58067572 8289658
0.0099624163 0.0057677147 0.58136749 8289658
0.011024226 0.0057745948 0.58206099 8289658
0.012088572 0.0057814908 0.5827561 8289658
0.013155234 0.005788303 0.58344275 8355451
-0.03759145 0.0068829414 0.58704364 10197915
-0.03613754 0.0068085222 0.58069646 8816262
-0.035030343 0.0067969323 0.57970798 8618883
-0.03393415 0.0067868298 0.57884634 8158590
-0.032841206 0.0067767566 0.57798719 8487554
-0.031767771 0.0067701805 0.57742631 8947848
-0.030704014 0.0067652916 0.57700932 8947848
-0.029641794 0.0067604091 0.57659292 8947848
-0.028581105 0.0067555341 0.57617712 8947848
-0.027521947 0.0067506665 0.57576197 8947848
-0.026464313 0.0067458055 0.57534736 8947848
-0.025408201 0.006740951 0.57493335 8947848
-0.024353996 0.0067362115 0.57452911 8750469
-0.02330914 0.0067337514 0.5743193 8553090
-0.022271022 0.0067330995 0.57426369 8618883
-0.021235604 0.0067332401 0.57427567 8684676
-0.020200141 0.0067333807 0.57428765 8684676
-0.019164637 0.0067335209 0.57429963 8684676
-0.018129088 0.0067336615 0.57431161 8684676
-0.017093496 0.0067338017 0.57432359 8684676
-0.016057862 0.0067339423 0.57433558 8684676
-0.015022185 0.0067340829 0.57434756 8684676
-0.013986464 0.0067342231 0.57435954 8684676
-0.012950743 0.0067343861 0.57437342 8684676
-0.011915012 0.0067345719 0.57438928 8684676
-0.010881366 0.0067360834 0.5745182 8684676
-0.0098482585 0.0067382823 0.57470572 8684676
-0.0088144774 0.006740483 0.57489341 8684676
-0.0077800201 0.0067426842 0.57508117 8684676
-0.0067443056 0.0067443056 0.57521945 8750469
-0.0057080919 0.006745927 0.57535774 8750469
-0.0046713799 0.0067475489 0.57549608 8750469
-0.003634342 0.0067494926 0.57566184 8684676
-0.0025971311 0.0067525408 0.57592183 8684676
-0.0015589827 0.0067555914 0.57618201 8684676
-0.00051989581 0.0067586452 0.57644248 8684676
0.00052013085 0.0067617013 0.57670313 8684676
0.0015610987 0.0067647612 0.57696408 8684676
0.0026030086 0.0067678224 0.57722521 8684676
0.0036460492 0.0067712343 0.5775162 8684676
0.0046901871 0.0067747147 0.57781303 8684676
0.005736541 0.0067795487 0.57822531 8816262
0.0067875916 0.0067875916 0.5789113 8750468
0.0078411391 0.0067956536 0.5795989 8355453
0.0088971909 0.0068037342 0.58028811 8223866
0.0099557582 0.0068118349 0.58097899 8289658
0.011016849 0.0068199546 0.58167154 8289658
0.012080158 0.0068279151 0.58235049 8355195
0.013145641 0.0068357335 0.58301729 8289659
0.014213568 0.0068435697 0.58368564 6386548
-0.037335563 0.0078877946 0.58304763 8750470
-0.036117855 0.0078517077 0.58038014 7961211
-0.035018772 0.0078400234 0.57951647 7171952
-0.033922955 0.0078283744 0.57865536 8421761
-0.032830387 0.0078167589 0.57779682 8684676
-0.031747177 0.007806683 0.577052 8882055
-0.030684125 0.0078010489 0.57663554 8947848
-0.029622607 0.0077954228 0.57621968 8947848
-0.028562617 0.0077898046 0.57580441 8947848
-0.027504155 0.0077841948 0.57538974 8947848
-0.026447216 0.0077785929 0.57497567 8882055
-0.025397379 0.0077747079 0.57468849 8618883
-0.024349846 0.0077712275 0.57443124 8553090
-0.023308173 0.0077693909 0.57429546 8553090
-0.022268765 0.0077681742 0.57420552 8553090
-0.021230394 0.0077672177 0.57413483 8618883
-0.020195188 0.0077673797 0.57414681 8684676
-0.019159937 0.0077675418 0.57415879 8684676
-0.018124642 0.0077677038 0.57417077 8684676
-0.017089305 0.0077678659 0.57418275 8684676
-0.016053922 0.0077680275 0.57419467 8684676
-0.015018499 0.0077681895 0.57420665 8684676
-0.013983095 0.007768386 0.57422119 8684676
-0.012947667 0.0077686007 0.57423705 8684676
-0.011912183 0.0077688149 0.5742529 8684676
-0.010878962 0.0077706873 0.57439131 8684676
-0.0098460838 0.0077732243 0.57457882 8684676
-0.00881253 0.0077757621 0.5747664 8684676
-0.0077776611 0.0077776611 0.57490677 8750469
-0.0067422586 0.0077795293 0.57504487 8750469
-0.0057063596 0.0077813994 0.57518309 8750469
-0.004669962 0.00778327 0.57532138 8750469
-0.0036333147 0.0077856747 0.57549912 8684676
-0.0025963965 0.0077891895 0.57575893 8684676
-0.0015585416 0.0077927075 0.57601899 8684676
-0.0005197486 0.0077962289 0.57627928 8684676
0.00051998359 0.0077997539 0.57653981 8684676
0.0015606621 0.0078033106 0.57680273 8684676
0.0026024391 0.0078073172 0.57709891 8684676
0.0036452862 0.0078113275 0.57739532 8684676
0.004689205 0.0078153415 0.57769203 8684676
0.0057341978 0.0078193601 0.5779891 8750468
0.0067830752 0.0078266254 0.57852608 8816262
0.0078359144 0.0078359144 0.57921273 8618882
0.0088912565 0.0078452267 0.57990104 8223866
0.0099491104 0.0078545604 0.58059102 8289658
0.011009099 0.0078636417 0.58126229 8355195
0.012071365 0.0078726299 0.58192664 8355195
0.013136063 0.0078816377 0.58259249 8289659
0.014203198 0.0078906659 0.58325982 8289659
0.015563013 0.0080498345 0.59502518 4615282
-0.038893368 0.0090573598 0.59073454 10329501
-0.03721809 0.008911374 0.58121312 6645864
-0.036107827 0.0088961311 0.58021897 6514279
-0.035007205 0.0088824257 0.57932508 8421504
-0.033911768 0.0088692317 0.57846457 8684676
-0.032819577 0.0088560767 0.57760656 8684676
-0.031730622 0.0088429609 0.57675111 8750469
-0.030664258 0.0088354638 0.57626218 8947848
-0.02960344 0.0088290963 0.57584685 8947848
-0.028544152 0.0088227382 0.57543218 8882055
-0.027490567 0.0088177295 0.57510549 8684676
-0.026441341 0.0088137807 0.57484794 8618883
-0.025393052 0.0088098338 0.57459056 8618883
-0.024346897 0.0088063246 0.57436168 8553090
-0.023307208 0.0088049453 0.57427168 8553090
-0.022267843 0.008803566 0.57418174 8553090
-0.021228805 0.0088021876 0.57409185 8553090
-0.020190235 0.0088008717 0.57400602 8618883
-0.019155238 0.0088010551 0.574018 8684676
-0.018120196 0.0088012386 0.57402992 8684676
-0.017085113 0.0088014221 0.5740419 8684676
-0.016049987 0.0088016056 0.57405388 8684676
-0.015014901 0.0088018384 0.57406908 8684676
-0.013979776 0.0088020805 0.57408488 8684676
-0.012944594 0.0088023236 0.57410073 8684676
-0.011909355 0.0088025667 0.57411659 8684676
-0.010876562 0.0088048354 0.57426453 8684676
-0.0098439092 0.0088077085 0.57445192 8684676
-0.0088098925 0.0088098925 0.57459438 8750469
-0.0077753016 0.0088120084 0.57473236 8750469
-0.0067402138 0.0088141263 0.57487047 8750469
-0.0057046278 0.0088162431 0.57500857 8750469
-0.004668545 0.0088183628 0.57514679 8750469
-0.0036322882 0.0088212714 0.57533652 8684676
-0.0025956624 0.0088252518 0.57559615 8684676
-0.0015581008 0.0088292379 0.57585609 8684676
-0.00051960157 0.0088332267 0.57611626 8684676
0.00051984529 0.0088373693 0.57638645 8684676
0.0015603359 0.0088419029 0.57668215 8684676
0.0026018946 0.0088464413 0.57697815 8684676
0.003644523 0.0088509843 0.57727444 8684676
0.0046882234 0.0088555329 0.57757109 8684676
0.0057329959 0.0088600852 0.57786798 8684676
0.0067788442 0.0088646421 0.57816523 8750469
0.0078306971 0.0088747898 0.57882708 8750469
0.0088853296 0.0088853296 0.5795145 8487039
0.0099420352 0.0088955052 0.58017814 8289659
0.011001101 0.0089056529 0.58083999 8289659
0.012062586 0.0089158239 0.58150339 8289659
0.013126498 0.0089260181 0.58216828 8289659
0.014192845 0.0089362357 0.58283466 8289659
0.015261637 0.0089464765 0.58350259 8618624
-0.038371097 0.0099869976 0.582802 7500917
-0.037230622 0.0099631241 0.5814088 7500660
-0.036119968 0.0099460781 0.58041406 8355711
-0.035013102 0.0099290889 0.57942265 8421504
-0.033910014 0.0099121584 0.57843465 8421504
-0.032810684 0.0098952856 0.57745004 8553090
-0.031720195 0.0098800613 0.57656157 8553090
-0.030644419 0.0098685417 0.57588935 8816262
-0.029586798 0.0098622665 0.57552314 8684676
-0.028535869 0.0098578455 0.57526517 8618883
-0.027485881 0.0098534292 0.57500744 8618883
-0.026436834 0.0098490166 0.57474995 8618883
-0.025388727 0.0098446086 0.57449269 8618883
-0.02434589 0.0098419553 0.5743379 8553090
-0.023306241 0.009840413 0.5742479 8553090
-0.022266923 0.0098388726 0.57415801 8553090
-0.021227926 0.0098373322 0.57406807 8553090
-0.020189255 0.0098357918 0.57397819 8553090
-0.019150913 0.0098342523 0.57388836 8618883
-0.018115753 0.0098342663 0.5738892 8684676
-0.017080925 0.0098344721 0.57390118 8684676
-0.016046159 0.0098347422 0.57391697 8684676
-0.015011338 0.0098350141 0.57393283 8684676
-0.013976458 0.0098352851 0.57394862 8684676
-0.012941522 0.0098355561 0.57396448 8684676
-0.011906529 0.0098358281 0.57398033 8684676
-0.010874161 0.0098385271 0.57413781 8684676
-0.0098410044 0.0098410044 0.57428241 8750469
-0.0088072224 0.0098433662 0.57442021 8750469
-0.0077729444 0.0098457299 0.57455814 8750469
-0.0067381696 0.0098480945 0.57469612 8750469
-0.0057028979 0.0098504601 0.57483417 8750469
-0.0046671284 0.0098528266 0.57497227 8750469
-0.0036312621 0.0098562827 0.57517397 8684676
-0.002594929 0.0098607298 0.57543349 8684676
-0.0015576602 0.0098651815 0.57569325 8684676
-0.00051947037 0.0098699369 0.57597077 8684676
0.00051973667 0.0098749967 0.57626605 8684676
0.0015600098 0.0098800622 0.57656163 8684676
0.0026013504 0.0098851323 0.57685751 8684676
0.0036437607 0.0098902071 0.57715368 8684676
0.0046872417 0.0098952875 0.57745016 8684676
0.005731795 0.0099003734 0.57774693 8684676
0.0067774234 0.0099054649 0.57804406 8684675
0.0078254631 0.0099122534 0.57844019 8816261
0.0088789444 0.0099235261 0.57909805 8750212
0.0099348258 0.0099348258 0.57975745 8355709
0.010993116 0.0099461526 0.58041841 8224122
0.012053833 0.0099575147 0.58108145 8289659
0.013116976 0.009968902 0.58174598 8289659
0.014182555 0.0099803163 0.58241206 8289659
0.015250574 0.0099917557 0.58307964 8289659
0.016377922 0.010038081 0.585783 6584185
-0.039797485 0.011143296 0.58834767 10395294
-0.038358033 0.011034503 0.58260357 8224125
-0.037243165 0.011015585 0.58160472 8421504
-0.036132116 0.01099673 0.58060926 8421504
-0.035024859 0.010977941 0.5796172 8421504
-0.033921383 0.010959215 0.57862854 8553090
-0.032821659 0.010940554 0.57764322 8553090
-0.031709731 0.010916465 0.57637137 8553090
-0.030635547 0.010904178 0.57572263 8487297
-0.029581748 0.010898539 0.57542491 8618883
-0.028531002 0.010893655 0.57516706 8618883
-0.027481195 0.010888775 0.57490939 8618883
-0.02643233 0.0108839 0.57465202 8618883
-0.02538481 0.010879204 0.57440406 8553090
-0.024344882 0.0108775 0.57431412 8553090
-0.023305276 0.010875796 0.57422411 8553090
-0.022266001 0.010874094 0.57413423 8553090
-0.021227047 0.01087239 0.57404429 8553090
-0.020188421 0.010870689 0.57395446 8553090
-0.019150119 0.010868986 0.57386458 8553090
-0.018112184 0.010867311 0.57377613 8618883
-0.017077014 0.010867191 0.57376975 8618883
-0.016042447 0.010867463 0.57378417 8618883
-0.015007826 0.010867736 0.5737986 8618883
-0.013973154 0.010868008 0.57381296 8618883
-0.012938451 0.010868299 0.57382828 8618883
-0.011903702 0.010868598 0.57384408 8684676
-0.010870997 0.010870997 0.57397074 8684676
-0.0098380232 0.010873605 0.57410842 8750469
-0.0088045541 0.010876213 0.57424617 8750469
-0.0077705891 0.010878825 0.57438403 8750469
-0.0067361272 0.010881436 0.5745219 8750469
-0.0057011689 0.010884049 0.57465988 8750469
-0.0046657128 0.010886663 0.57479787 8618884
-0.0036302363 0.010890708 0.57501149 8026495
-0.0025941958 0.010895622 0.57527089 8355714
-0.001557288 0.010901015 0.57555568 8684676
-0.00051936193 0.0109066 0.57585055 8684676
0.00051962805 0.010912189 0.57614565 8684676
0.0015596837 0.010917786 0.57644111 8684676
0.0026008065 0.010923387 0.57673687 8684676
0.0036429809 0.010928943 0.57703018 8684676
0.0046861195 0.010934279 0.57731193 8750469
0.0057302779 0.010939621 0.57759398 8750469
0.0067752134 0.010944576 0.57785559 8816262
0.0078207441 0.010949042 0.57809138 8816262
0.0088727809 0.010960495 0.57869607 8816262
0.0099279312 0.010972977 0.57935512 8618882
0.01098549 0.01098549 0.58001578 8289659
0.012045462 0.01099803 0.58067787 8289658
0.013107856 0.011010599 0.58134151 8289659
0.014172682 0.011023196 0.58200663 8289658
0.015238827 0.011035013 0.58263052 8420988
0.016306242 0.011046165 0.58321929 8421244
-0.039490085 0.012110293 0.58380324 8684675
-0.038370982 0.012089488 0.58280027 8421504
-0.037255716 0.012068753 0.5818007 8553090
-0.036135402 0.012045134 0.58066207 8882055
-0.035009041 0.012018029 0.57935542 8882055
-0.033887733 0.011991044 0.57805455 9079434
-0.032774594 0.011965329 0.57681489 8750469
-0.031706311 0.011954838 0.5763092 8421504
-0.030639898 0.011944368 0.57580441 8421504
-0.029576702 0.011934458 0.57532674 8487297
-0.028526135 0.011929111 0.57506895 8618883
-0.02747651 0.011923769 0.5748114 8618883
-0.026427824 0.011918431 0.57455409 8618883
-0.025383759 0.011914825 0.57438028 8553090
-0.024343874 0.01191296 0.57429034 8553090
-0.023304312 0.011911092 0.57420033 8553090
-0.022265078 0.011909228 0.57411045 8553090
-0.02122617 0.011907363 0.57402056 8553090
-0.020187708 0.011905571 0.57393414 8553090
-0.019149709 0.011903873 0.5738523 8553090
-0.018111527 0.01190186 0.57375526 8553090
-0.01707395 0.011900025 0.57366681 8618883
-0.016039567 0.011900324 0.57368124 8618883
-0.015005134 0.011900623 0.57369566 8618883
-0.013970647 0.011900921 0.57371002 8618883
-0.01293611 0.011901221 0.57372445 8618883
-0.011902137 0.011902137 0.57376862 8618883
-0.010869277 0.011904445 0.5738799 8618883
-0.0098360153 0.011906755 0.57399124 8618883
-0.0088023534 0.011909066 0.57410264 8618883
-0.0077682892 0.011911377 0.57421404 8684676
-0.0067340857 0.011914152 0.57434779 8552835
-0.0056994404 0.011917012 0.57448566 7434107
-0.0046642981 0.011919873 0.57462358 6052208
-0.0036292111 0.011924551 0.57484913 4999015
-0.0025936107 0.011930609 0.57514119 5394027
-0.001556963 0.011936717 0.57543558 8618627
-0.00051924482 0.011942632 0.57572073 8750469
0.00051949784 0.01194845 0.57600123 8750469
0.0015592531 0.011954273 0.57628196 8750469
0.0026000228 0.011960104 0.57656306 8750469
0.0036418075 0.011965939 0.57684433 8750469
0.0046846103 0.011971781 0.57712597 8750469
0.0057280385 0.011976807 0.57736826 8816262
0.0067722597 0.01198169 0.57760364 8816262
0.0078173336 0.011986578 0.57783926 8816262
0.0088666435 0.011996048 0.57829577 8882055
0.0099210571 0.012009702 0.57895398 8750469
0.010977873 0.012023385 0.57961363 8552832
0.0120371 0.0120371 0.58027482 8289658
0.013098748 0.012050848 0.58093756 8355194
0.014161437 0.012063446 0.58154488 8420987
0.015225773 0.012075612 0.58213139 8421244
0.016292257 0.012087804 0.58271909 8421244
0.017367113 0.012104352 0.58351684 8487293
-0.039482482 0.013160828 0.58369082 8882055
-0.038342685 0.013131057 0.58237046 9079434
-0.037208036 0.013101421 0.58105612 9079434
-0.036078494 0.013071918 0.57974762 9079434
-0.034954026 0.013042547 0.57844502 9079434
-0.033849575 0.013019067 0.57740366 8553090
-0.032779258 0.013007643 0.57689697 8421504
-0.031710818 0.012996238 0.57639116 8421504
-0.030644251 0.012984851 0.57588619 8421504
-0.029579548 0.012973486 0.57538211 8421504
-0.028521271 0.012964214 0.5749709 8553090
-0.027471829 0.01295841 0.57471347 8618883
-0.026423324 0.012952609 0.57445621 8553090
-0.025382707 0.012950361 0.5743565 8553090
-0.024342867 0.012948333 0.57426655 8553090
-0.023303349 0.012946305 0.57417661 8553090
-0.02226432 0.012944372 0.5740909 8553090
-0.021225743 0.012942526 0.574009 8553090
-0.02018746 0.012940679 0.5739271 8553090
-0.019149341 0.012938743 0.57384127 8553090
-0.018110866 0.012936333 0.57373434 8553090
-0.017072778 0.012933923 0.57362747 8553090
-0.016036691 0.012932816 0.57357836 8618883
-0.015002442 0.01293314 0.57359272 8618883
-0.013968142 0.012933465 0.57360715 8618883
-0.012933789 0.012933789 0.57362151 8618883
-0.011900914 0.012935776 0.57370967 8618883
-0.01086816 0.012938285 0.57382095 8618883
-0.0098350048 0.012940796 0.57393229 8618883
-0.0088014482 0.012943307 0.57404363 8487298
-0.007767491 0.012945819 0.57415503 7368313
-0.0067331325 0.012948331 0.57426649 5986158
-0.0056983717 0.012950845 0.57437795 4275041
-0.0046631298 0.012953139 0.5744797 2234963
-0.0036282472 0.012958026 0.57469642 984137
-0.0025928654 0.012964327 0.57497591 1905744
-0.0015564762 0.012970636 0.57525569 6183793
-0.00051907799 0.012976949 0.57553571 8750469
0.00051933079 0.01298327 0.57581604 8750469
0.0015587517 0.012989597 0.57609665 8750469
0.002599186 0.01299593 0.57637751 8750469
0.0036405616 0.013002006 0.57664698 8816262
0.004682628 0.0130073 0.57688177 8816262
0.005725543 0.013012597 0.57711673 8816262
0.0067693084 0.0130179 0.57735193 8816262
0.0078139249 0.013023208 0.57758731 8816262
0.0088605154 0.01303017 0.57789606 8882055
0.0099141914 0.013044989 0.57855332 8882055
0.010970268 0.013059843 0.57921213 8750468
0.012028752 0.013074731 0.57987237 8487038
0.013088053 0.013088053 0.58046323 8355451
0.014149328 0.013101229 0.58104759 8421243
0.01521274 0.013114431 0.58163309 8421243
0.016278299 0.01312766 0.58221984 8421244
0.017350288 0.013144157 0.58295149 8355707
0.018429937 0.013164241 0.58384222 6386805
-0.040690798 0.014268202 0.58592921 10066329
-0.039432801 0.014195809 0.58295637 8750469
-0.038282126 0.014159142 0.58145064 9079434
-0.0371494 0.014127236 0.58014041 9079434
-0.036021762 0.014095472 0.57883602 8882055
-0.034926753 0.014074961 0.57799369 8553090
-0.033854395 0.014062596 0.57748592 8421504
-0.032783926 0.014050254 0.5769791 8421504
-0.03171533 0.014037932 0.57647312 8421504
-0.030648606 0.014025633 0.57596803 8421504
-0.029583748 0.014013355 0.57546383 8421504
-0.028520754 0.014001098 0.57496047 8487297
-0.027467148 0.013992698 0.57461554 8618883
-0.026421782 0.013988002 0.57442272 8553090
-0.025381656 0.013985811 0.57433271 8553090
-0.024342068 0.01398374 0.57424772 8553090
-0.023302909 0.013981745 0.57416576 8553090
-0.022264048 0.013979751 0.57408386 8553090
-0.021225482 0.013977757 0.57400197 8553090
-0.020187214 0.013975764 0.57392013 8553090
-0.019148644 0.013973336 0.57382041 8553090
-0.018110208 0.013970732 0.57371348 8553090
-0.017072158 0.013968129 0.57360661 8553090
-0.016034493 0.013965527 0.57349974 8553090
-0.014999751 0.013965285 0.57348984 8618883
-0.013965636 0.013965636 0.57350427 8618883
-0.012931941 0.013966496 0.57353956 8618883
-0.011899693 0.013969204 0.57365078 8618883
-0.010867043 0.013971913 0.573762 8487298
-0.0098339934 0.013974623 0.57387328 7434362
-0.0088005438 0.013977334 0.57398462 6052207
-0.0077666421 0.013979956 0.57409227 4472419
-0.0067322003 0.013982262 0.57418698 2432339
-0.0056974166 0.013984568 0.57428169 852551
-0.0046622921 0.013986876 0.57437646 787015
-0.0036270833 0.013990178 0.57451206 787016
-0.0025920335 0.013996981 0.57479143 852808
-0.0015559765 0.014003788 0.57507098 2563925
-0.00051891129 0.014010604 0.57535088 8421506
0.00051916396 0.014017426 0.57563102 8750469
0.0015582506 0.014024256 0.57591146 8750469
0.0025982128 0.014030349 0.57616168 8816262
0.0036389774 0.014036056 0.57639605 8816262
0.0046805898 0.014041768 0.57663065 8816262
0.0057230499 0.014047486 0.57686543 8816262
0.0067663593 0.014053208 0.5771004 8816262
0.0078105195 0.014058935 0.5773356 8816262
0.0088555301 0.014064665 0.57757092 8816262
0.009907336 0.014078846 0.57815325 8882055
0.010962551 0.014094708 0.57880461 8882055
0.012018655 0.014108856 0.57938564 8750211
0.013076882 0.014123033 0.5799678 8420987
0.014137238 0.014137238 0.58055115 8355707
0.01519973 0.014151473 0.58113569 8355708
0.016264362 0.014165735 0.58172137 8355708
0.017333494 0.01418195 0.58238727 8355708
0.01841207 0.014203598 0.58327621 8684418
0.019497115 0.014227625 0.58426291 4681332
-0.040744837 0.015345458 0.58670735 9211020
-0.039484907 0.015267497 0.58372664 8421504
-0.038237713 0.015190325 0.5807761 8684676
-0.037090946 0.015149822 0.57922757 8750469
-0.036006138 0.015133014 0.57858491 8421504
-0.034931734 0.015119706 0.57807612 8421504
-0.033859223 0.015106422 0.57756823 8421504
-0.03278859 0.01509316 0.57706118 8421504
-0.031719837 0.015079923 0.57655507 8421504
-0.030652959 0.015066709 0.57604986 8421504
-0.029587947 0.015053517 0.57554549 8421504
-0.028524801 0.01504035 0.57504207 8421504
-0.027463512 0.015027205 0.57453948 8487297
-0.026420949 0.015023677 0.5744046 8553090
-0.025381211 0.015021533 0.57432264 8553090
-0.02434177 0.01501939 0.57424068 8553090
-0.023302622 0.015017246 0.57415873 8553090
-0.022263775 0.015015104 0.57407683 8553090
-0.021225221 0.015012962 0.57399493 8553090
-0.020186733 0.015010648 0.57390648 8553090
-0.019147949 0.015007852 0.57379955 8553090
-0.018109549 0.015005055 0.57369262 8553090
-0.017071538 0.01500226 0.57358575 8553090
-0.01603391 0.014999464 0.57347888 8553090
-0.014997062 0.014997062 0.57338703 8553090
-0.013963133 0.014997439 0.57340145 8618883
-0.012930613 0.014999511 0.57348067 8487298
-0.01189847 0.015002418 0.57359183 7565690
-0.010865927 0.015005328 0.57370305 6183792
-0.0098327361 0.015007861 0.57379991 4604004
-0.0087991627 0.015010336 0.57389456 2563925
-0.007765247 0.015012811 0.57398915 852551
-0.006730991 0.015015288 0.57408386 787015
-0.0056963935 0.015017765 0.57417858 786759
-0.0046614544 0.015020242 0.57427329 720966
-0.0036261741 0.015022721 0.57436806 720966
-0.0025912018 0.015028971 0.57460701 786759
-0.0015554772 0.015036279 0.57488644 1444940
-0.0005187447 0.015043596 0.57516617 4867431
0.0005189947 0.015050846 0.57544339 8684676
0.0015576166 0.015056961 0.57567716 8816262
0.0025970829 0.015063081 0.57591116 8816262
0.0036373951 0.015069208 0.57614541 8816262
0.004678553 0.015075338 0.57637978 8816262
0.005720559 0.015081474 0.57661438 8816262
0.0067634131 0.015087613 0.5768491 8816262
0.0078071165 0.015093759 0.57708406 8816262
0.0088516707 0.015099909 0.5773192 8816262
0.0099001378 0.015110736 0.57773316 8882055
0.01095322 0.015125875 0.57831198 9013641
0.012008416 0.015141048 0.57889205 8882054
0.01306573 0.015156247 0.5794732 8552831
0.014125171 0.015171479 0.58005559 8355452
0.015186741 0.015186741 0.58063906 8355708
0.01625045 0.015202034 0.58122379 8421244
0.017316733 0.015217735 0.58182406 8420988
0.018394239 0.015240941 0.58271134 8684418
0.019478694 0.015267083 0.58371085 8947848
-0.040799022 0.01642558 0.58748758 8421504
-0.03953715 0.016342022 0.584499 8487297
-0.038257536 0.01624635 0.58107716 8684676
-0.037093081 0.016195571 0.57926095 8421504
-0.036016829 0.016181475 0.57875675 8421504
-0.034942448 0.0161674 0.57825339 8421504
-0.033869933 0.016153352 0.57775092 8421504
-0.032799281 0.016139328 0.57724935 8421504
-0.031730484 0.016125329 0.57674861 8421504
-0.030663544 0.016111353 0.57624876 8421504
-0.029598363 0.016097356 0.57574809 8487297
-0.028529597 0.016080318 0.57513875 8487297
-0.027470296 0.016067531 0.5746814 8421504
-0.026420625 0.016059596 0.57439756 8487297
-0.0253809 0.016057305 0.57431561 8553090
-0.024341471 0.016055012 0.57423365 8553090
-0.023302337 0.016052721 0.57415169 8553090
-0.022263503 0.016050432 0.5740698 8553090
-0.021224963 0.016048143 0.5739879 8553090
-0.020186 0.016045282 0.57388562 8553090
-0.019147251 0.01604229 0.57377863 8553090
-0.018108889 0.016039303 0.57367176 8553090
-0.017070916 0.016036315 0.57356489 8553090
-0.016033329 0.016033329 0.57345808 8553090
-0.014996126 0.016030341 0.57335126 8421505
-0.013960922 0.016029207 0.57331067 7565690
-0.012929097 0.016032081 0.57341343 6315377
-0.011896729 0.016034722 0.57350791 4735845
-0.010864021 0.016037365 0.57360244 2695510
-0.0098309722 0.016040009 0.57369697 852551
-0.0087975841 0.016042652 0.57379156 787015
-0.0077638533 0.016045297 0.57388616 786759
-0.006729783 0.016047943 0.57398081 720966
-0.0056953705 0.01605059 0.57407546 720966
-0.0046606176 0.016053239 0.57417017 720966
-0.0036255226 0.016055886 0.57426488 720966
-0.0025903711 0.0160603 0.57442278 720967
-0.0015549782 0.016068108 0.57470202 786759
-0.00051855884 0.016075324 0.57496011 2169171
0.00051876938 0.016081849 0.57519352 7039352
0.0015569401 0.016088381 0.57542711 8816262
0.0025959546 0.016094919 0.57566094 8816262
0.0036358137 0.016101461 0.57589495 8816262
0.004676511 0.016107982 0.57612818 8816262
0.0057180473 0.016114496 0.57636118 8816262
0.0067604259 0.016121015 0.57659435 8816262
0.0078036492 0.016127542 0.57682776 8816262
0.0088480869 0.016134746 0.57708544 8684676
0.0098965131 0.016146943 0.57752168 8618883
0.010946526 0.016159158 0.57795858 8618883
0.011998194 0.01617148 0.57839924 8750469
0.013054597 0.0161877 0.57897943 8750211
0.014113123 0.016203955 0.57956082 8355452
0.015173774 0.016220242 0.58014333 8420988
0.016236562 0.016236562 0.58072704 8421244
0.017301491 0.016252914 0.58131194 8421244
0.018376887 0.016276671 0.58216161 8684418
0.019460306 0.01630458 0.58315986 8947848
0.020547446 0.016332585 0.58416146 8947848
-0.040814713 0.017492021 0.58771354 8684676
-0.039495017 0.017377807 0.58387613 8750469
-0.038192447 0.01726508 0.58008856 8553090
-0.037107784 0.01724728 0.57949054 8421504
-0.036031093 0.017232262 0.57898593 8421504
-0.034956269 0.017217267 0.57848215 8421504
-0.033883322 0.017202303 0.57797933 8421504
-0.032812234 0.017187361 0.57747734 8421504
-0.031740952 0.017171334 0.57693887 8487297
-0.030667707 0.017153125 0.57632703 8553090
-0.029596739 0.017134953 0.5757165 8553090
-0.028533822 0.017120294 0.57522392 8421504
-0.027478216 0.017109077 0.5748471 8421504
-0.026423994 0.017097879 0.57447082 8421504
-0.025380589 0.017093049 0.57430857 8553090
-0.024341173 0.017090611 0.57422662 8553090
-0.023302054 0.017088173 0.57414472 8553090
-0.022263229 0.017085735 0.57406276 8553090
-0.021224363 0.017083023 0.57397169 8553090
-0.020185264 0.017079839 0.5738647 8553090
-0.019146554 0.017076656 0.57375777 8553090
-0.018108232 0.017073475 0.5736509 8553090
-0.017070295 0.017070295 0.57354403 8553090
-0.016032746 0.017067116 0.57343721 8289920
-0.014995657 0.017064024 0.57333332 6578803
-0.013959972 0.017062187 0.57327163 4867429
-0.012927913 0.017064845 0.57336092 2958678
-0.011895534 0.017067505 0.57345027 984391
-0.010862831 0.017070163 0.57353961 787014
-0.009829808 0.017072825 0.57362902 786758
-0.0087964619 0.017075486 0.57371843 720965
-0.0077627939 0.017078146 0.57380784 720965
-0.0067288037 0.01708081 0.5738973 720965
-0.0056944913 0.017083474 0.57398683 720965
-0.0046598562 0.017086139 0.57407635 720965
-0.0036248977 0.017088803 0.57416588 720965
-0.0025896211 0.0170915 0.57425648 720966
-0.0015543683 0.017098051 0.5744766 786760
-0.00051833165 0.017104944 0.57470822 1115723
0.00051854079 0.017111845 0.57494009 3551069
0.0015562502 0.017118752 0.57517213 8618885
0.0025947976 0.017125664 0.57540441 8816262
0.0036341841 0.017132582 0.5756368 8816262
0.0046744109 0.017139506 0.57586944 8816262
0.0057154777 0.017146433 0.5761022 8816262
0.0067573874 0.017153367 0.57633519 8816262
0.00780014 0.017160308 0.57656837 8684676
0.008846595 0.017172802 0.57698816 8618883
0.0098948441 0.017185783 0.57742429 8618883
0.010944678 0.017198781 0.57786101 8618883
0.011996103 0.0172118 0.57829845 8618883
0.01304912 0.017224839 0.57873654 8487297
0.014103734 0.017237898 0.57917529 8224123
0.015160831 0.01725198 0.57964844 8158072
0.016222699 0.017269325 0.58023119 8420988
