# .PCD v0.7 - Point Cloud Data file format
VERSION 0.7
FIELDS x y z rgb
SIZE 4 4 4 4
TYPE F F F U
COUNT 1 1 1 1
WIDTH 1163
HEIGHT 1
VIEWPOINT 0 0 0 1 0 0 0
POINTS 1163
DATA ascii
-0.1136601 0.057841264 0.44847828 8355450
-0.11301092 0.05792316 0.44911328 8157815
-0.11242189 0.058037296 0.44999823 8092023
-0.11183055 0.058151882 0.4508867 8157816
-0.11119859 0.058246881 0.45162326 8420731
-0.11052459 0.058321092 0.45219868 8486781
-0.10984888 0.058395498 0.4527756 8486781
-0.10917144 0.058470093 0.45335397 8486780
-0.10849226 0.058544878 0.45393384 8487037
-0.10993438 0.059774209 0.46346557 9145227
-0.11022772 0.060392965 0.46826315 7697781
-0.16459927 0.059223063 0.45285851 7237230
-0.16165443 0.058453597 0.44697466 8421504
-0.16062236 0.058371533 0.44634715 8421504
-0.15959057 0.058288746 0.44571412 8421504
-0.15856172 0.058206201 0.4450829 8421504
-0.15753578 0.058123887 0.44445348 6579300
-0.15651272 0.0580418 0.44382581 2236962
-0.15549256 0.057959951 0.44319993 328965
-0.15447532 0.057878353 0.44257596 0
-0.1534666 0.057799108 0.44197002 0
-0.15246063 0.057720084 0.44136575 0
-0.15145741 0.057641275 0.44076312 0
-0.15060011 0.057617456 0.44058099 0
-0.1497584 0.057599384 0.4404428 0
-0.14891721 0.05758132 0.44030467 0
-0.14807786 0.057563778 0.44017053 0
-0.14723915 0.057546299 0.44003686 0
-0.14640094 0.057528824 0.43990326 0
-0.14556326 0.057511371 0.43976977 0
-0.14472607 0.057493921 0.43963635 0
-0.1438894 0.057476483 0.43950301 0
-0.14305323 0.057459056 0.43936977 0
-0.14221758 0.057441641 0.43923658 0
-0.14138243 0.057424232 0.43910348 0
-0.14054778 0.057406839 0.43897048 0
-0.13973147 0.057396777 0.43889353 0
-0.13893615 0.057395272 0.43888202 0
-0.13814086 0.057393763 0.43887049 0
-0.13734561 0.057392258 0.43885899 0
-0.13657407 0.057400696 0.43892351 0
-0.13582636 0.057419311 0.43906584 0
-0.13507818 0.057437938 0.43920827 0
-0.13432951 0.057456579 0.43935081 0
-0.13358036 0.057475228 0.43949342 0
-0.13283072 0.057493892 0.43963614 0
-0.13208058 0.057512566 0.43977892 0
-0.13133992 0.057535615 0.43995517 0
-0.13062654 0.057570972 0.44022554 0
-0.12991229 0.057606369 0.44049621 0
-0.12919717 0.057641812 0.44076723 0
-0.12848115 0.057677299 0.44103858 460551
-0.12776425 0.057712827 0.44131026 1776159
-0.12704648 0.057748403 0.44158229 4276044
-0.12632783 0.057784021 0.44185466 8618884
-0.12560828 0.057819683 0.44212735 8750469
-0.12489796 0.05786008 0.44243625 8684676
-0.1241868 0.057900596 0.44274607 8684676
-0.12347463 0.057941169 0.44305632 8684676
-0.12276102 0.057981592 0.4433654 8684676
-0.12204638 0.058022048 0.44367477 8684676
-0.12133075 0.058062572 0.44398463 8684676
-0.12061411 0.058103144 0.44429487 8816262
-0.11992218 0.058156241 0.4447009 8947848
-0.11924247 0.058216024 0.44515803 8947848
-0.11856138 0.058275931 0.44561613 8947848
-0.11787887 0.05833596 0.44607514 8947848
-0.11719497 0.058396116 0.44653514 8947848
-0.11650964 0.058456395 0.44699606 8947848
-0.1158229 0.058516797 0.44745794 8882055
-0.11513474 0.058577325 0.44792077 8618882
-0.11444515 0.058637977 0.44838455 8289657
-0.11381596 0.058730658 0.44909325 8092022
-0.11322855 0.058846381 0.44997814 8092279
-0.11261527 0.058950234 0.45077229 8355195
-0.11194436 0.059025206 0.45134556 8486781
-0.11127172 0.059100367 0.4519203 8486781
-0.11059738 0.059175719 0.4524965 8486781
-0.10992131 0.059251264 0.45307416 8486780
-0.10924351 0.059327003 0.45365331 8486781
-0.10856398 0.059402931 0.45423391 8881797
-0.10977854 0.060524289 0.46280855 9145227
-0.11008719 0.061159551 0.46766618 9013641
-0.16483259 0.060125042 0.45350045 7237230
-0.16188431 0.059344124 0.44761029 8421504
-0.16085562 0.0592626 0.44699538 8421504
-0.15982977 0.059181299 0.44638216 8421504
-0.15880671 0.059100222 0.44577062 8421504
-0.15778646 0.059019364 0.44516075 8355711
-0.15676899 0.058938727 0.44455254 4342338
-0.15574718 0.058855616 0.44392565 921102
-0.15472786 0.058772601 0.4432995 65793
-0.15371142 0.058689814 0.44267508 0
-0.15270028 0.0586082 0.44205949 0
-0.15169515 0.058528051 0.44145495 0
-0.1508172 0.058496382 0.44121608 0
-0.1499745 0.058478117 0.44107834 0
-0.14913347 0.058460321 0.44094411 0
-0.14829297 0.05844254 0.44080999 0
-0.147453 0.058424767 0.44067594 0
-0.14661349 0.058407005 0.44054195 0
-0.14577454 0.058389254 0.44040808 0
-0.14493607 0.058371514 0.44027427 0
-0.14409812 0.058353785 0.44014055 0
-0.14326069 0.058336068 0.44000691 0
-0.14242375 0.058318358 0.43987334 0
-0.14158732 0.058300663 0.43973985 0
-0.14075141 0.058282975 0.43960646 0
-0.13991599 0.058265299 0.43947312 0
-0.13911307 0.058261033 0.43944094 0
-0.13831678 0.058259502 0.4394294 0
-0.13752069 0.058258042 0.43941838 0
-0.13677244 0.058276955 0.43956104 0
-0.13602373 0.05829588 0.43970379 0
-0.13527451 0.058314819 0.43984663 0
-0.13452481 0.058333769 0.43998957 0
-0.13377464 0.058352735 0.44013262 0
-0.13302396 0.058371708 0.44027573 0
-0.13227281 0.058390699 0.44041896 0
-0.13152117 0.058409698 0.44056228 0
-0.13076901 0.058428708 0.44070566 0
-0.13004389 0.058460098 0.44094241 0
-0.12932812 0.058496099 0.44121397 0
-0.12861146 0.058532149 0.44148588 394758
-0.12789391 0.058568239 0.4417581 1578779
-0.12718445 0.05860851 0.44206184 3617858
-0.12647548 0.058649518 0.44237113 7895162
-0.12576553 0.058690581 0.44268087 8684676
-0.12505457 0.058731701 0.44299102 8684676
-0.12434259 0.058772866 0.4433015 8684676
-0.12362916 0.058813874 0.44361082 8684676
-0.12291474 0.058854938 0.44392055 8684676
-0.12219931 0.058896061 0.44423074 8684676
-0.12148289 0.05893724 0.44454134 8684676
-0.12076546 0.058978479 0.44485238 8684676
-0.12004703 0.059019774 0.44516385 8684676
-0.1193404 0.059067469 0.44552359 8816262
-0.11865883 0.059128303 0.44598243 8947848
-0.11797588 0.05918926 0.44644222 8947848
-0.1172915 0.059250344 0.44690293 8947848
-0.11660571 0.059311554 0.44736463 8947848
-0.11591849 0.059372887 0.44782725 8882055
-0.11522987 0.059434354 0.44829085 8553088
-0.11462093 0.059538081 0.44907323 8158330
-0.11402664 0.059650946 0.44992453 8223866
-0.11335877 0.059726663 0.45049563 8421244
-0.1126892 0.059802577 0.45106822 8486781
-0.11201794 0.059878681 0.45164225 8486781
-0.11134496 0.059954979 0.45221773 8486781
-0.11067026 0.06003147 0.45279467 8421244
-0.10999384 0.060108159 0.4533731 8486781
-0.10931569 0.060185045 0.45395303 8421245
-0.10987759 0.060950965 0.45973009 9079433
-0.10962314 0.061272249 0.4621534 9211020
-0.10994703 0.061924186 0.46707073 9013641
-0.16318403 0.060634468 0.45120403 8421504
-0.1610844 0.060154323 0.44763109 8421504
-0.16005675 0.060071681 0.44701612 8421504
-0.15903194 0.059989262 0.44640282 8421504
-0.15800993 0.059907071 0.44579121 8355711
-0.15699072 0.059825111 0.44518131 5526612
-0.1559743 0.059743371 0.44457304 1776411
-0.15496065 0.059661854 0.44396645 197379
-0.15394977 0.059580557 0.44336149 0
-0.15294163 0.059499484 0.4427582 0
-0.15193449 0.059417952 0.44215149 0
-0.15103564 0.059378128 0.44185513 0
-0.15019281 0.059360024 0.44172043 0
-0.14935052 0.059341937 0.44158584 0
-0.14850873 0.059323862 0.44145131 0
-0.14766745 0.059305795 0.44131687 0
-0.14682667 0.059287734 0.44118249 0
-0.14598642 0.059269693 0.44104823 0
-0.14514668 0.059251659 0.44091403 0
-0.14430745 0.059233636 0.44077992 0
-0.14346874 0.059215628 0.4406459 0
-0.14263052 0.059197623 0.44051194 0
-0.14179282 0.059179634 0.44037807 0
-0.14095563 0.059161656 0.44024429 0
-0.14011893 0.059143685 0.44011056 0
-0.13929047 0.059129003 0.44000131 0
-0.13849315 0.059127446 0.43998972 0
-0.13772064 0.059136532 0.44005734 0
-0.1369714 0.059155762 0.44020042 0
-0.13622165 0.059175 0.44034359 0
-0.1354714 0.059194252 0.44048685 0
-0.13472068 0.059213515 0.4406302 0
-0.13396947 0.059232794 0.44077364 0
-0.13321777 0.059252083 0.44091719 0
-0.13246559 0.059271388 0.44106084 0
-0.1317129 0.0592907 0.44120455 0
-0.13095972 0.059310026 0.44134837 0
-0.13020515 0.059328955 0.44148922 0
-0.12946709 0.05935568 0.44168809 0
-0.12876031 0.059397172 0.44199684 263172
-0.12805255 0.059438724 0.44230604 1250069
-0.1273438 0.059480332 0.44261569 2894391
-0.12663406 0.059522003 0.44292575 7105648
-0.12592332 0.05956373 0.44323626 8684676
-0.12521148 0.059605464 0.44354683 8684676
-0.12449827 0.05964708 0.44385651 8684676
-0.12378404 0.059688747 0.44416657 8684676
-0.12306884 0.059730478 0.44447711 8684676
-0.12235262 0.059772268 0.44478807 8684676
-0.12163541 0.05981411 0.44509944 8684676
-0.12091718 0.059856012 0.44541126 8684676
-0.12019795 0.059897978 0.44572353 8684676
-0.11947772 0.059940003 0.44603625 8684676
-0.11875647 0.05998208 0.44634938 8816262
-0.11807302 0.060043961 0.44680986 8947848
-0.11738819 0.060105979 0.44727135 8947848
-0.11670193 0.060168125 0.44773379 8947848
-0.11601426 0.0602304 0.44819722 8684419
-0.11542583 0.06034543 0.4490532 8618882
-0.11476786 0.060425486 0.44964892 8487294
-0.11410135 0.060502138 0.45021933 8421244
-0.11343314 0.060578991 0.45079121 8421244
-0.11276323 0.060656033 0.45136452 8486781
-0.11209161 0.060733274 0.45193928 8487037
-0.11141828 0.060810711 0.45251554 8486781
-0.11074324 0.06088835 0.45309326 8421501
-0.11006647 0.060966186 0.45367247 8421501
-0.10938796 0.061044216 0.45425314 8684417
-0.10975274 0.061710026 0.45920768 9276813
-0.10947372 0.062021233 0.46152347 9211020
-0.10980722 0.062686875 0.4664768 9013641
-0.16341451 0.061535139 0.45184129 8421504
-0.1613138 0.061048582 0.44826859 8421504
-0.16028439 0.060964592 0.44765186 8421504
-0.1592578 0.060880832 0.44703683 8421504
-0.15823404 0.060797304 0.4464235 8421504
-0.15721308 0.060714003 0.44581184 6645093
-0.15619493 0.060630932 0.44520187 2434341
-0.15517953 0.060548086 0.44459355 328965
-0.15416907 0.060466308 0.44399306 0
-0.15317565 0.060390402 0.4434357 0
-0.15218475 0.060314693 0.44287977 0
-0.15123467 0.060254447 0.44243741 0
-0.15039296 0.060236968 0.44230905 0
-0.14955173 0.0602195 0.44218078 0
-0.148711 0.06020204 0.44205257 0
-0.14787073 0.060184587 0.44192442 0
-0.14703096 0.060167145 0.44179636 0
-0.1461917 0.060149718 0.44166839 0
-0.1453529 0.060132299 0.44154048 0
-0.14451459 0.060114887 0.44141263 0
-0.14367677 0.060097486 0.44128487 0
-0.14283788 0.060079444 0.44115239 0
-0.1419989 0.06006116 0.44101813 0
-0.14116043 0.060042888 0.44088396 0
-0.14032246 0.060024623 0.44074985 0
-0.13948502 0.060006376 0.44061586 0
-0.138671 0.059998054 0.44055477 0
-0.1379212 0.060017582 0.44069815 0
-0.13717091 0.060037125 0.44084165 0
-0.13642015 0.060056679 0.44098523 0
-0.13566652 0.060075205 0.44112125 0
-0.13491145 0.060093299 0.44125411 0
-0.1341559 0.0601114 0.44138703 0
-0.1333999 0.060129508 0.44152001 0
-0.13264345 0.060147632 0.44165307 0
-0.13188654 0.060165767 0.44178623 0
-0.13112919 0.060183913 0.44191948 0
-0.13037138 0.06020207 0.44205281 0
-0.12962915 0.060227696 0.44224098 0
-0.1289216 0.060269851 0.44255051 197379
-0.12821308 0.06031207 0.44286051 855310
-0.12750354 0.060354341 0.44317091 2499887
-0.12679303 0.060396679 0.44348177 6250085
-0.12608133 0.060438991 0.44379246 8684676
-0.12536833 0.060481209 0.44410247 8684676
-0.12465433 0.060523484 0.44441289 8684676
-0.12393933 0.060565818 0.44472376 8684676
-0.12322332 0.060608212 0.44503504 8684676
-0.12250632 0.060650673 0.4453468 8684676
-0.12178831 0.060693182 0.44565895 8684676
-0.12106929 0.060735758 0.44597158 8684676
-0.12034927 0.060778391 0.44628462 8684676
-0.11962823 0.060821082 0.44659811 8684676
-0.11890618 0.060863838 0.44691205 8684676
-0.1181831 0.060906649 0.44722641 8816262
-0.11748504 0.060963027 0.44764039 8947848
-0.11681094 0.061032705 0.44815201 8882055
-0.11617168 0.061121684 0.44880536 8882055
-0.1155082 0.06119908 0.44937366 8750468
-0.11484302 0.061276667 0.44994336 8421244
-0.11417616 0.061354451 0.45051453 8421244
-0.11350761 0.061432436 0.45108715 8486780
-0.11283736 0.061510619 0.45166123 8486781
-0.11216539 0.061588995 0.45223674 8486781
-0.11149172 0.06166758 0.45281377 8421244
-0.11081631 0.061746359 0.45339224 8487037
-0.11013918 0.061825342 0.45397219 8487037
-0.1099047 0.062155843 0.45639899 8881797
-0.10962816 0.062467366 0.45868647 9276813
-0.10934883 0.062782027 0.46099699 9211020
-0.10966776 0.063447632 0.46588436 9013641
-0.10977527 0.064000249 0.46994215 9605778
-0.16364563 0.062438358 0.45248035 8421504
-0.16154388 0.061945394 0.44890791 8421504
-0.16051267 0.061860047 0.44828942 8421504
-0.15948433 0.061774939 0.44767267 8421504
-0.15845878 0.061690062 0.44705757 8421504
-0.15743607 0.06160542 0.44644418 7763574
-0.15643246 0.061527424 0.44587895 3092271
-0.155432 0.061449859 0.44531685 460551
-0.15443404 0.061372485 0.44475615 0
-0.1534386 0.061295312 0.44419688 0
-0.15244566 0.061218336 0.44363904 514
-0.15145521 0.061141547 0.44308257 2827
-0.15058665 0.061113413 0.44287869 2571
-0.14974429 0.06109567 0.4427501 2827
-0.1489024 0.06107793 0.44262156 2827
-0.14806101 0.061060201 0.44249308 2828
-0.14722012 0.061042488 0.44236469 2828
-0.14637969 0.061024778 0.44223636 2828
-0.14553978 0.061007082 0.44210812 2828
-0.14470033 0.060989399 0.44197997 3084
-0.14386138 0.060971722 0.44185188 3084
-0.14302291 0.060954057 0.44172385 3085
-0.14218494 0.060936403 0.44159591 3085
-0.14134744 0.060918756 0.44146803 3085
-0.14051042 0.06090112 0.44134024 3085
-0.13967842 0.060885463 0.44122678 3084
-0.13886686 0.060878593 0.44117698 2828
-0.13810727 0.06089456 0.4412927 3085
-0.13735019 0.060911819 0.44141778 3342
-0.1365951 0.060930174 0.44155079 3599
-0.13583955 0.06094854 0.44168389 3856
-0.13508357 0.06096692 0.44181708 4113
-0.13432711 0.060985308 0.44195032 2571
-0.13357021 0.061003707 0.44208366 514
-0.13281284 0.061022118 0.44221708 0
-0.13205501 0.061040536 0.44235057 0
-0.13129674 0.061058968 0.44248414 0
-0.130538 0.061077412 0.4426178 0
-0.12979162 0.061101902 0.44279528 0
-0.12908331 0.061144721 0.44310558 131586
-0.128374 0.061187606 0.44341636 657930
-0.12766369 0.061230544 0.44372752 2170920
-0.12695216 0.061273437 0.44403836 5394522
-0.12623936 0.061316259 0.44434869 8684676
-0.12552558 0.061359145 0.44465947 8684676
-0.12481078 0.061402086 0.44497067 8684676
-0.12409499 0.061445091 0.44528231 8684676
-0.12337819 0.061488159 0.4455944 8684676
-0.12266041 0.061531287 0.44590694 8684676
-0.1219416 0.06157447 0.44621989 8684676
-0.12122178 0.061617717 0.44653329 8684676
-0.12050095 0.06166102 0.44684711 8684676
-0.11977911 0.06170439 0.44716141 8684676
-0.11905625 0.061747819 0.44747612 8684676
-0.11832833 0.0617892 0.44777599 8750469
-0.11759761 0.061829671 0.4480693 8750469
-0.11692259 0.061900198 0.44858038 8882055
-0.11625848 0.061977517 0.4491407 8881798
-0.1155927 0.062055029 0.44970241 8552832
-0.11492525 0.062132731 0.45026553 8289658
-0.11425614 0.062210634 0.45083007 8420987
-0.11358533 0.062288731 0.45139602 8420987
-0.11291285 0.062367022 0.45196339 8420987
-0.11223926 0.062445845 0.45253462 8355451
-0.11156523 0.06252557 0.45311236 8355451
-0.11088948 0.0626055 0.4536916 8420987
-0.110212 0.062685639 0.45427233 8421244
-0.10978071 0.062908053 0.45588413 9276813
-0.10950387 0.063222989 0.45816645 9276813
-0.10922424 0.063541099 0.46047172 9211020
-0.10952865 0.064206451 0.46529341 9145227
-0.10938949 0.064620048 0.46829069 9605778
-0.10883963 0.064795583 0.46956274 8158332
-0.16387743 0.063344143 0.45312124 7237230
-0.16200675 0.062934957 0.45019421 8355711
-0.16074161 0.062758058 0.4489288 8421504
-0.15972535 0.062677041 0.44834924 8421504
-0.15871517 0.062597588 0.44778091 8421504
-0.15770754 0.062518336 0.44721401 8355711
-0.15670247 0.062439289 0.44664854 3750201
-0.15569994 0.062360439 0.4460845 657930
-0.15469992 0.062281787 0.44552189 0
-0.15370244 0.062203333 0.44496068 0
-0.15270746 0.062125079 0.44440091 0
-0.15171498 0.062047023 0.44384253 22364
-0.15078084 0.061992124 0.44344983 25706
-0.14993733 0.061974097 0.44332087 25963
-0.14909431 0.061956082 0.44319201 25963
-0.14825177 0.061938073 0.4430632 25963
-0.14740974 0.06192008 0.44293448 25963
-0.14656819 0.061902095 0.44280583 25962
-0.14572713 0.061884124 0.44267726 25962
-0.14488655 0.061866157 0.44254875 25963
-0.14404647 0.061848205 0.44242033 25706
-0.14320688 0.061830267 0.442292 25706
-0.14236775 0.06181233 0.44216371 25706
-0.14153734 0.061797995 0.44206116 25706
-0.14070797 0.061783951 0.44196069 25706
-0.13987896 0.06176991 0.44186026 25963
-0.13906196 0.06176104 0.44179681 26220
-0.13830134 0.06177726 0.44191283 26220
-0.13754036 0.061793491 0.44202894 25963
-0.13677894 0.061809726 0.44214508 25963
-0.13601714 0.061825976 0.44226131 25962
-0.13525613 0.061842773 0.44238147 25962
-0.13449876 0.061861448 0.44251508 19794
-0.13374093 0.061880134 0.44264874 3341
-0.13298266 0.061898839 0.44278252 0
-0.13222392 0.061917543 0.44291633 0
-0.13146472 0.061936267 0.44305027 0
-0.13070506 0.061954997 0.44318426 0
-0.1299545 0.061978299 0.44335094 0
-0.12924542 0.062021792 0.44366205 0
-0.12853532 0.062065341 0.44397357 460551
-0.12782393 0.062108811 0.44428453 1842210
-0.12711136 0.062152244 0.44459522 4605008
-0.12639779 0.062195733 0.44490632 8684676
-0.1256832 0.062239289 0.44521788 8684676
-0.12496763 0.062282905 0.44552988 8684676
-0.12425105 0.06232658 0.4458423 8684676
-0.12353346 0.062370315 0.44615516 8684676
-0.12281487 0.062414117 0.44646847 8684676
-0.12209199 0.062456299 0.44677022 8750469
-0.12136538 0.06249712 0.44706222 8750469
-0.1206378 0.062537991 0.44735458 8750469
-0.11990927 0.062578917 0.44764733 8750469
-0.1191798 0.062619895 0.44794047 8750469
-0.11844937 0.062660925 0.44823399 8750469
-0.11771797 0.062702015 0.4485279 8750469
-0.11703722 0.062770829 0.44902015 8882055
-0.11637259 0.062849313 0.44958156 8816262
-0.1157063 0.062927991 0.45014438 8618882
-0.11503835 0.06300687 0.45070863 8355451
-0.11436871 0.063085943 0.45127428 8289658
-0.11369739 0.063165218 0.45184132 8289658
-0.11302438 0.063244686 0.45240983 8289658
-0.11234967 0.063324362 0.45297974 8289658
-0.11167327 0.063404232 0.45355111 8223866
-0.11100464 0.063489735 0.45416275 8158073
-0.11034164 0.063579753 0.45480666 8158073
-0.10967675 0.063670024 0.45545238 8684675
-0.10937987 0.063976899 0.45764759 9276813
-0.10909992 0.064298436 0.45994762 9211020
-0.1093899 0.064963348 0.46470398 9342606
-0.10900642 0.065235503 0.46665078 9605778
-0.10845746 0.065412089 0.46791396 9605778
-0.16410986 0.064252488 0.45376393 7237230
-0.1625136 0.063946448 0.45160264 8421504
-0.16131581 0.063794918 0.45053247 8421504
-0.16012369 0.063644104 0.44946739 8421504
-0.15899028 0.063515201 0.44855708 8289918
-0.15798056 0.063434653 0.44798821 8355711
-0.15697341 0.063354306 0.44742081 4671303
-0.1559688 0.063274167 0.44685483 1184274
-0.15496673 0.063194223 0.44629025 131586
-0.15396719 0.063114487 0.44572714 0
-0.15297017 0.063034952 0.44516543 0
-0.15197565 0.06295561 0.44460511 10539
-0.15098363 0.06287647 0.44404623 14909
-0.15013088 0.062854797 0.44389313 15680
-0.1492867 0.062836498 0.44376391 15680
-0.14844304 0.062818214 0.44363481 15680
-0.14759986 0.062799938 0.44350573 15424
-0.14675716 0.062781677 0.44337675 15424
-0.14591496 0.062763423 0.44324785 15423
-0.14507325 0.062745176 0.44311902 15423
-0.14423506 0.062728263 0.44299957 15423
-0.14340329 0.062713981 0.44289866 15680
-0.14257193 0.062699698 0.44279784 15681
-0.14174093 0.062685423 0.44269702 15937
-0.14091031 0.062671162 0.44259629 15938
-0.14008006 0.062656894 0.44249555 16194
-0.13925759 0.062645972 0.44241837 16452
-0.13849597 0.062662445 0.44253471 16451
-0.13773395 0.062678933 0.44265115 16194
-0.13697153 0.062695421 0.44276762 15937
-0.13620871 0.062711924 0.44288418 15681
-0.13544549 0.062728442 0.44300079 15680
-0.13468185 0.062744953 0.44311744 13881
-0.13391782 0.062761486 0.44323418 2571
-0.13315339 0.062778026 0.44335097 514
-0.13239326 0.062796801 0.44348356 0
-0.13163313 0.062815808 0.44361782 0
-0.13087255 0.062834837 0.44375217 0
-0.13011779 0.062856898 0.44390801 0
-0.12940791 0.062901065 0.44421989 0
-0.12869669 0.062945113 0.44453096 394758
-0.12798432 0.062989153 0.44484198 1644572
-0.12727097 0.063033253 0.44515345 3815494
-0.12655661 0.06307742 0.44546536 8289662
-0.12583877 0.06312041 0.44576895 8750469
-0.12511623 0.063161567 0.44605964 8750469
-0.12439273 0.063202783 0.44635069 8750469
-0.12366831 0.063244052 0.44664216 8750469
-0.12294292 0.063285373 0.44693395 8750469
-0.12221659 0.063326746 0.44722617 8750469
-0.12148931 0.063368179 0.44751877 8750469
-0.12076107 0.063409664 0.44781172 8750469
-0.12003189 0.063451201 0.44810507 8750469
-0.11930175 0.063492797 0.44839883 8750469
-0.11857065 0.063534439 0.44869295 8750469
-0.11783858 0.063576147 0.44898745 8750469
-0.11715208 0.063643172 0.4494608 8882055
-0.11648694 0.063722819 0.45002332 8816262
-0.11582014 0.063802674 0.45058724 8684675
-0.11515167 0.063882723 0.45115259 8355452
-0.11448151 0.063962974 0.45171934 8289658
-0.11380966 0.064043432 0.45228752 8223865
-0.11313757 0.064124905 0.45286289 8158072
-0.11247948 0.064215556 0.4535031 8158072
-0.11181952 0.064306468 0.45414513 8158072
-0.11115769 0.064397633 0.45478895 8092536
-0.110494 0.064489059 0.45543465 8092536
-0.1098284 0.064580746 0.45608214 8158072
-0.10925613 0.064729102 0.4571299 9013640
-0.10897589 0.065054052 0.45942473 9211020
-0.10917116 0.065670006 0.46377474 9342606
-0.10862603 0.065846667 0.46502236 9605778
-0.10807797 0.066024281 0.46627671 9605778
-0.10752694 0.066202857 0.46753785 8158332
-0.16320834 0.065037906 0.45353323 8421504
-0.16212815 0.064932935 0.45280123 8421504
-0.16103089 0.064820029 0.45201388 8355711
-0.15983553 0.064666286 0.45094177 7697781
-0.15864584 0.064513266 0.44987473 6184542
-0.15746175 0.064360976 0.44881272 4013373
-0.15628326 0.064209402 0.44775575 2039583
-0.15523444 0.06410981 0.44706127 657930
-0.15423284 0.064028785 0.44649622 0
-0.15323377 0.063947953 0.44593257 0
-0.15223721 0.063867323 0.44537032 514
-0.15124315 0.063786902 0.4448095 1543
-0.15032493 0.063737765 0.44446686 1799
-0.14947961 0.063719191 0.44433734 1799
-0.14863479 0.063700624 0.44420785 1799
-0.14779046 0.063682072 0.44407848 1799
-0.14694662 0.063663527 0.44394916 1799
-0.1461101 0.063647963 0.44384065 1799
-0.14527635 0.063633442 0.44373938 1800
-0.14444298 0.063618928 0.44363815 2056
-0.14360997 0.063604414 0.44353697 2056
-0.14277735 0.063589916 0.44343585 2057
-0.14194511 0.063575417 0.44333473 2313
-0.14111325 0.063560925 0.4432337 2314
-0.14028177 0.063546441 0.4431327 2570
-0.13945378 0.063533388 0.44304165 2571
-0.13869114 0.063550122 0.44315836 2570
-0.1379281 0.063566864 0.44327509 2313
-0.13716465 0.063583612 0.44339192 2313
-0.1364008 0.063600376 0.4435088 2056
-0.13563655 0.063617148 0.44362575 1800
-0.1348719 0.063633919 0.44374272 1799
-0.13410684 0.063650712 0.44385979 514
-0.13334137 0.063667506 0.44397691 0
-0.13257551 0.063684307 0.44409409 0
-0.13180923 0.063701123 0.44421133 0
-0.13104257 0.063717946 0.44432867 0
-0.13028149 0.063737713 0.4444665 0
-0.12956882 0.063781552 0.44477218 0
-0.12885031 0.063823044 0.44506156 328965
-0.12813085 0.063864596 0.4453513 1381399
-0.12741049 0.063906208 0.44564146 3157564
-0.12668917 0.063947864 0.44593197 7763320
-0.12596691 0.06398958 0.44622287 8750469
-0.12524371 0.064031348 0.44651413 8750469
-0.12451957 0.064073175 0.4468058 8750469
-0.12379447 0.064115055 0.44709784 8750469
-0.12306844 0.064156987 0.44739026 8750469
-0.12234144 0.064198971 0.44768304 8750469
-0.1216135 0.064241022 0.44797623 8750469
-0.12088461 0.064283118 0.44826981 8750469
-0.12015475 0.064325273 0.44856375 8750469
-0.11942394 0.064367481 0.44885808 8750469
-0.11869217 0.064409748 0.44915283 8750469
-0.11795944 0.064452067 0.44944793 8750469
-0.11726715 0.064517222 0.4499023 8882055
-0.1166015 0.064598046 0.45046592 8816262
-0.11593419 0.064679079 0.45103097 8684676
-0.11526521 0.064760305 0.45159742 8420988
-0.11460509 0.064847723 0.452207 8158073
-0.11395004 0.064939268 0.45284536 8158072
-0.11329311 0.065031067 0.45348552 8158072
-0.11263434 0.065123126 0.45412749 8158072
-0.1119737 0.065215446 0.45477128 8158072
-0.11131117 0.065308034 0.45541692 8158072
-0.11064677 0.065400884 0.45606437 8158072
-0.10998047 0.065493986 0.45671365 8158072
-0.10931227 0.065587364 0.4573648 8421501
-0.10885214 0.065807946 0.45890301 9211020
-0.10879254 0.06627591 0.46216628 9474192
-0.10824829 0.066453584 0.46340525 9605778
-0.10770112 0.066632211 0.46465087 9605778
-0.10715099 0.0668118 0.46590322 9605778
-0.16335593 0.065915555 0.4539434 8421504
-0.16227454 0.065809071 0.45321006 8421504
-0.16119662 0.065702923 0.45247906 8421504
-0.16012216 0.065597117 0.45175043 8421504
-0.15905116 0.065491661 0.45102414 6250335
-0.15798362 0.065386534 0.45030019 2368548
-0.15691948 0.065281749 0.44957855 592137
-0.15585877 0.065177299 0.44885924 394758
-0.15480141 0.065073185 0.4481422 263429
-0.15363702 0.064922728 0.44710606 66307
-0.15249968 0.064782187 0.44613817 66307
-0.15150358 0.064700469 0.44557542 1028
-0.15051946 0.064623021 0.44504207 0
-0.149673 0.064604163 0.4449122 0
-0.14882845 0.064585932 0.44478664 0
-0.1479923 0.064571165 0.44468495 0
-0.14715652 0.064556405 0.4445833 0
-0.14632113 0.064541653 0.44448167 0
-0.14548612 0.064526901 0.4443801 0
-0.14465149 0.064512156 0.44427857 0
-0.14381725 0.064497426 0.44417712 0
-0.14298336 0.064482696 0.44407567 0
-0.14214988 0.064467974 0.44397429 0
-0.14131677 0.064453259 0.44387296 0
-0.14048405 0.064438552 0.44377166 0
-0.1396517 0.064423852 0.44367042 0
-0.13888687 0.06444031 0.44378376 0
-0.1381228 0.064457305 0.44390082 0
-0.13735832 0.064474314 0.44401798 0
-0.13659346 0.064491339 0.44413519 0
-0.13582818 0.064508364 0.44425246 0
-0.13506249 0.064525403 0.44436979 0
-0.1342964 0.06454245 0.44448718 0
-0.1335299 0.064559504 0.44460464 0
-0.132763 0.064576566 0.44472215 0
-0.13199678 0.064594164 0.44484335 0
-0.13123573 0.064614534 0.4449836 0
-0.13047419 0.064634904 0.44512391 0
-0.12971218 0.064655297 0.44526431 0
-0.12898408 0.064692952 0.44552365 263172
-0.12826367 0.064734951 0.44581291 1052690
-0.1275423 0.064777009 0.44610253 2762804
-0.12682001 0.06481912 0.44639254 7039599
-0.12609679 0.064861283 0.4466829 8750469
-0.1253726 0.064903498 0.44697365 8750469
-0.12464748 0.06494578 0.44726479 8750469
-0.12392142 0.064988106 0.44755632 8750469
-0.12319441 0.065030493 0.4478482 8750469
-0.12246656 0.065072991 0.44814086 8750469
-0.12173795 0.065115646 0.44843465 8750469
-0.12100838 0.06515836 0.4487288 8750469
-0.12027787 0.065201133 0.44902337 8750469
-0.11954639 0.065243959 0.44931832 8750469
-0.11881395 0.065286845 0.44961363 8750469
-0.11808054 0.065329783 0.44990936 8750469
-0.11738246 0.065392993 0.45034468 8816262
-0.1167186 0.065476291 0.45091829 8684676
-0.11606839 0.065568455 0.45155302 8618883
-0.11541633 0.065660879 0.45218953 8487039
-0.11476244 0.065753564 0.45282784 8289659
-0.11410669 0.06584651 0.45346794 8158072
-0.11344909 0.065939724 0.45410985 8158072
-0.11278963 0.066033199 0.45475361 8158072
-0.1121283 0.066126943 0.45539919 8158072
-0.11146507 0.066220947 0.45604658 8158072
-0.11079997 0.066315226 0.45669582 8158072
-0.11013297 0.066409767 0.45734692 8158072
-0.10946406 0.066504583 0.45799989 8158072
-0.10879325 0.066599667 0.45865473 8487038
-0.10841652 0.066877626 0.46056893 9605778
-0.10787316 0.067056283 0.46179932 9408399
-0.10732688 0.067235909 0.46303633 9408399
-0.10677768 0.067416497 0.46427998 9408399
-0.10622551 0.067598052 0.46553031 7960953
-0.1635038 0.066794783 0.45435429 7237230
-0.16242117 0.066686779 0.4536196 8421504
-0.16134204 0.066579126 0.4528873 8421504
-0.1602664 0.066471815 0.45215738 8421504
-0.15919422 0.066364855 0.45142978 5329233
-0.15812548 0.066258229 0.45070451 1907997
-0.15706016 0.066151954 0.4499816 263172
-0.15599826 0.066046014 0.44926098 0
-0.15493976 0.065940417 0.44854265 0
-0.15388463 0.065835156 0.44782665 0
-0.15283287 0.065730229 0.44711292 0
-0.15178445 0.065625638 0.44640145 0
-0.15079343 0.065544873 0.4458521 0
-0.14988142 0.065497778 0.44553176 0
-0.14904386 0.065482885 0.4454304 0
-0.14820644 0.065467887 0.44532841 0
-0.14736941 0.065452904 0.44522646 0
-0.14653276 0.065437913 0.44512454 0
-0.14569649 0.065422945 0.44502267 0
-0.14486061 0.065407977 0.44492087 0
-0.1440251 0.065393016 0.44481909 0
-0.14318998 0.065378062 0.44471738 0
-0.14235525 0.065363109 0.44461569 0
-0.14152089 0.065348171 0.44451407 0
-0.14068691 0.06533324 0.4444125 0
-0.13985331 0.065318316 0.44431096 0
-0.13908315 0.065333009 0.44441092 0
-0.13831805 0.065350264 0.44452831 0
-0.13755254 0.065367535 0.44464579 0
-0.13678664 0.065384813 0.44476333 0
-0.13602033 0.065402105 0.44488093 0
-0.13525361 0.065419398 0.44499859 0
-0.13448648 0.065436706 0.44511631 0
-0.13372365 0.065456323 0.44524974 0
-0.13296245 0.065476976 0.44539022 0
-0.13220076 0.065497644 0.4455308 0
-0.1314386 0.06551832 0.44567147 0
-0.13067594 0.065539017 0.44581223 0
-0.12991282 0.065559722 0.44595307 0
-0.12914921 0.065580435 0.44609401 131586
-0.12839839 0.065607958 0.44628119 789516
-0.12767637 0.06565062 0.44657141 2499630
-0.12695341 0.065693349 0.44686204 6315878
-0.12622949 0.06573613 0.44715303 8750469
-0.12550464 0.065778956 0.44744438 8750469
-0.12477884 0.065821849 0.44773614 8750469
-0.1240521 0.065864794 0.44802827 8750469
-0.1233244 0.065907799 0.44832078 8750469
-0.12259576 0.065950856 0.44861367 8750469
-0.12186617 0.065993972 0.44890696 8750469
-0.12113561 0.066037141 0.4492006 8750469
-0.12040411 0.066080369 0.44949466 8750469
-0.11967164 0.066123649 0.44978908 8750469
-0.11893822 0.066166997 0.45008391 8750469
-0.11820567 0.066211425 0.45038614 8750469
-0.11750483 0.066274352 0.45081416 8882055
-0.1168555 0.06636741 0.45144719 8947848
-0.11620435 0.066460736 0.45208198 8882055
-0.11555136 0.066554315 0.45271856 8750469
-0.11489654 0.06664817 0.45335695 8487295
-0.11423986 0.066742279 0.45399714 8289658
-0.11358132 0.066836663 0.45463914 8289658
-0.11292092 0.066931307 0.45528296 8355195
-0.11225865 0.067026228 0.45592859 8355195
-0.1115945 0.067121409 0.45657608 8355194
-0.11092845 0.067216873 0.45722541 8355194
-0.11026051 0.067312598 0.45787656 8355195
-0.10959066 0.067408599 0.45852959 8355195
-0.1089154 0.0675027 0.45916969 8553088
-0.10836537 0.067676462 0.46035165 8816262
-0.10785449 0.067877539 0.46171942 8816262
-0.10734057 0.068079814 0.46309537 8816262
-0.10682357 0.068283305 0.46447954 8816262
-0.10626964 0.068466209 0.46572369 8816262
-0.16365193 0.067675613 0.45476592 7237230
-0.16256809 0.067566082 0.45402992 8421504
-0.16148776 0.067456909 0.4532963 8421504
-0.1604109 0.067348085 0.45256504 8421504
-0.15933752 0.06723962 0.45183614 4473924
-0.15826757 0.06713149 0.45110956 1513239
-0.15720108 0.067023717 0.45038533 263172
-0.156138 0.066916287 0.44966343 65793
-0.15509281 0.066815436 0.44898573 65793
-0.15410022 0.066736318 0.44845408 65793
-0.15311001 0.066657394 0.44792372 0
-0.15212215 0.066578656 0.44739464 0
-0.15113661 0.066500105 0.44686678 0
-0.15015338 0.066421732 0.44634014 0
-0.14925842 0.066381775 0.44607162 0
-0.14842013 0.066366725 0.44597048 0
-0.14758223 0.066351682 0.44586942 0
-0.1467447 0.066336647 0.44576836 0
-0.14590748 0.066321582 0.44566712 0
-0.14507033 0.066306382 0.44556502 0
-0.14423357 0.066291198 0.44546294 0
-0.1433972 0.066276014 0.44536093 0
-0.14256121 0.066260844 0.44525898 0
-0.1417256 0.066245675 0.44515705 0
-0.14089036 0.066230513 0.44505516 0
-0.14005551 0.066215359 0.44495332 0
-0.13927998 0.066228233 0.44503984 0
-0.13851385 0.066245757 0.44515759 0
-0.13774732 0.066263288 0.4452754 0
-0.13698037 0.066280827 0.44539326 0
-0.13621455 0.066299118 0.4455162 0
-0.13545369 0.066320054 0.44565687 0
-0.13469233 0.066340998 0.44579759 0
-0.13393049 0.066361956 0.44593844 0
-0.13316818 0.066382922 0.44607934 0
-0.13240537 0.066403911 0.44622037 0
-0.1316421 0.066424914 0.44636148 0
-0.13087833 0.066445917 0.44650266 0
-0.13011408 0.066466942 0.44664395 0
-0.12934935 0.066487983 0.4467853 0
-0.12858413 0.066509031 0.44692677 592137
-0.12781842 0.066530094 0.4470683 2170920
-0.12708707 0.066569418 0.44733253 5592157
-0.12636247 0.06661281 0.44762412 8750469
-0.12563695 0.066656262 0.44791612 8750469
-0.12491048 0.066699773 0.44820848 8750469
-0.12418305 0.066743337 0.44850123 8750469
-0.12345468 0.06678696 0.44879436 8750469
-0.12272535 0.066830635 0.44908786 8750469
-0.12199507 0.06687437 0.44938177 8750469
-0.12126382 0.066918164 0.44967604 8750469
-0.12053347 0.066963039 0.44997761 8750469
-0.11980246 0.067008153 0.45028076 8750469
-0.11907046 0.067053333 0.45058432 8750469
-0.11833747 0.067098565 0.45088828 8750469
-0.11761728 0.067151733 0.45124558 8882055
-0.11696748 0.067246117 0.4518798 8947848
-0.11631586 0.067340761 0.45251581 8882055
-0.11566241 0.067435682 0.45315364 8816261
-0.11500711 0.067530863 0.45379326 8552832
-0.11434995 0.067626312 0.45443466 8289659
-0.11369094 0.067722037 0.45507792 8289659
-0.11303005 0.067818031 0.45572296 8289659
-0.1123673 0.0679143 0.45636988 8289659
-0.11170265 0.068010837 0.45701858 8355195
-0.11103611 0.068107657 0.45766917 8355195
-0.11036558 0.068203449 0.45831287 8420987
-0.10968877 0.068296775 0.45894003 8355451
-0.10903595 0.068406582 0.4596779 8618625
-0.10852781 0.068609536 0.46104169 8816262
-0.10801664 0.068813689 0.46241358 8816262
-0.10750242 0.069019064 0.46379367 8816262
-0.10694993 0.0692029 0.46502897 9013641
-0.10649858 0.069455594 0.46672702 7697781
-0.16271527 0.068446979 0.45444098 8421504
-0.16163372 0.068336278 0.45370603 8421504
-0.16055565 0.068225935 0.45297343 7829368
-0.15948106 0.068115957 0.45224321 3552822
-0.15844825 0.068022773 0.45162454 1842205
-0.15744586 0.067941755 0.45108664 1315860
-0.15644586 0.067860931 0.45055005 986895
-0.15544824 0.067780301 0.45001471 723723
-0.15445298 0.067699865 0.44948065 526344
-0.1534601 0.067619622 0.44894788 328965
-0.15246955 0.067539565 0.44841635 197379
-0.15148135 0.067459695 0.44788608 131586
-0.15049548 0.067380011 0.44735706 131586
-0.14951193 0.067300521 0.44682929 65793
-0.1486339 0.067267917 0.44661281 65793
-0.14779474 0.067252643 0.44651142 65793
-0.14695595 0.067237385 0.44641009 65793
-0.14611757 0.067222133 0.44630882 65793
-0.14527954 0.067206882 0.44620758 65793
-0.1444419 0.067191638 0.44610637 65793
-0.14360465 0.067176402 0.44600523 65793
-0.14276776 0.067161165 0.44590408 65793
-0.14193088 0.067145772 0.44580185 65793
-0.1410944 0.067130387 0.44569969 65793
-0.1402583 0.067115001 0.44559756 65793
-0.13947737 0.067125998 0.44567057 65793
-0.13871022 0.067143783 0.44578865 65793
-0.1379479 0.067164138 0.44592381 65793
-0.13718687 0.067185365 0.44606471 65793
-0.13642538 0.067206606 0.44620574 65793
-0.13566339 0.067227855 0.44634682 65793
-0.13490093 0.067249119 0.44648799 65793
-0.13413797 0.067270391 0.44662926 65793
-0.13337454 0.067291684 0.44677064 65793
-0.13261062 0.067312993 0.44691208 65793
-0.13184622 0.067334309 0.44705361 65793
-0.13108133 0.06735564 0.44719523 65793
-0.13031597 0.067376986 0.44733697 65793
-0.12955011 0.067398347 0.44747877 65793
-0.12878376 0.067419715 0.44762066 460551
-0.12801693 0.067441098 0.44776264 1776160
-0.12724963 0.067462504 0.44790474 4539215
-0.12649576 0.067491345 0.44809625 8618883
-0.12576956 0.067535415 0.44838884 8750469
-0.12504239 0.067579545 0.4486818 8750469
-0.12431429 0.067623727 0.44897518 8750469
-0.12358522 0.067667976 0.44926894 8750469
-0.12285706 0.067713298 0.44956982 8750469
-0.12212826 0.067758866 0.4498724 8750469
-0.12139849 0.067804508 0.45017543 8750469
-0.12066774 0.06785021 0.45047885 8750469
-0.119936 0.067895971 0.45078269 8750469
-0.11920327 0.067941792 0.45108691 8750469
-0.11846956 0.06798768 0.45139158 8750469
-0.11773485 0.068033628 0.45169663 8816262
-0.11707968 0.068126507 0.45231324 8947848
-0.1164276 0.068222485 0.45295051 8882055
-0.11577366 0.068318732 0.45358953 8816261
-0.11511789 0.068415262 0.4542304 8553088
-0.11446026 0.06851206 0.45487306 8289915
-0.11380076 0.068609126 0.45551753 8289659
-0.1131394 0.068706468 0.45616382 8289915
-0.11247615 0.068804093 0.45681196 8355451
-0.11181036 0.068901584 0.45745924 8420987
-0.11113678 0.068995692 0.45808408 8355451
-0.11046135 0.069090061 0.45871061 8355451
-0.10978409 0.069184691 0.45933887 8420987
-0.10919915 0.069339387 0.46036595 8816262
-0.10869074 0.069545418 0.46173385 8816262
-0.10817929 0.069752663 0.46310985 8816262
-0.1076282 0.069937393 0.46433631 9013641
-0.10703312 0.070096202 0.46539068 9079434
-0.10682589 0.070513532 0.46816146 7500402
-0.16286272 0.06932947 0.45485279 8421504
-0.16184337 0.069244385 0.45429453 8421504
-0.160831 0.069161423 0.45375028 7500152
-0.15982106 0.069078669 0.45320734 3287895
-0.15881354 0.068996109 0.45266569 1511234
-0.15780839 0.068913743 0.45212531 1116471
-0.15680566 0.068831578 0.45158625 1248304
-0.15580533 0.068749607 0.45104846 1380394
-0.15480736 0.068667829 0.45051193 1512484
-0.15381177 0.068586253 0.44997671 1644319
-0.15281855 0.068504862 0.44944274 1644825
-0.15182766 0.068423666 0.44891003 1447446
-0.15083914 0.068342663 0.44837859 1184274
-0.14985295 0.068261854 0.44784841 986895
-0.14886908 0.068181232 0.44731948 723723
-0.14800785 0.068156205 0.4471553 723723
-0.14716782 0.068140715 0.44705367 723723
-0.14632817 0.068125233 0.44695207 657930
-0.14548889 0.068109758 0.44685057 657930
-0.14465 0.068094291 0.44674906 657930
-0.14381149 0.068078831 0.44664764 657930
-0.14297336 0.068063378 0.44654626 657930
-0.14213561 0.068047926 0.4464449 657930
-0.14129823 0.068032488 0.4463436 592137
-0.1404613 0.068017073 0.44624248 592137
-0.13967462 0.068025969 0.44630083 657930
-0.13891405 0.068047747 0.44644374 657930
-0.13815299 0.068069547 0.44658673 657930
-0.13739143 0.068091355 0.44672984 723723
-0.1366294 0.068113178 0.44687301 723723
-0.13586688 0.068135023 0.4470163 723723
-0.13510385 0.068156868 0.44715965 789516
-0.13434035 0.068178736 0.44730312 789516
-0.13357636 0.068200618 0.44744667 789516
-0.13281187 0.068222515 0.44759032 855309
-0.13204689 0.06824442 0.44773406 855309
-0.13128144 0.068266347 0.44787788 855309
-0.13051547 0.068288282 0.4480218 921102
-0.12974903 0.068310231 0.44816583 921102
-0.12898208 0.068332195 0.44830993 1052688
-0.12821464 0.068354182 0.44845414 1710621
-0.12744671 0.068376176 0.44859844 3486528
-0.12667829 0.068398178 0.44874281 8158333
-0.12590928 0.068420157 0.44888699 8684676
-0.12517643 0.068462186 0.44916275 8750469
-0.12444986 0.06850823 0.44946483 8750469
-0.12372231 0.068554334 0.44976729 8750469
-0.12299378 0.068600491 0.45007014 8750469
-0.12226428 0.068646722 0.45037344 8750469
-0.12153379 0.068693012 0.45067713 8750469
-0.12080231 0.068739362 0.45098123 8750469
-0.12006984 0.068785772 0.45128572 8750469
-0.11933639 0.068832248 0.45159066 8750469
-0.11860194 0.068878792 0.45189598 8750469
-0.1178665 0.068925388 0.45220172 8816262
-0.1171921 0.069008589 0.45274755 8947848
-0.11653954 0.069105901 0.45338601 8882055
-0.11588514 0.069203496 0.45402628 8816262
-0.11522889 0.069301359 0.45466837 8618625
-0.11457078 0.069399506 0.45531225 8355451
-0.1139108 0.069497928 0.45595798 8355195
-0.11324896 0.069596633 0.45660555 8355195
-0.11257941 0.069692008 0.45723131 8420987
-0.11190721 0.069787152 0.45785549 8420987
-0.11123318 0.069882557 0.45848143 8355451
-0.1105573 0.069978215 0.45910904 8355451
-0.10987957 0.070074141 0.45973837 8618625
-0.10936286 0.070274986 0.46105608 8816262
-0.10885415 0.070484109 0.46242806 8816262
-0.10830446 0.070669703 0.4636457 9013641
-0.10771179 0.070829935 0.46469694 9079434
-0.10711644 0.070990898 0.46575296 8882055
-0.10715521 0.071577989 0.46960473 7500402
-0.16314717 0.070272461 0.4556472 7237230
-0.16211703 0.070182309 0.45506269 8421504
-0.16115606 0.070121333 0.45466733 8289919
-0.16019081 0.070057869 0.45425582 3945821
-0.15918051 0.069973946 0.45371166 2167367
-0.15817261 0.069890223 0.45316878 2361914
-0.15716712 0.069806695 0.45262721 3018294
-0.15616405 0.069723375 0.45208696 2493241
-0.15516336 0.069640249 0.45154795 1902397
-0.15416506 0.069557324 0.45101026 1311808
-0.15316914 0.069474593 0.45047385 786754
-0.15217556 0.069392055 0.44993868 918844
-0.15118437 0.069309726 0.44940484 1050934
-0.15019551 0.069227584 0.44887221 1182768
-0.14920899 0.069145635 0.44834086 1314858
-0.14822482 0.06906388 0.44781077 1512484
-0.14738029 0.069046654 0.4476991 1512739
-0.14653938 0.069030948 0.44759724 1512739
-0.14569885 0.069015242 0.4474954 1512739
-0.14485869 0.068999544 0.44739363 1578275
-0.14401893 0.06898386 0.44729191 1578530
-0.14317955 0.068968177 0.44719023 1578530
-0.14234054 0.068952501 0.44708857 1578530
-0.14150684 0.068939231 0.44700253 1578530
-0.14069149 0.068934798 0.4469738 1578530
-0.13987625 0.068930365 0.44694507 1578530
-0.13908117 0.068935879 0.44698083 1578531
-0.13831924 0.068957992 0.44712418 1578531
-0.13755684 0.068980113 0.44726762 1578532
-0.13679393 0.069002248 0.44741115 1578276
-0.13603054 0.069024399 0.4475548 1578277
-0.13526666 0.069046564 0.4476985 1512741
-0.13450229 0.069068745 0.4478423 1512486
-0.13373743 0.06909094 0.44798622 1512487
-0.13297206 0.069113143 0.44813019 1512231
-0.13220623 0.069135368 0.44827428 1446696
-0.13143988 0.0691576 0.44841847 1446697
-0.13067305 0.069179855 0.44856274 1446441
-0.12990573 0.069202118 0.4487071 1446442
-0.1291379 0.069224395 0.44885156 1380650
-0.12836958 0.069246687 0.4489961 1512237
-0.12760079 0.069268994 0.44914076 2630465
-0.12682651 0.069288604 0.44926789 7368566
-0.1260511 0.069307841 0.44939262 8618883
-0.12530263 0.069342233 0.44961563 8816262
-0.12458035 0.06939166 0.44993612 8816262
-0.12385705 0.069441162 0.45025709 8750469
-0.12313083 0.069489673 0.45057163 8750469
-0.1224006 0.069536552 0.45087558 8750469
-0.12166937 0.06958349 0.45117992 8750469
-0.12093718 0.069630496 0.45148471 8750469
-0.12020399 0.069677569 0.45178992 8750469
-0.1194698 0.069724694 0.45209551 8750469
-0.11873462 0.069771893 0.45240152 8750469
-0.11799844 0.069819152 0.45270795 8750469
-0.11730473 0.069892362 0.45318267 8947848
-0.11665171 0.069991022 0.45382237 8882055
-0.11599683 0.070089959 0.45446387 8816262
-0.11534011 0.070189171 0.45510718 8618882
-0.11468152 0.070288673 0.45575234 8420988
-0.11401666 0.070385739 0.45638171 8355451
-0.11334768 0.070481651 0.45700359 8420987
-0.11267687 0.070577823 0.45762718 8355451
-0.11200423 0.070674255 0.45825246 8355707
-0.11132974 0.070770949 0.45887944 8355707
-0.11065341 0.070867918 0.45950815 8355451
-0.11003299 0.071002424 0.46038029 8816262
-0.10952704 0.071213394 0.46174824 8882055
-0.1089787 0.071399838 0.46295714 9013641
-0.10838845 0.071561486 0.46400526 9079434
-0.10779552 0.071723863 0.46505815 9079434
-0.10738387 0.072010361 0.46691579 8816262
-0.10748659 0.072649039 0.47105697 7500402
-0.16343881 0.071221448 0.45646173 7237230
-0.16238733 0.071121536 0.45582139 8421504
-0.16133879 0.071021907 0.45518288 8421504
-0.1603478 0.070946723 0.45470101 5525610
-0.15938911 0.070885137 0.45430627 2299210
-0.15843208 0.070823647 0.4539122 3280693
-0.15747672 0.070762269 0.45351881 5972004
-0.156523 0.070700996 0.4531261 5775141
-0.15552101 0.070617154 0.45258877 5446951
-0.15451998 0.070532866 0.45204857 5052970
-0.15352134 0.070448786 0.45150968 4790571
-0.15252508 0.0703649 0.45097208 4199727
-0.15153119 0.070281222 0.45043576 3609138
-0.15053965 0.070197731 0.44990069 3018294
-0.14955047 0.070114449 0.44936693 2427705
-0.14856364 0.07003136 0.44883439 1836861
-0.14759338 0.069955222 0.44834641 1180480
-0.1467512 0.069939271 0.44824421 1180481
-0.1459094 0.069923341 0.44814211 1180481
-0.14506799 0.069907419 0.44804004 1114946
-0.14422697 0.069891497 0.44793802 1114690
-0.14338632 0.069875591 0.44783604 1049154
-0.14255595 0.069864526 0.44776517 1049154
-0.14173913 0.069860026 0.44773632 1049154
-0.14092243 0.069855534 0.4477075 1049154
-0.14010583 0.069851033 0.44767869 1114690
-0.13928935 0.069846541 0.4476499 1114690
-0.13848591 0.069848582 0.44766295 1114690
-0.13772263 0.069871008 0.44780672 1180483
-0.13695887 0.069893464 0.4479506 1246019
-0.1361946 0.069915928 0.44809458 1246018
-0.13542986 0.069938406 0.44823864 1311810
-0.13466461 0.0699609 0.44838279 1377346
-0.13389888 0.0699834 0.44852704 1442882
-0.13313265 0.070005924 0.44867137 1443137
-0.13236594 0.070028462 0.44881582 1508673
-0.13159871 0.070051007 0.44896033 1574209
-0.13083102 0.070073575 0.44910496 1639744
-0.1300628 0.07009615 0.44924966 1705536
-0.12929411 0.070118748 0.44939446 1640000
-0.12851959 0.070138454 0.44952077 1180483
-0.12774421 0.07015793 0.44964561 1905486
-0.1269684 0.070177421 0.44977051 6446962
-0.12619215 0.070196927 0.4498955 8618883
-0.12542489 0.0702217 0.45005432 8750469
-0.12470199 0.070271805 0.45037544 8816262
-0.12397807 0.070321985 0.45069703 8816262
-0.12325311 0.070372231 0.45101908 8816262
-0.1225271 0.070422553 0.45134157 8816262
-0.12180006 0.070472948 0.45166454 8816262
-0.12107199 0.070523411 0.45198798 8750469
-0.12033843 0.070571348 0.45229521 8750469
-0.11960351 0.070619136 0.45260149 8750469
-0.1188676 0.070666991 0.45290819 8750469
-0.11813068 0.070714913 0.4532153 8750469
-0.11741757 0.070777841 0.45361862 8882055
-0.11676408 0.070877843 0.45425954 8882055
-0.11610873 0.070978127 0.45490229 8816262
-0.11544859 0.071076892 0.45553526 8684418
-0.1147828 0.071173564 0.45615482 8355452
-0.11411519 0.071270496 0.45677608 8355451
-0.11344576 0.071367696 0.45739904 8355451
-0.11277451 0.071465164 0.45802373 8355451
-0.11210141 0.071562894 0.45865008 8355451
-0.11142648 0.071660899 0.45927817 8355452
-0.11074969 0.071759164 0.45990798 8487038
-0.11019794 0.071940541 0.46107045 8882055
-0.10965094 0.072127804 0.46227062 9079434
-0.10906309 0.07229086 0.46331564 9079434
-0.10847257 0.072454654 0.46436539 9079434
-0.10787937 0.072619192 0.46541992 9079434
-0.10771404 0.073076583 0.46835139 8750469
-0.10782001 0.073726729 0.47251818 7500402
-0.16267774 0.072072417 0.45663658 8421504
-0.16162692 0.071971275 0.45599577 8421504
-0.16057904 0.071870416 0.45535675 7894907
-0.15953943 0.07177224 0.45473471 2694993
-0.15858138 0.071709923 0.45433992 2559292
-0.15762497 0.071647719 0.45394579 5775142
-0.15667024 0.071585618 0.45355234 6759456
-0.15571715 0.071523629 0.45315957 6759456
-0.15476573 0.071461745 0.45276749 6759456
-0.15381594 0.071399972 0.4523761 6693920
-0.15286778 0.071338296 0.45198536 6496801
-0.15187959 0.071257181 0.45147142 6299938
-0.15088537 0.071172342 0.4509339 5906213
-0.14989351 0.071087711 0.45039767 5643814
-0.14890401 0.071003273 0.44986272 5315624
-0.14791685 0.070919037 0.44932902 5052970
-0.14696363 0.070850238 0.4488931 4856363
-0.14612058 0.07083407 0.4487907 4921643
-0.1452779 0.070817918 0.44868833 4921643
-0.14443561 0.070801772 0.44858602 4921643
-0.14360864 0.070792988 0.44853041 4856107
-0.14279038 0.070788428 0.4485015 4856107
-0.1419722 0.070783861 0.44847256 4856107
-0.14115414 0.070779301 0.44844365 4856107
-0.14033619 0.070774734 0.44841474 4856107
-0.13951834 0.070770174 0.44838583 4921643
-0.13870059 0.070765607 0.44835693 4921643
-0.13788883 0.070764065 0.44834712 4987179
-0.1371242 0.070786826 0.44849133 5052972
-0.13635907 0.070809603 0.44863567 5118507
-0.13559344 0.070832402 0.44878009 5118763
-0.13482733 0.0708552 0.44892457 5184299
-0.13406073 0.070878029 0.44906917 5184299
-0.13329363 0.070900865 0.44921386 5249835
-0.13252603 0.070923716 0.44935864 5249834
-0.13175793 0.070946582 0.44950351 5315626
-0.13098936 0.070969462 0.4496485 5381162
-0.13021459 0.070989259 0.44977394 5381162
-0.12943923 0.071008988 0.4498989 5446698
-0.12866345 0.071028724 0.45002395 3280950
-0.12788725 0.071048476 0.45014909 2167370
-0.1271106 0.071068227 0.45027426 5459819
-0.12633353 0.071088001 0.45039952 8618883
-0.12555602 0.071107775 0.45052484 8684676
-0.12482388 0.071153671 0.45081562 8816262
-0.12409933 0.071204528 0.45113784 8816262
-0.12337374 0.07125546 0.45146051 8816262
-0.12264711 0.07130646 0.45178363 8816262
-0.12191945 0.071357533 0.45210725 8816262
-0.12119073 0.071408682 0.45243129 8816262
-0.12046098 0.071459904 0.45275584 8816262
-0.11973018 0.071511202 0.45308083 8816262
-0.11899832 0.071562566 0.45340627 8750469
-0.11826323 0.071612686 0.45372382 8750469
-0.11753064 0.071665026 0.45405543 8882055
-0.11687522 0.071765482 0.45469192 8947848
-0.11621259 0.071862914 0.45530921 8882055
-0.11554817 0.071960606 0.45592818 8487296
