# .PCD v0.7 - Point Cloud Data file format
VERSION 0.7
FIELDS x y z rgb
SIZE 4 4 4 4
TYPE F F F U
COUNT 1 1 1 1
WIDTH 1102
HEIGHT 1
VIEWPOINT 0 0 0 1 0 0 0
POINTS 1102
DATA ascii
0.020647906 0.06049474 0.40164357 4079165
0.02139046 0.06054588 0.40198311 3816248
0.02213441 0.060597483 0.40232572 4276798
0.022880159 0.060650583 0.40267825 4144957
0.023628311 0.060706582 0.40305007 4079421
0.024380011 0.06076809 0.40345842 4210749
0.025135793 0.060835905 0.40390867 4605506
0.025894664 0.06090717 0.40438181 4737092
0.026656875 0.060982168 0.40487975 4802886
0.027420966 0.061057348 0.40537891 4868680
0.02819098 0.061141476 0.40593746 5000265
0.028966699 0.061233401 0.40654778 5000523
0.029744921 0.061325949 0.40716222 4737350
0.0305255 0.061418775 0.40777853 4342592
0.031314787 0.061524343 0.40847942 4079420
0.032107424 0.061631493 0.40919083 4145214
0.032904603 0.061742343 0.4099268 4211006
0.033709478 0.061862446 0.41072419 3815992
0.034517728 0.061983448 0.41152757 4013371
0.035342935 0.062129159 0.41249499 4276543
0.03617629 0.06228289 0.41351566 4802888
0.037018847 0.062445935 0.41459817 4671560
0.037896052 0.062659808 0.41601813 4145227
0.038786791 0.062887326 0.41752869 3092299
0.039727084 0.063184984 0.41950494 2499914
0.040724941 0.063561358 0.42200381 2631239
0.04195543 0.064280339 0.42677733 2894652
-0.033097669 0.064293176 0.42181095 1446964
-0.032085955 0.063794427 0.41853878 1446967
-0.031157818 0.06344182 0.41622543 1446970
-0.030302748 0.063224256 0.41479802 1446972
-0.029465646 0.063034102 0.4135505 1512508
-0.028648632 0.062878169 0.41252744 1709887
-0.027839469 0.062731601 0.41156587 1775681
-0.027030742 0.062578022 0.41055825 2038852
-0.026230697 0.062436447 0.40962943 2235975
-0.025439184 0.062307566 0.40878388 2433353
-0.024653725 0.062186264 0.40798804 2565195
-0.023873217 0.062070366 0.40722767 2631243
-0.023098243 0.061961953 0.4065164 2697034
-0.022328543 0.061861046 0.40585437 2828872
-0.021563983 0.061768014 0.40524402 3158343
-0.020803595 0.061680835 0.40467206 3684933
-0.020048661 0.061604068 0.4041684 4343361
-0.019296549 0.061530504 0.40368578 4540736
-0.01854804 0.061463114 0.40324363 4540479
-0.017801167 0.061395865 0.40280244 4540479
-0.01705783 0.061335605 0.40240708 4540222
-0.016316634 0.061278023 0.40202931 4408893
-0.015577269 0.061222289 0.40166366 4408637
-0.01483934 0.061167035 0.40130115 4408638
-0.014103945 0.061117094 0.4009735 4277052
-0.013370874 0.061072372 0.40068009 4014392
-0.012638876 0.061027717 0.40038711 3882811
-0.011907948 0.060983125 0.40009457 3092029
-0.011177922 0.060937703 0.39979655 2301759
-0.010450246 0.060899708 0.39954728 2169923
-0.0097247213 0.060869548 0.39934942 2170434
-0.0089999149 0.060839422 0.39915177 2170177
-0.0082758255 0.060809329 0.39895433 2301760
-0.0075524244 0.060779035 0.39875558 2499647
-0.0068296893 0.060748287 0.39855385 2894648
-0.0061076842 0.060717568 0.3983523 3289393
-0.005387269 0.060696561 0.39821449 3486770
-0.0046682195 0.060686853 0.3981508 3420977
-0.0039493153 0.060675848 0.39807859 3355183
-0.0032306726 0.060664851 0.39800644 3487282
-0.0025122899 0.060653858 0.39793432 4013626
-0.0017941676 0.060642865 0.3978622 4013114
-0.0010763055 0.060631875 0.3977901 3947578
-0.00035870352 0.060620897 0.39771807 4144957
0.00035863856 0.060609918 0.39764604 4145214
0.0010759106 0.060609635 0.39764419 4276543
0.0017932103 0.060610507 0.39764991 4211006
0.0025105304 0.060611375 0.39765561 4079677
0.0032279503 0.060613733 0.39767107 4210749
0.0039454624 0.06061665 0.39769021 4079162
0.0046630437 0.060619567 0.39770934 3881783
0.0053806938 0.060622483 0.39772847 3157804
0.0060991324 0.060632553 0.39779454 3157804
0.006818132 0.060645491 0.39787942 3223598
0.0075374381 0.060658433 0.39796433 3420977
0.008257051 0.060671378 0.39804927 3684149
0.0089769717 0.060684327 0.39813423 3815992
0.0096971998 0.060697287 0.39821926 4013114
0.010419232 0.060718969 0.3983615 3486769
0.011142224 0.06074309 0.39851975 2828839
0.01186579 0.06076723 0.39867812 2566180
0.012589932 0.060791388 0.39883661 3224367
0.01331465 0.060815565 0.39899525 3750967
0.014039946 0.060839765 0.39915401 3816504
0.014767963 0.060872827 0.39937091 3684916
0.015497277 0.060907904 0.39960104 3618866
0.016227432 0.060943019 0.39983144 3223852
0.016958429 0.060978178 0.40006211 2565925
0.017690269 0.061013378 0.40029305 2434342
0.018425973 0.061058614 0.40058982 2368809
0.019162973 0.061104577 0.40089136 2500398
0.01990018 0.061147824 0.40117511 3750460
0.020638255 0.061190616 0.40145585 4013885
0.0213787 0.061237294 0.4017621 3816249
0.022122229 0.061289452 0.40210429 4211006
0.022867303 0.061342448 0.40245199 3947578
0.023614541 0.061397806 0.40281516 4342594
0.024363754 0.061454844 0.40318939 4013884
0.025117712 0.061520193 0.40361813 4342334
0.025874628 0.061588902 0.40406892 4737092
0.026636224 0.061664682 0.40456608 4737093
0.027399696 0.061740652 0.40506449 4802886
0.028165214 0.061817158 0.40556642 4868680
0.028939428 0.061908398 0.40616503 5000522
0.029716874 0.062001873 0.40677831 4868680
0.030496674 0.062095635 0.40739346 4737350
0.031281248 0.062194481 0.40804195 4013883
0.03207298 0.062302683 0.40875185 3816248
0.032867469 0.062411264 0.40946421 4079420
0.033669498 0.062529065 0.41023707 4211007
0.034476675 0.062651157 0.4110381 3882042
0.035292152 0.062782876 0.41190228 4079420
0.036123317 0.0629365 0.41291016 4474179
0.036959451 0.063092396 0.41393292 4868937
0.037820283 0.063283443 0.41518638 4671306
0.0387064 0.063508555 0.41666326 3947852
0.039608758 0.063751243 0.41825545 2697290
0.040582772 0.064098023 0.42053059 2302281
0.041643109 0.064565919 0.42360035 2763074
-0.0332871 0.065426372 0.42422512 2104886
-0.032229345 0.064837858 0.42040923 1315381
-0.031238796 0.064359449 0.4173072 1381177
-0.030348875 0.064069845 0.41542941 1446715
-0.029510971 0.063878179 0.41418663 1447228
-0.028687021 0.063707538 0.41308022 1644094
-0.027877783 0.063561343 0.41213229 1775681
-0.027068188 0.063406304 0.411127 1973058
-0.026261756 0.063250147 0.41011447 2104389
-0.025469009 0.063118845 0.40926313 2301767
-0.024679774 0.062988676 0.4084191 2565193
-0.023897346 0.062868401 0.40763924 2762570
-0.023119448 0.062752783 0.40688959 2828874
-0.022349007 0.062650494 0.40622634 3026503
-0.021581074 0.062548533 0.40556523 3553350
-0.020819319 0.062457956 0.40497792 4014402
-0.020062221 0.06237527 0.40444177 4212283
-0.019308932 0.062298633 0.40394485 4409405
-0.018558713 0.062226273 0.40347567 4606272
-0.017811401 0.062158156 0.403034 4606016
-0.017066348 0.062092461 0.40260804 4540223
-0.016324773 0.062034138 0.40222988 4474430
-0.015584591 0.061975934 0.40185246 4408638
-0.01484628 0.061919853 0.40148884 4343101
-0.014109332 0.061863992 0.40112665 4145978
-0.013375845 0.061818097 0.40082905 3883064
-0.012643571 0.061772875 0.40053585 3619898
-0.011912368 0.061727729 0.4002431 2960703
-0.011182075 0.06168177 0.39994511 2302016
-0.01045273 0.061635062 0.39964226 2170434
-0.00972699 0.061604269 0.39944258 2104642
-0.0090020131 0.06157377 0.39924484 2104641
-0.0082777543 0.061543301 0.39904729 2631232
-0.0075542117 0.061512865 0.39884993 3223611
-0.0068313847 0.061482463 0.39865279 3355440
-0.0061092717 0.061452083 0.39845583 3157804
-0.0053878627 0.061421633 0.39825839 3487026
-0.0046685515 0.061409406 0.39817911 3552819
-0.0039495965 0.061398275 0.39810693 3355697
-0.0032309024 0.061387144 0.39803475 3487537
-0.0025124685 0.061376017 0.3979626 3948088
-0.0017942952 0.061364893 0.39789048 4013883
-0.001076382 0.061353773 0.39781839 4013884
-0.00035872901 0.06134266 0.39774632 4079421
0.00035866405 0.061331552 0.39767429 4144958
0.0010758333 0.061322495 0.39761558 4145214
0.0017930812 0.061323375 0.39762127 4145469
0.0025103558 0.061324403 0.39762795 4079676
0.0032277554 0.061327357 0.39764708 4079676
0.0039452245 0.061330307 0.39766622 4210748
0.0046627619 0.061333254 0.39768532 3881784
0.0053803688 0.061336204 0.39770445 3223854
0.0060980446 0.061339155 0.39772359 3223599
0.0068167495 0.061350744 0.39779875 3486771
0.0075359098 0.061363835 0.39788362 3684150
0.0082553765 0.061376929 0.39796853 3947578
0.008975151 0.061390031 0.39805347 3947834
0.0096952915 0.061403517 0.39814091 3881527
0.010416757 0.061422948 0.39826691 3487025
0.011139155 0.06144502 0.39841002 2763302
0.011862522 0.061469432 0.3985683 2697765
0.012586462 0.061493859 0.3987267 3224366
0.01331098 0.061518312 0.39888525 3882040
0.014036073 0.061542783 0.39904392 3947833
0.014762764 0.061571527 0.3992303 3684405
0.015491387 0.061605282 0.39944917 3421233
0.016221261 0.061640788 0.39967939 3223598
0.016951976 0.061676338 0.39990988 2763305
0.017683534 0.061711926 0.40014064 2434343
0.018417027 0.061751205 0.40039533 2434349
0.019153662 0.061797664 0.40069658 2631473
0.01989089 0.061842583 0.40098783 3750461
0.020628612 0.061885841 0.4012683 4211007
0.021367369 0.061929155 0.40154916 3947835
0.02211006 0.061980661 0.40188313 4211007
0.022854462 0.062033542 0.402226 4276543
0.02360088 0.062088467 0.40258214 4671045
0.02434955 0.062145866 0.40295431 4342593
0.025099706 0.06220362 0.40332878 4210749
0.025855999 0.062272903 0.40377802 4539713
0.026615605 0.062346146 0.40425292 4671556
0.027378462 0.062422894 0.40475056 4737093
0.028143195 0.062499825 0.40524939 4802886
0.028912209 0.06258212 0.405783 5066058
0.029688882 0.062676527 0.40639514 4868937
0.030467903 0.062771223 0.40700912 4737350
0.031249281 0.062866196 0.40762496 4276799
0.032038607 0.062972434 0.40831378 4013627
0.032832187 0.063082062 0.40902463 3816248
0.033629611 0.063194104 0.40975112 4145214
0.034435719 0.063317284 0.41054982 4145213
0.035245981 0.063442767 0.41136342 4079420
0.036070503 0.063588209 0.41230646 4276799
0.036905278 0.063745476 0.4133262 4802887
0.037751637 0.063916139 0.41443276 4868682
0.038626332 0.064127214 0.41580138 4474188
0.039519262 0.064359941 0.41731039 3355467
0.04045907 0.064658888 0.41924876 2565706
0.041467085 0.065053865 0.42180982 2368325
0.042651348 0.065706134 0.4260391 2894908
-0.032372009 0.065886557 0.42227015 1578547
-0.031365223 0.065375701 0.41899607 1381174
-0.030414965 0.064960361 0.41633409 1381178
-0.029558606 0.064729609 0.41485521 1513019
-0.028729642 0.064548418 0.41369393 1512765
-0.027915107 0.064390846 0.41268408 1709889
-0.027105467 0.064236246 0.41169322 1907009
-0.026298096 0.064078458 0.41068196 1973059
-0.025498902 0.063932031 0.40974349 2301766
-0.024708679 0.063800022 0.40889746 2696775
-0.023921715 0.063668564 0.40805495 2894152
-0.023142258 0.06354937 0.40729102 3025736
-0.02236951 0.063441396 0.40659899 3355462
-0.021600841 0.063338056 0.40593669 3947846
-0.02083507 0.063236259 0.40528429 4211522
-0.0200758 0.063147515 0.40471551 4211772
-0.019321986 0.063069873 0.4042179 4277563
-0.018570023 0.062992431 0.40372154 4474941
-0.017821645 0.062921323 0.4032658 4606273
-0.017075527 0.06285248 0.40282458 4606017
-0.016332923 0.062791012 0.40243065 4540225
-0.015592362 0.062732056 0.40205282 4408895
-0.014853227 0.062673368 0.40167668 4277308
-0.014115928 0.06261681 0.40131417 4014648
-0.013380821 0.06256438 0.40097815 3685942
-0.01264827 0.062518597 0.40068471 3422267
-0.011916792 0.06247288 0.40039173 2631743
-0.011186233 0.062426399 0.40009382 2236480
-0.010456613 0.062379107 0.39979073 2104898
-0.0097292587 0.062339325 0.39953578 2170434
-0.0090041123 0.06230846 0.39933795 2367807
-0.008279684 0.062277619 0.3991403 3026238
-0.0075559714 0.062246814 0.39894286 3289395
-0.0068329754 0.06221604 0.39874563 2960681
-0.0061106933 0.062185287 0.39854854 3026218
-0.0053891251 0.062154576 0.3983517 3420977
-0.0046687787 0.062130675 0.39819852 3487028
-0.0039498168 0.062119849 0.39812914 3618869
-0.0032311052 0.062109023 0.39805976 3816504
-0.002512644 0.062098201 0.39799041 4079419
-0.0017944227 0.062087029 0.39791879 4145213
-0.0010764585 0.062075775 0.39784667 4145213
-0.00035875451 0.062064532 0.39777461 4145213
0.00035868952 0.062053289 0.39770254 4144957
0.0010758737 0.06204205 0.39763051 4013627
0.0017929523 0.062036149 0.39759269 4013884
0.0025102042 0.062037904 0.39760396 3948091
0.0032275605 0.062040888 0.39762306 4145213
0.003944986 0.062043872 0.3976422 4145213
0.0046624807 0.062046856 0.39766133 3947834
0.0053800442 0.062049843 0.39768046 3026733
0.0060976767 0.062052827 0.39769959 3420979
0.0068153781 0.062055811 0.39771873 3815993
0.007534381 0.06206895 0.39780292 4144958
0.008253702 0.062082194 0.3978878 4079164
0.0089733303 0.062095445 0.39797273 3882041
0.0096934158 0.062109664 0.39806387 3553075
0.010414742 0.062129322 0.39818984 3158316
0.011136523 0.062148985 0.39831588 2763559
0.011859255 0.062171247 0.39845854 2631973
0.012582995 0.062195946 0.39861685 2697510
0.013307311 0.06222067 0.39877531 3289647
0.014032203 0.062245414 0.39893389 3487027
0.014757925 0.062271245 0.39909944 3223855
0.015486021 0.062304221 0.3993108 2631463
0.016215093 0.062338028 0.39952746 2565670
0.016945528 0.062373962 0.39975777 2565926
0.017676806 0.062409945 0.39998838 2368295
0.018408926 0.062445965 0.40021923 2499630
0.01914436 0.06249008 0.40050197 2762803
0.019881608 0.062536694 0.40080073 3882047
0.020618981 0.062580414 0.40108094 4013628
0.021357385 0.062624194 0.40136153 3947835
0.022097906 0.06267111 0.4016622 4342593
0.022841861 0.062724479 0.40200424 4539715
0.023587622 0.062779367 0.402356 4671301
0.024335362 0.062836088 0.40271953 4671302
0.025085067 0.062894441 0.40309355 4211006
0.025837407 0.062955938 0.40348765 4145212
0.026595019 0.063026547 0.40394023 4671299
0.027357258 0.063104078 0.40443709 4737093
0.028121376 0.063181795 0.40493518 4737349
0.028887376 0.063259698 0.40543449 4934472
0.029660942 0.063349918 0.40601268 5000265
0.030439187 0.063445531 0.40662551 4803143
0.031219829 0.063541532 0.40724078 4474178
0.032004558 0.06364125 0.40787986 4276799
0.032796975 0.063751422 0.40858597 4408385
0.033592403 0.06386248 0.40929776 4145213
0.03439486 0.063981839 0.4100627 4211006
0.035204079 0.064108476 0.41087437 4211006
0.036021207 0.06424401 0.41174299 4342592
0.036851265 0.06439665 0.41272128 4605507
0.03768881 0.064556085 0.41374308 4934473
0.038553793 0.064755403 0.41502053 4868939
0.039437387 0.064977787 0.41644582 4342605
0.040350176 0.065239072 0.41812038 2828873
0.041320752 0.065582484 0.42032132 2170695
0.042403873 0.066088922 0.42356712 2565695
-0.032560855 0.067037053 0.42473355 2368311
-0.031507071 0.066430576 0.42089099 1578548
-0.03051612 0.06592989 0.41771874 1446968
-0.02961502 0.065602891 0.41564697 1381434
-0.028775113 0.065397985 0.41434869 1512764
-0.027952818 0.065223239 0.41324157 1578301
-0.027142785 0.065068319 0.41226003 1775680
-0.026334539 0.064909071 0.41125107 1907522
-0.025529671 0.064749166 0.41023794 2170436
-0.024737656 0.064613283 0.40937698 2828102
-0.023949711 0.064479992 0.40853247 3289158
-0.023165649 0.064349025 0.40770271 3223362
-0.022390051 0.06423375 0.40697235 3750213
-0.021620642 0.064129025 0.40630883 4211268
-0.020853739 0.064024635 0.40564746 4408642
-0.020090813 0.063925311 0.40501815 4343359
-0.019335056 0.063842162 0.40449134 4277563
-0.018582568 0.063763715 0.40399429 4343356
-0.017831929 0.063685462 0.4034985 4540734
-0.017085344 0.063615642 0.40305614 4540480
-0.016341079 0.063548639 0.40263161 4474686
-0.015600141 0.063488945 0.40225342 4277563
-0.014860595 0.063429371 0.40187594 4145977
-0.01412253 0.063370325 0.40150186 4014392
-0.013386211 0.063313164 0.40113968 3554102
-0.012652974 0.063264869 0.4008337 3224380
-0.01192122 0.063218594 0.4005405 2499902
-0.011190394 0.063171573 0.40024263 2236737
-0.010460499 0.063123703 0.3999393 2631491
-0.0097317109 0.0630759 0.39963645 2697280
-0.0090062134 0.06304349 0.39943111 2697275
-0.0082816146 0.06301228 0.39923337 3289402
-0.0075577325 0.062981106 0.39903584 3026476
-0.0068345666 0.062949955 0.39883849 2960425
-0.0061121159 0.062918842 0.39864135 3092013
-0.0053903791 0.062887751 0.39844438 3684150
-0.0046693366 0.062856458 0.39824608 3750199
-0.0039499197 0.062839627 0.39813948 4144957
-0.0032311894 0.062828682 0.39807013 4210750
-0.0025127095 0.062817737 0.39800078 4276543
-0.0017944799 0.0628068 0.39793146 4210751
-0.0010765005 0.062795863 0.39786217 4210750
-0.00035877101 0.062784925 0.39779288 4145213
0.00035870855 0.062773995 0.39772364 4145213
0.0010759383 0.062763073 0.39765441 4079677
0.0017929185 0.06275215 0.39758521 4079420
0.0025100526 0.062751316 0.39757994 4013628
0.0032273659 0.062754333 0.39759907 4145214
0.0039447481 0.062757358 0.3976182 4144958
0.0046621989 0.062760368 0.39763731 4079677
0.0053797192 0.062763393 0.39765644 3684662
0.0060973084 0.06276641 0.39767557 3618613
0.0068149669 0.062769428 0.39769471 3815737
0.0075328536 0.062773779 0.39772227 4079165
0.0082520284 0.062787175 0.39780712 4144957
0.0089715095 0.062800571 0.397892 3816249
0.0096915411 0.06281554 0.39798686 3158318
0.010412726 0.062835418 0.39811277 2763816
0.011134367 0.062855303 0.39823878 2697767
0.011856467 0.062875196 0.39836484 2631974
0.01257953 0.062897645 0.39850706 2763047
0.013303644 0.062922642 0.39866543 2894633
0.014028335 0.062947653 0.39882392 3487027
0.014753602 0.062972687 0.39898252 2763561
0.015480943 0.063003838 0.39917988 2499877
0.016209571 0.063037217 0.39939135 2434340
0.016939087 0.063071065 0.39960581 2368548
0.01767008 0.063107431 0.39983621 2368553
0.018401919 0.063143834 0.40006688 2500144
0.019135067 0.063181825 0.40030757 2763314
0.019872081 0.063229345 0.40060866 3816509
0.020609356 0.063274339 0.40089372 4013373
0.021347409 0.063318588 0.40117407 3947577
0.022086494 0.063362896 0.40145478 4342592
0.022829304 0.06341473 0.4017832 4539715
0.023574378 0.063469484 0.4021301 4605507
0.024321256 0.063525669 0.40248609 4671044
0.025070447 0.063584469 0.40285861 4408128
0.025821093 0.063643537 0.4032329 4079162
0.02657574 0.063708968 0.40364742 4342590
0.027336089 0.063784204 0.40412414 4737350
0.028099585 0.063862696 0.40462142 4737350
0.028864967 0.063941382 0.40511996 4868679
0.029633066 0.064022057 0.4056311 5000265
0.030410603 0.064118743 0.40624368 4868679
0.031190492 0.06421572 0.40685812 4803143
0.031972744 0.064312987 0.4074744 4342592
0.032762442 0.064420529 0.40815574 4474178
0.03355667 0.064532056 0.40886235 4408386
0.034354098 0.064644806 0.40957671 4079163
0.035162274 0.064772613 0.41038647 4276799
0.035973653 0.06490092 0.41119942 4342335
0.03679968 0.065049946 0.41214359 4539714
0.037633594 0.065206729 0.41313693 4737094
0.038483843 0.06538517 0.41426751 4803145
0.039358228 0.06559705 0.41560993 4737356
0.040253479 0.065835126 0.41711837 3816010
0.041190531 0.066131584 0.41899666 2631496
0.042215399 0.066555813 0.42168447 2302273
0.043514166 0.06738919 0.42696461 2894905
-0.031642072 0.067477666 0.42269439 1907763
-0.030646788 0.066968903 0.41950738 1578550
-0.029683804 0.066506751 0.41661236 1381178
-0.02882503 0.066260137 0.41506749 1381434
-0.027997008 0.066072941 0.41389486 1512507
-0.027180204 0.065902688 0.41282836 1644349
-0.026371012 0.065741815 0.41182065 1841728
-0.02556501 0.065579809 0.41080579 2104898
-0.024766697 0.065428436 0.40985757 2894147
-0.023977771 0.065293312 0.40901113 3486788
-0.023192095 0.06515874 0.40816814 3289660
-0.022411069 0.065028839 0.40735438 3750461
-0.02164048 0.064921439 0.40668163 4408642
-0.020872843 0.06481567 0.40601906 4474434
-0.020107703 0.064710245 0.40535864 4474432
-0.019348143 0.064615496 0.40476513 4343358
-0.018595131 0.064536043 0.40426743 4409149
-0.017843969 0.064456791 0.40377095 4474940
-0.017095171 0.064379685 0.40328798 4474684
-0.016349807 0.064309239 0.40284669 4343355
-0.015607928 0.064246587 0.4024542 4146232
-0.014868006 0.064186268 0.40207636 4145977
-0.014129471 0.064126059 0.40169922 4014393
-0.013392469 0.064066671 0.40132719 3750970
-0.012657679 0.064011693 0.40098277 3158334
-0.011925651 0.063964851 0.40068936 2499904
-0.011194556 0.063917309 0.40039152 2894661
-0.010464388 0.06386885 0.40008798 3355206
-0.0097353263 0.063820474 0.39978492 3355199
-0.0090083145 0.063778862 0.3995243 3486777
-0.0082835453 0.063747287 0.39932647 3289394
-0.0075594936 0.063715734 0.39912882 3026219
-0.0068361592 0.063684218 0.39893141 3355184
-0.006113539 0.063652731 0.39873415 3881529
-0.0053916336 0.063621275 0.39853713 4144957
-0.0046703173 0.063588165 0.3983297 4078908
-0.0039502913 0.063563779 0.39817694 4342080
-0.0032312735 0.063548379 0.39808047 4407874
-0.0025127749 0.063537307 0.39801112 4276544
-0.0017945266 0.063526243 0.3979418 4079422
-0.0010765285 0.063515179 0.39787251 4145214
-0.00035878032 0.063504115 0.39780322 4145214
0.00035871789 0.063493066 0.39773399 4145214
0.0010759663 0.063482016 0.39766476 4079421
0.0017929651 0.063470967 0.39759555 4079421
0.0025097677 0.063461266 0.39753479 4079420
0.0032270562 0.063465439 0.39756092 4145214
0.0039444505 0.06346979 0.39758819 4144958
0.0046619177 0.063473798 0.39761332 4145214
0.0053793946 0.063476853 0.39763245 4145213
0.00609694 0.063479908 0.39765155 4013371
0.0068145553 0.063482963 0.39767069 3749943
0.007532239 0.063486017 0.39768982 3815736
0.0082503557 0.063491866 0.39772648 4210749
0.0089696907 0.063505411 0.39781132 3750199
0.0096896663 0.063521147 0.39790988 3026732
0.010410711 0.063541234 0.39803573 2566438
0.011132213 0.063561343 0.39816171 2763561
0.011854171 0.063581459 0.39828771 2829354
0.012576587 0.063601598 0.39841384 2763048
0.013299979 0.063624226 0.39855561 2763047
0.014024469 0.063649513 0.39871401 3289648
0.014749534 0.063674815 0.39887252 3224111
0.015475869 0.063703001 0.39904904 2829097
0.016204255 0.063736729 0.39926037 2565924
0.016933409 0.063770503 0.39947191 2368804
0.017663362 0.063804388 0.39968416 2434604
0.018394917 0.063841179 0.39991465 2500402
0.019127317 0.063878022 0.40014544 2763827
0.019862432 0.063920915 0.40041414 3947839
0.020599743 0.063967623 0.40070671 3881531
0.021337444 0.064012334 0.40098679 4144700
0.022076176 0.064057104 0.40126723 4473921
0.022816755 0.064104214 0.40156236 4473922
0.023561152 0.064158827 0.40190446 4474178
0.024307596 0.064215593 0.40226004 4605507
0.025055841 0.064273678 0.40262392 4671300
0.025806038 0.064333364 0.40299779 4013626
0.02655763 0.064393155 0.40337235 3947832
0.02731495 0.06446328 0.40381163 4671299
0.028077831 0.064542547 0.40430817 4737093
0.028842594 0.064622015 0.40480596 4737349
0.029609345 0.0647019 0.4053064 4671302
0.030382099 0.064790741 0.4058629 4868679
0.031161211 0.064888641 0.40647617 4868680
0.031942684 0.06498684 0.40709132 4539972
0.032728732 0.065089725 0.40773579 4474178
0.03352135 0.065200865 0.40843201 4671557
0.03431743 0.065313816 0.40913957 4474178
0.035120569 0.065435164 0.40989971 4210749
0.035930902 0.06556464 0.41071075 4408128
0.036749702 0.06570401 0.41158381 4473921
0.037579674 0.065857448 0.412545 4473922
0.038417507 0.066018432 0.41355342 4539715
0.039286718 0.066226177 0.41485479 4803145
0.040167619 0.0664455 0.41622865 4605771
0.041091613 0.066726752 0.41799048 3092294
0.042061627 0.067071244 0.42014843 2236481
0.043234728 0.067721657 0.42422277 2894906
-0.030776929 0.068013214 0.42128882 1973300
-0.029794471 0.067508996 0.41816556 1513016
-0.028886441 0.067151599 0.41595179 1381179
-0.028044557 0.066933013 0.41459781 1512506
-0.027221633 0.066748932 0.4134576 1578300
-0.026407329 0.06657622 0.41238779 1775679
-0.025600446 0.066412754 0.41137522 2368065
-0.024797147 0.066249095 0.41036147 2894402
-0.024005895 0.066108547 0.40949088 3618369
-0.023219241 0.065972127 0.4086459 3750465
-0.022435827 0.065836281 0.40780443 3158581
-0.021660356 0.065715313 0.40705514 4079933
-0.020891979 0.065608151 0.40639132 4342847
-0.02012611 0.06550134 0.40572971 4408897
-0.019362727 0.065394871 0.40507022 4408896
-0.018607711 0.06530942 0.40454093 4409150
-0.017856026 0.065229155 0.40404376 4408892
-0.017106187 0.065149091 0.40354782 4474940
-0.016359206 0.065073289 0.40307829 4343354
-0.015615722 0.065004982 0.40265518 4212024
-0.014875424 0.064943925 0.40227696 4080440
-0.014136514 0.064882971 0.40189943 4014138
-0.013398991 0.064822145 0.40152264 3619133
-0.012663042 0.064762414 0.40115267 2763583
-0.011930085 0.064711675 0.40083835 2368321
-0.011198724 0.064663596 0.40054056 2499650
-0.01046828 0.064614557 0.40023679 2894399
-0.0097389435 0.064565592 0.39993349 3355198
-0.0090107117 0.064516701 0.39963064 3486519
-0.0082854778 0.064482629 0.39941961 3157548
-0.0075612566 0.064450711 0.3992219 3223599
-0.0068377522 0.064418823 0.39902437 3947579
-0.006114963 0.064386964 0.39882705 4342335
-0.0053928886 0.064355142 0.3986299 4210493
-0.0046714065 0.064321674 0.39842263 4210493
-0.0039509004 0.064291924 0.39823833 4276543
-0.0032314954 0.064270854 0.39810783 4342080
-0.0025128403 0.064256914 0.39802149 4342336
-0.0017945733 0.064245723 0.39795217 4276543
-0.0010765564 0.064234532 0.39788285 4210750
-0.00035878964 0.064223349 0.39781356 4144957
0.00035872721 0.064212173 0.39774433 4079164
0.0010759943 0.064200997 0.3976751 4013371
0.0017930117 0.064189814 0.39760587 3947835
0.0025098182 0.064179637 0.3975428 4013627
0.003226642 0.064174324 0.3975099 4145214
0.0039439439 0.06417872 0.39753714 4210751
0.004661344 0.064183123 0.39756438 4276544
0.0053788428 0.064187519 0.39759165 4408129
0.0060964394 0.064191923 0.39761889 4210495
0.0068141348 0.064196326 0.39764616 3815738
0.007531784 0.064199492 0.3976658 3552566
0.0082494933 0.064202584 0.39768493 3750200
0.0089678727 0.064209968 0.39773068 3487027
0.0096877925 0.064226478 0.39783293 2895403
0.010408698 0.064246789 0.39795876 2895660
0.011130058 0.064267114 0.39808464 3092527
0.011851876 0.064287446 0.39821061 2894892
0.012574151 0.064307801 0.39833668 2631462
0.013296884 0.064328164 0.39846283 2565669
0.014020605 0.064350985 0.39860415 2894633
0.014745469 0.064376555 0.39876258 3421233
0.01547091 0.064402163 0.39892116 3223853
0.016198942 0.064435787 0.39912948 2565927
0.016927857 0.064469919 0.3993409 2368811
0.017657543 0.064504087 0.39955252 2500404
0.018388005 0.064538293 0.39976439 2500150
0.019120038 0.064575225 0.39999315 2500145
0.019853 0.064612493 0.400224 3684410
0.020590138 0.064660259 0.40051988 3749942
0.021327486 0.064705424 0.40079966 4078906
0.022065869 0.064750664 0.40107986 4473921
0.022805285 0.064795963 0.40136048 4473921
0.023548186 0.06484808 0.4016833 4473921
0.024293954 0.064904742 0.40203425 4474434
0.025041288 0.064962178 0.40239006 4605509
0.025791001 0.065022379 0.40276295 4342335
0.026542138 0.065082781 0.40313706 3881783
0.027295012 0.065144099 0.40351689 4210748
0.028056113 0.065221354 0.40399542 4737349
0.028820256 0.06530159 0.40449244 4737093
0.029586466 0.065382436 0.40499321 4803142
0.030355446 0.065465361 0.40550685 4605510
0.031131987 0.065560304 0.40609494 4803143
0.031912681 0.065659426 0.40670893 4868680
0.032695863 0.0657591 0.40732634 4539971
0.033486269 0.065868594 0.40800458 4671558
0.034281284 0.06598226 0.40870863 4737351
0.035080563 0.066099167 0.4094328 4342592
0.035888255 0.06622678 0.41022325 4342336
0.036700748 0.066357918 0.41103557 4408128
0.037528582 0.066511057 0.41198412 4539714
0.038361248 0.06666664 0.41294783 4210750
0.039215464 0.066853032 0.41410241 4276800
0.040091868 0.067069575 0.41544372 4539973
0.040993173 0.067319065 0.41698912 4013382
0.041942049 0.067636281 0.41895401 2631485
-0.030926956 0.069108382 0.42334247 2697526
-0.029920233 0.068551421 0.41993064 1841973
-0.02897531 0.068110794 0.41723144 1446969
-0.028097697 0.067809105 0.4153834 1512509
-0.027267152 0.067607597 0.41414899 1512764
-0.026443746 0.067412928 0.41295651 1644349
-0.025635982 0.067248009 0.41194624 2434111
-0.024831481 0.067082062 0.41092968 2763071
-0.024034087 0.06692569 0.40997177 3552577
-0.023246454 0.066787429 0.40912482 3947844
-0.022462066 0.066649735 0.40828136 3619134
-0.021680931 0.066512682 0.40744179 3290420
-0.020910738 0.066400766 0.40675619 4211773
-0.020144196 0.066292718 0.40609434 4277311
-0.019380147 0.066185035 0.40543467 4408896
-0.018620105 0.066083118 0.40481037 4408896
-0.0178681 0.06600257 0.40431696 4540479
-0.017117739 0.065921508 0.40382037 4474940
-0.016369218 0.065840632 0.40332496 4343354
-0.015624008 0.065766171 0.40286884 4146232
-0.01488285 0.065702334 0.40247777 4080184
-0.014143565 0.065640643 0.40209988 3882811
-0.013405666 0.065579072 0.40172267 3290430
-0.012669152 0.065517612 0.40134621 2631744
-0.011934522 0.065459043 0.40098742 2367812
-0.011202893 0.065410443 0.40068969 2368067
-0.010472175 0.065360814 0.40038571 2828354
-0.0097425645 0.065311268 0.40008217 3552579
-0.0090140598 0.065261796 0.39977911 3947327
-0.0082874103 0.065218315 0.3995128 3815480
-0.0075630201 0.065186031 0.399315 3684406
-0.0068393457 0.06515377 0.39911738 3882042
-0.0061163874 0.065121539 0.39891994 4145212
-0.0053941444 0.065089338 0.39872271 4210492
-0.004672497 0.065055534 0.39851561 4210493
-0.0039515477 0.065020919 0.39830357 4210750
-0.0032319936 0.064998984 0.39816919 4342336
-0.0025129491 0.064977683 0.39803872 4276800
-0.00179462 0.064965241 0.39796251 4342592
-0.0010765844 0.064953923 0.39789319 4276542
-0.00035879901 0.064942621 0.39782393 4144957
0.00035873655 0.064931311 0.39775467 4013627
0.0010760223 0.064920008 0.39768544 3750456
0.0017930582 0.064908713 0.39761621 3947834
0.0025098687 0.064898036 0.39755082 4079419
0.0032265312 0.064889126 0.39749625 4144956
0.0039434377 0.064887471 0.39748612 4210750
0.0046607456 0.064891919 0.39751336 4210751
0.0053781518 0.064896367 0.3975406 4079166
0.0060956571 0.064900815 0.39756787 3684410
0.0068132598 0.064905263 0.39759511 3355447
0.0075309617 0.064909719 0.39762238 3158068
0.0082487613 0.064914167 0.39764962 3158323
0.0089666592 0.064918615 0.39767689 2895405
0.0096859196 0.064931534 0.39775601 2698282
0.010406684 0.064952061 0.39788178 3224882
0.011127905 0.064972609 0.39800763 3750714
0.011849582 0.064993165 0.39813355 3223600
0.012571717 0.065013736 0.39825958 2696999
0.013294308 0.065034322 0.39838567 2434083
0.014017357 0.065054916 0.39851183 2763047
0.014741406 0.065077916 0.3986527 3223853
0.015466645 0.065103784 0.39881119 3092014
0.016193634 0.065134391 0.39899868 2368297
0.016922306 0.06516888 0.39920995 2368304
0.01765175 0.065203398 0.39942142 2565690
0.018381968 0.065237962 0.39963314 2434103
0.019112961 0.065272562 0.39984509 2565935
0.019845443 0.065309547 0.40007165 3355443
0.020580189 0.065351129 0.40032634 3684405
0.02131754 0.065397881 0.40061274 4013369
0.02205557 0.065443575 0.40089267 4276541
0.022794632 0.065489344 0.40117303 4473664
0.023535246 0.065536611 0.40146258 4473920
0.024280326 0.065593116 0.40180874 4408384
0.025027229 0.065651134 0.40216413 4474178
0.02577598 0.065710597 0.40252838 4671301
0.026526665 0.065771595 0.40290204 3881784
0.027278747 0.065832712 0.40327641 3882040
0.028034424 0.065899104 0.40368313 4474433
0.028798029 0.065980293 0.4041805 4737350
0.029563617 0.066061914 0.40468046 4737350
0.030331107 0.066143736 0.40518171 4539974
0.031103784 0.066232763 0.40572706 4737093
0.031882733 0.066330746 0.40632728 4868936
0.032665011 0.06643109 0.40694195 4803143
0.033452615 0.066537626 0.40759456 4671558
0.034245212 0.066649288 0.40827858 4802887
0.035042252 0.066764712 0.40898564 4802887
0.035846975 0.066889711 0.40975139 4342336
0.036657151 0.067019641 0.41054729 4342336
0.037477631 0.067162879 0.41142476 4342335
0.038308982 0.067319669 0.4123852 4342335
0.039145533 0.067479439 0.41336393 3881785
0.040019054 0.067695782 0.41468918 4013628
0.040904544 0.06792406 0.41608757 4210752
0.041848283 0.068239093 0.41801739 3158073
-0.030048074 0.06960503 0.42172489 2368563
-0.029071072 0.069090992 0.41861039 1710390
-0.028160781 0.068712309 0.416316 1447226
-0.02731338 0.068470523 0.4148511 1578557
-0.026487775 0.068271309 0.41364408 1710138
-0.025671419 0.068085067 0.41251567 2499646
-0.02486591 0.06791734 0.41149944 3092287
-0.02406418 0.067749925 0.41048509 3158333
-0.023273729 0.067604639 0.40960485 4013381
-0.022488367 0.067465104 0.40875942 4079687
-0.021705665 0.067324348 0.40790662 3290423
-0.020929769 0.067195572 0.40712637 3817017
-0.020162201 0.067085139 0.40645728 4343102
-0.019397439 0.066976063 0.40579641 4343103
-0.018635161 0.066867344 0.40513769 4408639
-0.0178797 0.06677521 0.40457946 4474687
-0.017129306 0.06669496 0.40409324 4408893
-0.016380267 0.066613086 0.40359718 4080184
-0.015633063 0.066531412 0.40310234 3948853
-0.014890282 0.066461504 0.40267879 3948856
-0.014150621 0.066399068 0.40230051 3619390
-0.013412349 0.066336751 0.40192294 2894912
-0.012675461 0.066274554 0.40154609 2434114
-0.011939953 0.066212468 0.40116993 2368068
-0.011207066 0.06615784 0.40083894 2433604
-0.010476072 0.066107631 0.40053472 2631233
-0.0097461883 0.066057496 0.40023097 3618883
-0.0090174098 0.066007435 0.39992768 4145218
-0.0082897348 0.065957449 0.39962482 4276544
-0.007564784 0.065921687 0.39940813 4144957
-0.0068409401 0.065889053 0.39921042 4079677
-0.0061178128 0.065856457 0.39901289 4211005
-0.0053954003 0.06582389 0.39881557 4211005
-0.0046735876 0.065789737 0.39860865 4342079
-0.0039524692 0.065754719 0.39839649 4276543
-0.0032324921 0.065727338 0.39823061 4342336
-0.0025133365 0.065705799 0.39810008 4408128
-0.0017946668 0.065684803 0.39797288 4408128
-0.0010766125 0.065673359 0.39790356 4408127
-0.00035880832 0.065661922 0.39783427 4276541
0.00035874586 0.065650493 0.39776501 4079420
0.0010760502 0.065639064 0.39769578 3881785
0.0017931049 0.065627642 0.39762655 4013371
0.0025099195 0.065616466 0.39755884 4144956
0.0032265964 0.065607458 0.39750427 4210749
0.0039430768 0.065598458 0.39744973 4144957
0.0046601472 0.065600537 0.39746234 4079422
0.0053774617 0.065605037 0.39748958 3882043
0.0060948743 0.06560953 0.39751682 3487545
0.0068123857 0.06561403 0.39754409 3224376
0.0075299949 0.065618522 0.39757133 2895156
0.0082477024 0.065623023 0.39759856 2763312
0.0089655081 0.065627523 0.39762583 2631980
0.0096835699 0.065633088 0.39765954 2566441
0.01040409 0.065653399 0.39778262 3355955
0.01112549 0.065676279 0.39792126 3882042
0.01184729 0.065698609 0.39805654 3684151
0.012569283 0.065719396 0.39818248 2697256
0.013291734 0.065740198 0.39830852 2434083
0.014014643 0.065761015 0.39843464 2499875
0.014738009 0.065781847 0.39856085 2697255
0.015462383 0.065805025 0.39870128 2499880
0.016188327 0.065832533 0.39886796 2368043
0.016916759 0.065867379 0.39907908 2434097
0.017645961 0.065902263 0.39929044 2565685
0.018375937 0.065937184 0.39950201 2499888
0.019106686 0.065972142 0.39971381 2303015
0.01983821 0.066007137 0.39992586 2763561
0.020571133 0.066044167 0.40015021 3487028
0.021307603 0.066089682 0.40042597 3881785
0.022045281 0.066135846 0.40070567 4079162
0.022783989 0.066182069 0.40098572 4342078
0.023523733 0.06622836 0.40126619 4342079
0.024266711 0.066280715 0.40158343 4473920
0.025013182 0.066339314 0.40193844 4408128
0.025760975 0.06639801 0.40229407 4539715
0.026511211 0.066459611 0.40266731 4342336
0.02726284 0.066521332 0.40304127 3619126
0.028015865 0.066583164 0.40341589 4276798
0.028775835 0.066657946 0.403869 4671813
0.029540807 0.066740341 0.40436822 4737606
0.030307675 0.066822946 0.40486869 4803143
0.031077759 0.066908583 0.40538758 4605509
0.031852935 0.067001 0.40594751 4803143
0.03263434 0.067102067 0.40655985 4934729
0.033419035 0.06720531 0.40718538 4737351
0.034210369 0.06731718 0.40786317 4802887
0.035005357 0.067431368 0.40855503 4802887
0.035806611 0.067552678 0.40929002 4605764
0.036614574 0.067681484 0.41007045 4276542
0.037427261 0.067813754 0.41087183 4276542
0.038256917 0.067971028 0.41182473 4342335
0.039090902 0.06812986 0.41278705 4013627
0.039953351 0.068331428 0.41400835 3618870
0.040843938 0.068572849 0.41547108 3815992
-0.030230286 0.070792444 0.42428222 2960439
-0.029195528 0.0701451 0.4204025 2302516
-0.02824623 0.06967403 0.41757923 1644599
-0.027364731 0.069348976 0.41563106 1710139
-0.026532639 0.06913434 0.4143447 2039353
-0.02570961 0.068931565 0.41312939 2368312
-0.024900438 0.068754941 0.41207081 3289919
-0.02409751 0.068585217 0.41105363 3224124
-0.023301069 0.06842377 0.41008601 3553087
-0.022514729 0.068282373 0.40923858 3947844
-0.021730963 0.068139464 0.40838206 3750464
-0.020951651 0.068000972 0.40755203 3290164
-0.020180235 0.067878976 0.40682086 4145979
-0.019414762 0.067768507 0.4061588 4277310
-0.018651776 0.067658402 0.40549892 4211517
-0.0178927 0.067554072 0.40487361 4343102
-0.017140139 0.067466505 0.40434879 4408896
-0.016391065 0.067385487 0.40386325 4079931
-0.01564361 0.067303903 0.40337425 3882552
-0.014898128 0.067223258 0.40289095 3948349
-0.014157685 0.067158252 0.40250134 3224128
-0.013419038 0.06709519 0.40212339 2565442
-0.012681777 0.067032248 0.40174615 2302021
-0.011945841 0.066969104 0.40136772 2302532
-0.011211325 0.066906296 0.40099129 2433860
-0.010479973 0.066854998 0.40068385 2697282
-0.0097498139 0.066804282 0.40037987 3618627
-0.0090207616 0.066753641 0.40007636 4408130
-0.0082928147 0.066703074 0.3997733 4473666
-0.0075665489 0.066657692 0.39950132 4407873
-0.006842535 0.066624686 0.3993035 4408128
-0.0061192387 0.066591717 0.39910591 4408384
-0.0053966576 0.066558778 0.3989085 4408128
-0.0046746787 0.066524275 0.3987017 4408128
-0.0039533917 0.066488862 0.39848948 4342591
-0.0032329906 0.066455923 0.39829203 4276542
-0.0025137241 0.066434138 0.39816147 4408128
-0.0017949288 0.066412367 0.398031 4408128
-0.0010766404 0.066392832 0.3979139 4408128
-0.00035881766 0.066381268 0.39784461 4342335
0.00035875518 0.066369712 0.39777535 4210749
0.0010760783 0.066358157 0.39770612 4079164
0.0017931516 0.066346608 0.39763689 4210750
0.0025099753 0.06633506 0.39756769 4210749
0.0032266614 0.066325821 0.39751229 4210749
0.003943156 0.066316716 0.39745775 4144957
0.0046595498 0.066308975 0.39741135 3947835
0.005376772 0.06631352 0.39743859 3815994
0.0060940925 0.066318065 0.39746583 3618874
0.0068115108 0.066322602 0.39749303 3553342
0.0075290282 0.066327155 0.3975203 3223865
0.0082466435 0.066331699 0.39754754 2960436
0.008964357 0.066336244 0.39757478 2697519
0.0096822632 0.06634143 0.39760587 2763309
0.010401466 0.066354178 0.39768228 3486773
0.01112214 0.066374063 0.39780143 3881273
0.011843824 0.06639719 0.39794007 3684152
0.01256601 0.066420339 0.3980788 2829099
0.013288701 0.066443503 0.39821762 2500133
0.014011896 0.066466689 0.39835656 2368289
0.014735154 0.066487886 0.39848363 2302754
0.015458838 0.066508956 0.39860988 2171171
0.016183536 0.066532314 0.39874989 2170917
0.016911214 0.066565424 0.39894831 2171176
0.017640175 0.066600665 0.39915952 2171433
0.018369909 0.066635944 0.39937097 2105636
0.019100415 0.06667126 0.39958262 2040095
0.019831697 0.066706613 0.39979452 2369060
0.020563751 0.066742003 0.40000662 3224113
0.02129763 0.066780701 0.40023857 3882042
0.022035001 0.066827461 0.4005188 4144956
0.022773359 0.066874146 0.40079862 4342335
0.023512749 0.066920899 0.40107882 4276030
0.024253381 0.066968292 0.40136284 4407871
0.024999155 0.067026719 0.40171301 4342335
0.025746515 0.067085989 0.40206826 4342334
0.026495775 0.067146823 0.40243286 4605765
0.027246952 0.067209147 0.40280637 3750456
0.027999524 0.067271583 0.40318057 3882041
0.028755095 0.067337885 0.40357792 4606020
0.029518032 0.067417726 0.40405646 4802886
0.030284278 0.067501105 0.40455616 4868679
0.031052422 0.067584679 0.40505707 4737095
0.031826269 0.067676552 0.40560767 4802887
0.032603726 0.067771792 0.40617847 4934730
0.033386808 0.067874283 0.40679273 4934729
0.034176003 0.067984521 0.40745345 4737094
0.034969121 0.068097763 0.40813214 4802887
0.035766527 0.068214506 0.40883183 4803143
0.036573317 0.068344072 0.40960836 4539714
0.037383374 0.068474494 0.41039002 4079163
0.038204998 0.068620622 0.41126582 3947577
0.039042987 0.068790026 0.4122811 4145214
0.039898187 0.068982847 0.41343674 3750199
-0.029320754 0.071207546 0.42220569 2697268
-0.028341852 0.070665687 0.41899288 1908021
-0.027426315 0.070256449 0.41656643 1710136
-0.02657851 0.070002556 0.41506103 2302778
-0.025753105 0.069794647 0.41382828 2368563
-0.02493505 0.069594845 0.41264361 2894902
-0.024130933 0.069422834 0.41162375 3487551
-0.02333077 0.069251657 0.41060877 3355964
-0.022541139 0.069101527 0.40971863 3618879
-0.021756321 0.068956479 0.4088586 3816001
-0.020974793 0.068812042 0.4080022 3290166
-0.02020085 0.068682894 0.40723646 3685173
-0.019432116 0.068562374 0.40652186 4145979
-0.018668421 0.068450876 0.40586078 4079931
-0.017907303 0.068340115 0.40520406 4013882
-0.017151557 0.068241298 0.40461814 4145467
-0.016401419 0.06815701 0.40411839 4079418
-0.015653659 0.068075217 0.40363339 3553079
-0.014907692 0.067993619 0.40314957 3355453
-0.014164756 0.067918189 0.40270236 2762817
-0.013425692 0.067854173 0.4023228 2367812
-0.012687935 0.067789823 0.40194124 2302278
-0.011951575 0.067725591 0.4015604 2302532
-0.01121661 0.067661487 0.4011803 2433860
-0.010483986 0.067603633 0.40083727 2762564
-0.0097534424 0.06755162 0.40052888 3750213
-0.0090241162 0.06750039 0.40022513 4342340
-0.0082958965 0.067449242 0.39992186 4539460
-0.0075687785 0.067398168 0.39961904 4539715
-0.0068441313 0.067360662 0.39939663 4605507
-0.0061206655 0.067327321 0.39919895 4539714
-0.0053979154 0.067294009 0.39900145 4474177
-0.0046757706 0.067259163 0.39879483 4473920
-0.0039543146 0.067223348 0.39858249 4342334
-0.0032336267 0.067187577 0.39837039 4210749
-0.0025141116 0.067162693 0.39822286 4408128
-0.0017952055 0.067140684 0.39809236 4408127
-0.0010767704 0.067118682 0.39796191 4408128
-0.00035882698 0.067100644 0.39785495 4408128
0.00035876452 0.067088962 0.39778569 4342336
0.0010761062 0.067077287 0.39771646 4145213
0.0017931982 0.067065611 0.39764723 4210750
0.0025100405 0.067053944 0.39757803 4211006
0.0032267265 0.067044206 0.3975203 4144956
0.0039432356 0.067035004 0.39746577 4079163
0.0046595484 0.06702581 0.39741126 3947578
0.0053760814 0.067021817 0.39738756 3882043
0.0060933102 0.067026414 0.3974148 3684665
0.0068106372 0.067031004 0.39744204 3487290
0.007528062 0.067035601 0.39746928 3289657
0.0082455855 0.067040198 0.39749652 3223865
0.0089632068 0.067044787 0.39752376 2960692
0.0096810339 0.067050122 0.39755538 2828847
0.010399109 0.067056321 0.39759216 2894637
0.011119445 0.067075357 0.39770502 3289139
0.011840257 0.067094788 0.39782023 3157810
0.012562225 0.067118175 0.39795887 2565928
0.013284695 0.06714157 0.3980976 2368548
0.014007672 0.067164987 0.39823645 2236961
0.014731151 0.067188419 0.39837539 2105375
0.015455136 0.067211866 0.39851442 2105633
0.016179627 0.067235336 0.39865357 2039842
0.016905675 0.067263007 0.39881763 2039843
0.017634394 0.067298606 0.39902869 1973794
0.018363835 0.067334063 0.39923894 1908256
0.019094039 0.067369528 0.39944923 1974303
0.01982501 0.06740503 0.39965972 2434854
0.02055675 0.067440569 0.39987043 3750458
0.021289267 0.067476146 0.4000814 4013629
0.022024743 0.067518473 0.40033236 4079420
0.022762738 0.06756559 0.4006117 4342591
0.023501776 0.067612797 0.40089163 4144957
0.024241846 0.067660078 0.40117195 4079164
0.024985142 0.067713358 0.40148786 4276798
0.02573207 0.067773201 0.40184268 4079162
0.026480356 0.067833237 0.40219867 4408128
0.02723108 0.067896158 0.40257174 4342593
0.0279832 0.067959197 0.40294552 3290160
0.02873772 0.068024732 0.40333405 4276799
0.029496385 0.068096593 0.40376014 4737093
0.030260919 0.068178214 0.4042441 4868678
0.03102844 0.06826257 0.40474427 4934471
0.031799648 0.068350971 0.4052684 4737096
0.032575592 0.06844534 0.40582797 4868936
0.033355471 0.068543658 0.4064109 5000522
0.034141704 0.068650521 0.40704453 4868680
0.034933969 0.068764754 0.40772185 4868937
0.035728879 0.068879388 0.40840152 4868680
0.036532149 0.069005169 0.40914732 4671301
0.037341215 0.069136709 0.40992722 4013370
0.038157202 0.0692757 0.41075134 3618868
0.039000746 0.06945847 0.41183501 3882042
0.039849713 0.069643892 0.41293445 4013370
-0.028469522 0.071743198 0.42088029 2302516
-0.027510371 0.071225479 0.41784313 1776182
-0.026632193 0.070894144 0.41589937 2105145
-0.02579638 0.070659652 0.41452369 2697529
-0.024975175 0.070452355 0.41330761 2631474
-0.024164461 0.070262812 0.41219565 3224378
-0.023363097 0.070089296 0.41117769 3487550
-0.022567529 0.069922343 0.4101983 3421757
-0.021781739 0.069775403 0.40933627 3355706
-0.020999245 0.069629073 0.40847784 3026739
-0.020221978 0.069490068 0.40766236 3355954
-0.019451212 0.069363758 0.40692136 3948088
-0.018685095 0.069244765 0.4062233 3948346
-0.017923174 0.069132246 0.40556318 3750456
-0.017165545 0.069027409 0.40494817 3421491
-0.016411787 0.068929508 0.40437382 2960941
-0.015663542 0.068846732 0.40388823 2960692
-0.014917092 0.068764158 0.40340382 2894654
-0.014172431 0.068681777 0.40292054 2433603
-0.013432153 0.068612888 0.40251639 2367557
-0.012694034 0.068547785 0.40213445 2367813
-0.011957316 0.068482809 0.40175328 2368068
-0.011221992 0.068417951 0.40137279 2433860
-0.010488153 0.068353817 0.40099657 2894146
-0.0097572049 0.068300433 0.40068337 3749956
-0.0090274746 0.068247706 0.40037405 4408133
-0.0082989801 0.068195961 0.40007052 4605508
-0.0075715901 0.068144314 0.39976749 4605508
-0.006845728 0.06809698 0.39948982 4473922
-0.0061220923 0.068063259 0.39929202 4408384
-0.0053991731 0.068029583 0.39909443 4408384
-0.0046768626 0.067994386 0.39888796 4342335
-0.0039552376 0.067958176 0.39867553 4210749
-0.0032343811 0.067922004 0.39846334 4210749
-0.0025144995 0.067891486 0.39828429 4473663
-0.0017954822 0.067869231 0.39815372 4407871
-0.0010769363 0.067846984 0.39802325 4407871
-0.00035886117 0.067824759 0.39789286 4342336
0.00035877383 0.067808256 0.39779603 4342336
0.0010761343 0.067796454 0.3977268 4211007
0.0017932449 0.067784652 0.39765757 4145213
0.002510106 0.067772858 0.39758837 4079676
0.0032267915 0.067762621 0.39752832 4013626
0.0039433152 0.067753322 0.39747378 4079162
0.004659642 0.067744032 0.39741924 3947833
0.0053757727 0.067734741 0.39736474 3947579
0.0060925283 0.067734577 0.39736381 3816251
0.0068097631 0.067739226 0.39739105 3487287
0.0075270957 0.06774386 0.39741826 3487548
0.0082445266 0.067748502 0.3974455 3487549
0.0089620566 0.067753151 0.39747274 3421755
0.0096798046 0.067758627 0.3975049 2961203
0.010397678 0.067764185 0.39753747 2829102
0.011116924 0.067777373 0.39761487 2829103
0.011837505 0.067796618 0.39772776 2829360
0.012558496 0.067815877 0.39784074 2566187
0.013280693 0.06783922 0.39797768 2434343
0.01400345 0.067862876 0.39811644 2303013
0.01472671 0.067886539 0.39825529 2171426
0.015450476 0.067910232 0.39839426 2171170
0.016174745 0.067933924 0.39853328 2171172
0.016899826 0.067958876 0.39867964 2171173
0.017627524 0.067991883 0.39887327 2105379
0.01835667 0.06802766 0.39908317 2039841
0.019086583 0.068063475 0.39929327 2237219
0.019817265 0.068099335 0.39950362 3092528
0.020548718 0.068135224 0.39971417 3882043
0.021280941 0.068171151 0.39992493 4013372
0.022014817 0.068209842 0.40015194 3947578
0.022752257 0.068256773 0.40042725 4013370
0.023490906 0.06830433 0.40070623 4145213
0.024230585 0.068351947 0.4009856 3684407
0.024971295 0.068399638 0.40126535 3947833
0.025717644 0.068459645 0.40161738 4013369
0.026465461 0.068520166 0.40197244 4079162
0.027215229 0.068582378 0.4023374 4539715
0.027966896 0.068646014 0.40271074 3947834
0.028720831 0.068711862 0.40309703 3882041
0.029477475 0.068780772 0.4035013 4605763
0.030238343 0.068855986 0.40394253 4802885
0.031004496 0.06893941 0.40443191 4934215
0.031773295 0.069024742 0.40493253 4737352
0.032548331 0.069119483 0.40548834 4802887
0.033325728 0.069214977 0.40604854 4934729
0.034108076 0.06931641 0.4066436 4934730
0.034898888 0.069430418 0.40731242 4934729
0.035692934 0.069546029 0.40799063 4868680
0.036491077 0.069664784 0.40868732 4671301
0.037304033 0.069806553 0.40951902 4211006
0.038127042 0.069961272 0.41042668 3552819
0.038963534 0.070134357 0.41144207 3750455
-0.028621631 0.072889753 0.42312899 2763062
-0.027614262 0.072251014 0.41942108 1907510
-0.026690966 0.07180246 0.41681719 1841463
-0.025843423 0.071537592 0.41527963 2763324
-0.025016636 0.071316078 0.41399375 2829111
-0.024198115 0.071105227 0.41276973 2763570
-0.023395555 0.070929386 0.41174895 3290426
-0.022596922 0.070754297 0.41073257 3422013
-0.021807216 0.07059624 0.40981504 3224377
-0.021023756 0.070448026 0.40895462 2697774
-0.020243578 0.070300423 0.4080978 3092272
