# .PCD v0.7 - Point Cloud Data file format
VERSION 0.7
FIELDS x y z rgb
SIZE 4 4 4 4
TYPE F F F U
COUNT 1 1 1 1
WIDTH 1148
HEIGHT 1
VIEWPOINT 0 0 0 1 0 0 0
POINTS 1148
DATA ascii
-0.13093501 0.0957959 0.46382177 7363403
-0.13038522 0.096007124 0.46484444 7101519
-0.18072623 0.10059701 0.48285058 6308411
-0.17699771 0.098998718 0.47517902 5384999
-0.17353992 0.097537033 0.46816316 5978415
-0.17097412 0.096564844 0.4634968 6508096
-0.16883613 0.095825911 0.45995003 6574403
-0.16649729 0.094965123 0.45581838 3618359
-0.16429932 0.094176538 0.45203328 136746
-0.1629834 0.093888193 0.45064926 5419
-0.16182351 0.093687288 0.44968498 5419
-0.16066855 0.09348724 0.44872478 5419
-0.15956664 0.093316182 0.44790372 5418
-0.15850076 0.093164571 0.44717601 5418
-0.15748875 0.093043223 0.44659355 5676
-0.15667182 0.09303648 0.44656119 5677
-0.15585501 0.093029737 0.44652882 5677
-0.15504506 0.09302704 0.44651586 5678
-0.15426604 0.093042962 0.4465923 5935
-0.15348676 0.093058899 0.44666877 5935
-0.15270719 0.093074836 0.44674528 5935
-0.15192737 0.093090773 0.44682178 5935
-0.15114728 0.093106724 0.44689834 5935
-0.15036692 0.093122676 0.4469749 5935
-0.14958629 0.093138635 0.4470515 5935
-0.14880541 0.093154602 0.44712815 5935
-0.14802425 0.093170568 0.4472048 5935
-0.14724281 0.09318655 0.44728148 5935
-0.14646111 0.093202524 0.44735816 5935
-0.14567915 0.093218513 0.4474349 5935
-0.14490059 0.093236871 0.44752303 5934
-0.14423245 0.093326882 0.44795507 5934
-0.14356303 0.093417078 0.44838798 5934
-0.14289233 0.093507439 0.44882172 5934
-0.1422203 0.093597978 0.4492563 5934
-0.14154699 0.093688697 0.44969171 5934
-0.14087236 0.093779579 0.45012796 5934
-0.14019643 0.093870647 0.45056507 71470
-0.13951993 0.093962409 0.45100549 1910837
-0.13884793 0.094058283 0.45146567 4472895
-0.13819373 0.094167404 0.45198944 6312263
-0.13759181 0.094313674 0.45269153 6838605
-0.13704999 0.094503134 0.45360088 6643029
-0.13650601 0.094693355 0.45451394 6052952
-0.13595982 0.094884343 0.45543066 5987160
-0.13541143 0.095076106 0.45635107 5987416
-0.13486081 0.095268644 0.45727524 6118488
-0.13430385 0.095459051 0.45818916 6904656
-0.13374311 0.095649093 0.45910132 7363403
-0.1331801 0.09583988 0.46001709 7363403
-0.13261485 0.096031442 0.46093655 7363403
-0.13204733 0.096223764 0.46185967 7363403
-0.13147755 0.096416868 0.46278653 6903367
-0.13103645 0.096707411 0.4641811 7166282
-0.13040312 0.096858904 0.46490824 7101003
-0.13254878 0.099089861 0.47561651 6510156
-0.18169631 0.10201263 0.48544237 5718588
-0.17812376 0.10049113 0.4782021 5517614
-0.17438357 0.09885978 0.47043908 5582118
-0.17147489 0.097686179 0.46485433 6309947
-0.16918185 0.096853495 0.46089187 6574403
-0.16693747 0.096040569 0.45702344 5785920
-0.16446231 0.095086157 0.45248172 924973
-0.16291426 0.094660908 0.45045811 5419
-0.16175501 0.094458438 0.44949463 5418
-0.1606731 0.094299324 0.44873747 5418
-0.15960345 0.094145827 0.44800705 5418
-0.15853727 0.093992829 0.44727898 5418
-0.15747461 0.093840368 0.44655347 5419
-0.15665777 0.093833573 0.44652113 5677
-0.15584104 0.093826771 0.44648877 5677
-0.15502442 0.093819976 0.44645643 5677
-0.15420793 0.093813181 0.44642407 5677
-0.15339425 0.093808033 0.44639957 5678
-0.15261513 0.093824081 0.44647595 5935
-0.15183577 0.093840145 0.4465524 5935
-0.15105613 0.093856208 0.44662884 5935
-0.15027623 0.093872286 0.44670534 5935
-0.14949606 0.093888365 0.44678184 5935
-0.14871563 0.093904443 0.44685838 5935
-0.14793491 0.093920536 0.44693494 5935
-0.14715394 0.09393663 0.44701153 5935
-0.14637271 0.093952723 0.44708812 5935
-0.1455912 0.093968831 0.44716477 5934
-0.14490904 0.094049595 0.4475491 5934
-0.14424089 0.09414041 0.44798124 5934
-0.14357142 0.094231389 0.44841418 5934
-0.14290068 0.09432254 0.44884795 5934
-0.14222863 0.094413877 0.44928259 5934
-0.14155528 0.094505392 0.44971806 465712
-0.14088543 0.094600298 0.45016971 2961977
-0.14021607 0.094696648 0.45062819 5524035
-0.13954534 0.094793186 0.45108759 6444105
-0.13888942 0.094900981 0.45160055 6641484
-0.13824266 0.095016345 0.45214951 6707792
-0.13759433 0.095131986 0.45269981 6445908
-0.1370229 0.095302492 0.45351121 6052952
-0.13647896 0.095494293 0.4544239 5987160
-0.13593283 0.09568686 0.45534027 5987416
-0.1353845 0.095880203 0.45626032 6052952
-0.13483238 0.096073233 0.45717886 6118488
-0.13427392 0.096264064 0.458087 6839121
-0.13371322 0.096455663 0.45899874 7363403
-0.13315028 0.096648023 0.45991412 7363403
-0.13258511 0.096841156 0.46083316 7166025
-0.13221036 0.097176701 0.46242991 7034439
-0.13166636 0.097391307 0.46345115 7429196
-0.13099682 0.097515211 0.46404076 7429196
-0.1305048 0.097773686 0.46527076 7034696
-0.13013472 0.098127477 0.46695429 7100746
-0.18274078 0.10347972 0.48823291 5719100
-0.17908135 0.10189859 0.48077291 5715764
-0.17536665 0.10027047 0.47309121 5187364
-0.17213252 0.098902546 0.46663713 5979185
-0.16952902 0.097885303 0.46183762 6574146
-0.16732779 0.097091436 0.45809203 6508611
-0.16483702 0.096120842 0.45351264 3552567
-0.16286066 0.095442034 0.4503099 70954
-0.1617837 0.095286138 0.44957435 5418
-0.16071023 0.095130742 0.44884118 5418
-0.15964028 0.094975859 0.44811043 5418
-0.15857379 0.094821483 0.44738203 5418
-0.15751077 0.094667599 0.44665599 5419
-0.15664372 0.094630525 0.44648108 5677
-0.15582706 0.094623663 0.44644871 5677
-0.15501052 0.094616808 0.44641638 5677
-0.1541941 0.094609961 0.44638404 5677
-0.1533778 0.094603106 0.44635171 5677
-0.15256162 0.094596252 0.44631937 5677
-0.15174556 0.094589405 0.44628707 5678
-0.15096509 0.094604798 0.44635969 5935
-0.15018564 0.094620988 0.44643608 5935
-0.14940594 0.094637185 0.44651249 5935
-0.14862595 0.094653383 0.44658893 5935
-0.1478457 0.094669595 0.44666541 5935
-0.14706519 0.094685808 0.44674191 5935
-0.1462844 0.09470202 0.44681841 5935
-0.14558439 0.094771005 0.44714388 5934
-0.14491749 0.094862424 0.44757521 5934
-0.14424929 0.094954021 0.44800738 5934
-0.14357981 0.09504579 0.44844037 71470
-0.14291124 0.095139213 0.44888115 1451059
-0.14224586 0.095235832 0.44933701 4013117
-0.14157912 0.095332645 0.44979379 6312263
-0.14091103 0.095429659 0.45025152 6575434
-0.14024158 0.095526874 0.45071018 6838606
-0.13958392 0.095633298 0.45121232 6576721
-0.13893856 0.095749445 0.45176032 6183253
-0.13829163 0.095865875 0.45230967 5855319
-0.13764313 0.095982596 0.45286036 5855574
-0.13699582 0.096101545 0.45342159 5921367
-0.13645193 0.09629491 0.4543339 5987159
-0.13590586 0.096489057 0.45524991 5987416
-0.13535757 0.096683979 0.45616958 6052696
-0.1348024 0.096876338 0.45707718 6052696
-0.13424398 0.097068727 0.45798489 6773585
-0.13368335 0.097261883 0.45889622 7166025
-0.13326737 0.097563341 0.46031854 6837061
-0.13296029 0.097948804 0.46213722 7034439
-0.1322943 0.098073065 0.46272349 7429196
-0.13162662 0.098197639 0.46331125 7429196
-0.13097396 0.098335095 0.46395978 7231818
-0.13060664 0.098689899 0.46563381 7034696
-0.13023664 0.099047281 0.46732 5261121
-0.18399559 0.105077 0.4915854 5129020
-0.18002345 0.10330644 0.48330212 5978676
-0.17642675 0.10173514 0.47595108 4990502
-0.17301312 0.10025454 0.46902436 5582632
-0.16993307 0.098953649 0.46293834 6441790
-0.16767284 0.098119669 0.45903668 6574403
-0.16534756 0.097239137 0.45491728 5851712
-0.1630078 0.096341267 0.45071673 333611
-0.1618358 0.096128032 0.44971916 5418
-0.16074739 0.095962547 0.44894496 5418
-0.15967712 0.095806271 0.44821385 5418
-0.15861033 0.095650509 0.44748512 5418
-0.157547 0.095495239 0.44675875 5418
-0.15662967 0.095427327 0.44644102 5677
-0.15581308 0.09542042 0.44640869 5677
-0.15499662 0.095413506 0.44637635 5677
-0.15418027 0.095406592 0.44634402 5677
-0.15336405 0.095399685 0.44631168 5677
-0.15254794 0.095392779 0.44627938 5677
-0.15173194 0.095385864 0.44624704 5677
-0.15091607 0.095378958 0.44621474 5677
-0.15010032 0.095372051 0.44618243 5678
-0.14931592 0.095385097 0.44624346 5935
-0.14853638 0.095401421 0.44631982 5935
-0.14775659 0.095417745 0.4463962 5935
-0.14697653 0.095434077 0.44647259 5935
-0.14625852 0.095491104 0.44673938 5934
-0.14559287 0.095583133 0.44716993 5934
-0.14492594 0.095675334 0.44760129 71470
-0.14426406 0.095771939 0.44805321 2436407
-0.14360127 0.09586902 0.4485074 4998465
-0.14293715 0.095966302 0.44896251 6443848
-0.14227167 0.09606377 0.44941851 6707020
-0.14160483 0.096161447 0.44987547 6904655
-0.14093664 0.096259318 0.45033336 6445651
-0.14027724 0.096364357 0.45082477 5986645
-0.13963327 0.096481301 0.45137185 5855575
-0.13898773 0.096598521 0.45192024 5789782
-0.13834064 0.096716024 0.45246997 5855318
-0.13769197 0.096833818 0.45302105 5855574
-0.13704172 0.096951894 0.45357347 5855574
-0.13642491 0.097095206 0.45424393 5921622
-0.13587889 0.097290933 0.45515957 5987159
-0.13532855 0.097485915 0.45607176 5789525
-0.13477241 0.097679086 0.45697549 5723731
-0.13431476 0.09794645 0.45822632 5919306
-0.13401665 0.098334201 0.46004033 6049606
-0.13358442 0.098627754 0.46141368 7166282
-0.13292028 0.098752677 0.46199813 7429196
-0.13225444 0.098877922 0.46258405 7429196
-0.13158691 0.099003479 0.46317145 7429196
-0.13107589 0.099249154 0.46432081 7034696
-0.13070863 0.099607542 0.46599746 7034696
-0.13033871 0.099968523 0.46768627 7034696
-0.13122633 0.10130502 0.47393882 6444105
-0.18097167 0.10472695 0.48584777 6110773
-0.17745057 0.10318902 0.47871304 5057324
-0.17397551 0.10166295 0.47163332 5253928
-0.17079382 0.10029416 0.46528324 6111028
-0.16801934 0.099152148 0.45998526 6574403
-0.1658076 0.098332547 0.45618296 6574403
-0.16326889 0.097309887 0.45143867 3749688
-0.16196787 0.097018346 0.45008615 5161
-0.16082892 0.096821442 0.44917268 5418
-0.15973516 0.096649885 0.44837677 5418
-0.15864688 0.096479908 0.44758824 5418
-0.15758327 0.096323274 0.44686157 5418
-0.15661563 0.096223995 0.446401 5676
-0.15579912 0.096217029 0.44636866 5677
-0.15498273 0.096210055 0.44633633 5677
-0.15416645 0.096203081 0.44630399 5677
-0.15335031 0.096196122 0.44627169 5677
-0.15253426 0.096189149 0.44623935 5677
-0.15171835 0.09618219 0.44620705 5677
-0.15090255 0.096175224 0.44617474 5677
-0.15008686 0.096168257 0.44614244 5677
-0.14927131 0.096161306 0.44611016 5677
-0.14845586 0.09615434 0.44607785 5678
-0.1476676 0.096165001 0.44612733 5935
-0.14693144 0.096209899 0.44633561 5934
-0.14627075 0.09630499 0.44677675 925489
-0.1456119 0.096402332 0.44722834 3487547
-0.1449517 0.096499875 0.44768086 6049606
-0.14429015 0.096597612 0.44813427 6509641
-0.14362727 0.096695542 0.44858861 6707020
-0.14296305 0.096793681 0.44904387 6642000
-0.14229748 0.096892022 0.44950008 6248787
-0.14163055 0.096990548 0.44995719 5855575
-0.14096935 0.097094163 0.45043787 5789782
-0.14032678 0.097211882 0.450984 5789781
-0.13968265 0.097329892 0.45153147 5789780
-0.13903695 0.097448185 0.45208025 5789781
-0.13838968 0.097566769 0.45263037 5855574
-0.13774084 0.097685635 0.45318183 5855574
-0.1370904 0.0978048 0.45373464 5855574
-0.1364384 0.097924255 0.45428881 5855573
-0.13585193 0.098092489 0.45506927 5592403
-0.13535267 0.098326102 0.45615306 4934730
-0.13506 0.098713584 0.45795065 4934217
-0.13476503 0.099104121 0.45976245 5328972
-0.13420661 0.099304579 0.46069241 6773842
-0.13354428 0.099430166 0.46127501 7429196
-0.13288027 0.099556066 0.46185911 7429196
-0.13221458 0.099682286 0.46244466 7429196
-0.13154721 0.099808834 0.46303174 7231818
-0.13117796 0.10016464 0.4646824 7034696
-0.13081078 0.10052662 0.46636167 7034696
-0.13044095 0.10089123 0.46805313 7034696
-0.13042498 0.10153606 0.47104463 7232332
-0.18220821 0.10632489 0.48916748 6243897
-0.17834859 0.1045791 0.48113564 5451564
-0.17495881 0.10309309 0.47429898 4859431
-0.17166503 0.10164931 0.46765661 5648939
-0.16835962 0.10018437 0.46091688 6508353
-0.16614808 0.099359028 0.45711973 6574403
-0.16377226 0.098426715 0.45283046 5917505
-0.16221912 0.097981974 0.45078436 4143930
-0.16093086 0.09769354 0.44945735 5161
-0.15982449 0.097513169 0.4486275 5418
-0.15873383 0.097340591 0.44783354 5418
-0.15764701 0.097168617 0.44704235 5418
-0.15661657 0.097029805 0.44640371 5676
-0.15580229 0.097024173 0.44637778 5676
-0.15498811 0.097018532 0.44635186 5676
-0.15417403 0.0970129 0.44632593 5676
-0.15336004 0.097007267 0.44630003 5676
-0.15254614 0.097001635 0.4462741 5676
-0.15173234 0.096996002 0.4462482 5676
-0.15091863 0.096990377 0.44622231 5676
-0.15010503 0.096984744 0.44619641 137005
-0.1492915 0.096979119 0.44617051 596783
-0.14847808 0.096973486 0.44614461 1582386
-0.14766732 0.096969545 0.44612646 2304821
-0.14697751 0.097045429 0.4464756 4472638
-0.14629714 0.097128406 0.44685733 6246469
-0.14563818 0.097226597 0.44730908 6575690
-0.1449779 0.09732499 0.44776177 6773069
-0.14431626 0.097423576 0.44821534 6445136
-0.14365329 0.097522371 0.44866985 6051923
-0.14298896 0.097621366 0.44912529 5789781
-0.1423233 0.097720563 0.44958165 5789782
-0.14166027 0.097822718 0.45005164 5723989
-0.14101911 0.09794122 0.45059684 5789781
-0.14037636 0.098060012 0.45114335 5789780
-0.13973206 0.098179094 0.45169121 5789780
-0.1390862 0.09829846 0.45224038 5789781
-0.13843876 0.098418117 0.45279089 5855574
-0.13778974 0.098538063 0.45334274 5723989
-0.13714099 0.098659635 0.45390204 5592660
-0.13649982 0.098788157 0.45449334 5329488
-0.13609393 0.099089541 0.4558799 5000266
-0.13580436 0.099479787 0.45767531 4868937
-0.13548569 0.099853367 0.45939404 5000267
-0.13482685 0.099979296 0.45997339 5855574
-0.13416635 0.10010554 0.46055418 6773843
-0.13350415 0.10023209 0.46113643 7429196
-0.13284031 0.10035897 0.46172017 7429196
-0.13217476 0.10048618 0.4623054 7429196
-0.13164465 0.1007186 0.4633747 7034696
-0.1312802 0.10108155 0.46504453 7034696
-0.13091311 0.10144714 0.46672645 7034696
-0.13054335 0.10181537 0.46842057 7034953
-0.13017514 0.10218961 0.47014233 6905685
-0.18340202 0.10790966 0.49237245 5917505
-0.17925413 0.10598236 0.48357853 5714476
-0.17595413 0.10453999 0.47699723 4596005
-0.17259291 0.10304687 0.47018439 5254443
-0.16946286 0.10167772 0.46393719 6309691
-0.16648631 0.10038753 0.45805028 6574403
-0.16427873 0.099550456 0.45423087 6508611
-0.16247116 0.098948598 0.45148471 6574403
-0.16118015 0.098656863 0.45015359 4340794
-0.15991391 0.098377421 0.44887853 5161
-0.15882249 0.098203219 0.44808367 5418
-0.15773492 0.098029628 0.44729161 5418
-0.15667835 0.097873621 0.44657978 5676
-0.15586376 0.097867936 0.44655386 5676
-0.15504925 0.097862251 0.4465279 5676
-0.15423484 0.097856566 0.44650197 5676
-0.15342052 0.097850882 0.44647604 268589
-0.15260631 0.097845204 0.44645011 793903
-0.15179218 0.097839519 0.44642419 2239285
-0.15097815 0.097833835 0.44639826 3750203
-0.1501642 0.097828157 0.44637233 5392449
-0.14935291 0.097824141 0.44635403 6049348
-0.14854228 0.097820535 0.44633755 6180677
-0.14778411 0.097851612 0.44647935 6180934
-0.14709429 0.097928531 0.44683033 6444105
-0.14640339 0.09800557 0.44718185 6444619
-0.14571138 0.098082729 0.44753391 5985357
-0.14501829 0.098160014 0.44788656 5657681
-0.14434238 0.098249853 0.44829646 5592402
-0.14367931 0.098349497 0.44875112 5723989
-0.14301489 0.098449342 0.44920671 5789525
-0.14235003 0.098550022 0.44966608 5723989
-0.14171024 0.098669305 0.45021033 5723989
-0.14106889 0.098788872 0.45075592 5723988
-0.14042598 0.098908737 0.45130283 5789780
-0.13978815 0.099033587 0.4518725 5855574
-0.13915329 0.09916202 0.45245853 6052954
-0.13851677 0.099290788 0.45304605 5987418
-0.13787861 0.099419892 0.45363513 5987162
-0.13723879 0.099549331 0.45422575 5460817
-0.13683429 0.099852055 0.45560703 5197902
-0.13654782 0.10024507 0.45740029 5329488
-0.1361022 0.10052533 0.45867908 5395281
-0.13544515 0.1006519 0.45925659 5132109
-0.13478646 0.1007788 0.45983559 5855574
-0.1341261 0.10090601 0.46041602 6774099
-0.13346407 0.10103355 0.46099794 7429196
-0.13280036 0.1011614 0.46158132 7429196
-0.13213496 0.10128958 0.46216619 7231818
-0.13174696 0.10163337 0.46373484 7034696
-0.13138258 0.1019999 0.46540725 7034696
-0.1310696 0.10241129 0.46728435 7100489
-0.13072585 0.10280382 0.46907538 7100490
-0.13028429 0.10312405 0.47053656 6904655
-0.12991318 0.1035046 0.47227293 6182220
-0.18051602 0.10760687 0.48698279 6110771
-0.17678224 0.10589644 0.47924212 4858916
-0.17356537 0.10448039 0.47283363 4860460
-0.17032477 0.10303597 0.46629682 5716274
-0.16681786 0.10141532 0.45896247 6574403
-0.16463602 0.10058809 0.45521876 6574403
-0.16272397 0.099918231 0.45218727 6574403
-0.16143022 0.099623181 0.45085201 6574403
-0.16014408 0.099329866 0.44952458 4472379
-0.15891124 0.099066801 0.44833407 202539
-0.15782291 0.098891586 0.44754112 5418
-0.15674019 0.098718114 0.44675604 268332
-0.15592526 0.098712377 0.44673008 1319473
-0.15511043 0.09870664 0.44670412 2764855
-0.1542957 0.098700903 0.44667816 4209981
-0.15348105 0.098695166 0.4466522 5589571
-0.15266651 0.098689429 0.44662625 6049606
-0.15185206 0.0986837 0.44660029 6378313
-0.15104024 0.098679617 0.44658184 6509897
-0.15022914 0.098675981 0.44656536 6575434
-0.14941812 0.098672338 0.44654888 6575434
-0.14860713 0.098668694 0.4465324 6509898
-0.14790154 0.098735355 0.44683409 6116685
-0.14721125 0.098813035 0.44718561 5723215
-0.14651988 0.098890834 0.44753769 5460816
-0.14582743 0.098968752 0.44789034 5460817
-0.14513388 0.099046797 0.44824353 5460817
-0.14443924 0.099124968 0.44859728 5460817
-0.14374349 0.099203251 0.44895157 5526353
-0.14304665 0.099281661 0.44930643 5657939
-0.14241175 0.099404216 0.44986105 5592403
-0.1417831 0.099532552 0.45044184 5592403
-0.14115284 0.099661224 0.45102417 5592660
-0.14052093 0.09979023 0.45160797 5723988
-0.13988739 0.099919572 0.45219332 6184541
-0.13925222 0.10004925 0.45278019 6579299
-0.13861537 0.10017926 0.45336854 6645092
-0.13797688 0.1003096 0.45395845 6447713
-0.13757378 0.10061366 0.45533448 5921370
-0.13729037 0.10100944 0.4571256 6118748
-0.13671678 0.1011952 0.4579663 6579299
-0.13606155 0.10132243 0.45854205 5658197
-0.13540465 0.10144997 0.45911923 5066315
-0.13474609 0.10157783 0.45969787 5789781
-0.13408586 0.101706 0.46027794 6708306
-0.13342398 0.10183451 0.46085951 7429196
-0.13276044 0.10196334 0.46144256 7429196
-0.1322111 0.10218208 0.46243247 7034696
-0.13184942 0.10254955 0.4640955 7034696
-0.13178435 0.10315388 0.46683046 6903368
-0.13132107 0.1034523 0.46818092 7231818
-0.13081841 0.10372333 0.46940753 6969161
-0.13039364 0.10406007 0.47093144 6969161
-0.1299661 0.104399 0.47246531 6970190
-0.18189628 0.1093148 0.49070635 6508353
-0.17761816 0.10726573 0.48150826 5187107
-0.17465691 0.10599572 0.47580725 4727847
-0.17121877 0.10442231 0.46874431 5321778
-0.16715075 0.10244723 0.45987833 6508354
-0.16496198 0.10161 0.45612004 6574403
-0.16297759 0.10089088 0.45289201 6574403
-0.16168106 0.1005925 0.45155257 6574403
-0.16039218 0.10029587 0.45022103 6574403
-0.15911089 0.10000099 0.44889733 4669244
-0.15791099 0.099754512 0.44779092 268075
-0.15682575 0.099578299 0.44699991 1582130
-0.15598682 0.099557474 0.44690642 6312262
-0.15517166 0.099551693 0.44688046 6444104
-0.1543566 0.099545904 0.44685447 6444363
-0.15354162 0.099540114 0.44682848 6182222
-0.15272927 0.099535964 0.44680986 5985615
-0.15191771 0.099532291 0.44679338 5985615
-0.15110619 0.099528611 0.44677687 5854544
-0.15029475 0.099524945 0.44676039 5789008
-0.14948335 0.099521264 0.44674388 5723472
-0.14870881 0.099542201 0.44683787 5592401
-0.14801913 0.099620514 0.44718939 5461073
-0.14732841 0.099698946 0.44754148 5461073
-0.14663658 0.099777505 0.44789413 5526609
-0.14594366 0.099856183 0.44824731 5526609
-0.14524965 0.099934995 0.44860107 5461073
-0.14455454 0.10001393 0.44895539 5526609
-0.1438622 0.10009567 0.44932234 5460817
-0.14317909 0.1001848 0.44972244 5329231
-0.14251241 0.10028651 0.45017901 5197645
-0.14188345 0.10041608 0.45076063 5329232
-0.14125286 0.10054599 0.45134377 5658453
-0.14062065 0.10067623 0.45192844 6053212
-0.13998678 0.10080681 0.45251459 6513507
-0.13935128 0.10093773 0.45310229 6710886
-0.13871412 0.10106899 0.45369148 6645093
-0.13831238 0.10137436 0.45506227 6381921
-0.1379813 0.10173547 0.45668325 6710886
-0.13732947 0.101863 0.45725575 7105643
-0.13667601 0.10199086 0.45782971 6645349
-0.13602091 0.10211904 0.45840511 5855575
-0.13536415 0.10224754 0.45898193 5066315
-0.13470574 0.10237636 0.45956022 5723731
-0.13404568 0.10250551 0.46013996 6708307
-0.13338394 0.102635 0.46072119 7429196
-0.13272053 0.1027648 0.46130386 7231818
-0.13231364 0.10309612 0.46279114 6837575
-0.13247676 0.10387861 0.46630368 6574918
-0.13191405 0.10409831 0.46728989 7231818
-0.13134995 0.10431974 0.46828389 7100489
-0.13092792 0.1046576 0.4698005 7034696
-0.13050316 0.10499766 0.47132701 7034697
-0.13007562 0.10533993 0.47286344 7100489
-0.18218274 0.11037349 0.49147916 6574403
-0.1789147 0.10892361 0.48502305 5582631
-0.17548323 0.10735951 0.47805831 4727075
-0.17221124 0.10587803 0.47146142 4861745
-0.16870719 0.10423844 0.46416056 6310206
-0.16528912 0.10263588 0.45702457 6574403
-0.1634343 0.10199283 0.45416114 6574403
-0.16214849 0.10170019 0.45285803 6574403
-0.16071758 0.10131311 0.45113441 6574403
-0.15935706 0.10096668 0.44959185 5918019
-0.15808059 0.10067025 0.44827184 3815224
-0.15691318 0.10044057 0.44724911 2107700
-0.15604842 0.10040325 0.44708294 6575433
-0.15523294 0.10039741 0.44705692 6050892
-0.15442005 0.10039319 0.44703814 5723216
-0.15360801 0.10038948 0.44702163 5592146
-0.15279602 0.10038578 0.44700512 5592146
-0.1519841 0.10038207 0.44698861 5526610
-0.15117222 0.10037836 0.4469721 5526609
-0.15036042 0.10037465 0.44695559 5526609
-0.14954868 0.10037094 0.44693908 5526609
-0.14882705 0.10042801 0.44719318 5526609
-0.14813693 0.10050707 0.44754526 5526609
-0.14744574 0.10058627 0.44789791 5526609
-0.14675345 0.10066559 0.4482511 5526609
-0.14606008 0.10074504 0.44860488 5526610
-0.1453656 0.10082461 0.4489592 5526610
-0.14467879 0.10091042 0.4493413 5460817
-0.14399637 0.10100028 0.44974142 5263438
-0.14331275 0.1010903 0.45014226 4802888
-0.14262789 0.10118047 0.45054382 4605766
-0.14198393 0.10130086 0.45107988 5197903
-0.14135304 0.101432 0.45166385 5921369
-0.14072049 0.10156348 0.45224932 6579299
-0.14008631 0.10169531 0.45283633 6710886
-0.13945048 0.10182748 0.45342484 6645093
-0.1390501 0.10213415 0.45479038 6579300
-0.13859031 0.10240055 0.45597667 6974058
-0.13794026 0.10252872 0.45654741 7171437
-0.13728857 0.10265722 0.45711958 7105644
-0.13663526 0.10278603 0.45769319 6776679
-0.13598029 0.10291518 0.45826823 5921369
-0.13532369 0.10304464 0.45884472 5131852
-0.13466543 0.10317443 0.45942268 5789782
-0.1340055 0.10330455 0.46000206 6774100
-0.13334392 0.103435 0.46058294 7429196
-0.13277525 0.10363961 0.46149406 6575432
-0.13306516 0.10452122 0.46541974 6377797
-0.13250476 0.10474186 0.46640223 7231818
-0.13194199 0.10496344 0.46738887 7231818
-0.13145965 0.10525227 0.46867499 7034696
-0.13103764 0.10559343 0.47019416 7034696
-0.13061287 0.10593682 0.47172323 7034696
-0.13011621 0.10622603 0.47301102 7297611
-0.18247013 0.11143553 0.49225441 5917761
-0.18040071 0.11071046 0.48905152 6176560
-0.17635615 0.10876018 0.48043635 4923166
-0.17330669 0.10740736 0.47446042 4728875
-0.16985366 0.10578975 0.46731481 5717819
-0.16561754 0.10366584 0.45793268 6574403
-0.16390745 0.1031097 0.45547599 6574403
-0.16261658 0.102813 0.45416534 6574403
-0.1613331 0.102518 0.4528622 6574403
-0.15999816 0.10218712 0.45140058 6574403
-0.15854575 0.10177745 0.44959089 6378055
-0.15710491 0.10137104 0.44779563 4539203
-0.15611254 0.10125129 0.44726664 6837832
-0.15530002 0.10124754 0.4472501 6247755
-0.15448757 0.1012438 0.44723359 5723215
-0.15367515 0.10124006 0.44721705 5657681
-0.15286282 0.10123632 0.44720054 5592146
-0.15205052 0.10123258 0.447184 5592402
-0.15123831 0.10122884 0.44716749 5592402
-0.15042613 0.10122509 0.44715095 5526610
-0.14963496 0.10123552 0.44719696 5526609
-0.14894548 0.10131522 0.44754905 5592401
-0.14825492 0.10139505 0.4479017 5526609
-0.14756326 0.10147501 0.44825491 5526609
-0.14687051 0.10155509 0.44860867 5460817
-0.14617667 0.1016353 0.44896299 5460817
-0.14549546 0.10172524 0.44936025 5526353
-0.14481373 0.10181582 0.44976041 5460817
-0.14413081 0.10190658 0.45016131 5197645
-0.14344667 0.10199749 0.45056289 4737351
-0.14276129 0.10208856 0.4509652 4408130
-0.14208455 0.10218689 0.45139956 4868938
-0.14145334 0.10231928 0.45198438 5921369
-0.14082049 0.102452 0.45257068 6579300
-0.14018598 0.10258508 0.4531585 6579300
-0.13978693 0.10289302 0.45451882 6776678
-0.13919744 0.10306359 0.45527229 7171437
-0.13854915 0.10319239 0.45584124 7171437
-0.13789923 0.10332152 0.45641166 7171437
-0.1372477 0.10345096 0.45698348 7171436
-0.13659452 0.10358074 0.45755675 6776679
-0.13593972 0.10371085 0.45813146 5724246
-0.13528325 0.10384127 0.4587076 5263695
-0.1346329 0.10397802 0.45931169 5789781
-0.13399459 0.10412584 0.45996463 6511442
-0.13346624 0.10436146 0.46100548 6378054
-0.13365135 0.10516141 0.46453917 6509639
-0.13309324 0.10538298 0.46551794 7231818
-0.13253278 0.10560549 0.46650085 7231818
-0.13198885 0.1058441 0.46755487 7100233
-0.13156955 0.10618635 0.46906677 7034440
-0.13114752 0.10653084 0.47058848 7034696
-0.13067913 0.10684189 0.47196254 7231818
-0.13010237 0.10706785 0.47296065 7297611
-0.13187461 0.10924266 0.48256767 5058094
-0.18068387 0.11176777 0.48981911 6308656
-0.17741165 0.11028291 0.48331177 5318176
-0.17419061 0.10881537 0.47688031 4793125
-0.17088017 0.10727713 0.47013903 5059896
-0.1662589 0.10489652 0.45970604 6574403
-0.16438337 0.10423306 0.45679846 6574403
-0.16308737 0.10393225 0.45548019 6574403
-0.16179885 0.10363319 0.45416954 6574403
-0.16051771 0.10333583 0.45286638 6574403
-0.15924391 0.10304017 0.45157069 6574403
-0.15782751 0.10264874 0.44985524 6509383
-0.15638871 0.10223862 0.44805789 6050636
-0.15536796 0.10209894 0.44744575 6509898
-0.15455513 0.10209516 0.44742918 5920078
-0.15374236 0.10209139 0.44741264 5723473
-0.15292966 0.10208761 0.4473961 5592403
-0.15211701 0.10208384 0.44737956 5592403
-0.15130444 0.10208006 0.44736302 5592403
-0.15049192 0.10207628 0.44734648 5592403
-0.14975403 0.10212337 0.44755283 5592146
-0.14906411 0.10220385 0.44790548 5592402
-0.14837308 0.10228444 0.4482587 5197646
-0.14768097 0.10236517 0.44861248 4737095
-0.146992 0.10244897 0.44897974 5197645
-0.14631219 0.10254012 0.44937921 5460560
-0.14563118 0.10263144 0.44977942 5526353
-0.14494894 0.10272292 0.45018032 5526353
-0.14426549 0.10281456 0.45058194 5197645
-0.14358082 0.10290637 0.4509843 4737351
-0.14289492 0.10299834 0.45138735 4473923
-0.14220782 0.10309048 0.45179114 5000523
-0.14155379 0.10320781 0.45230535 5987162
-0.14092061 0.10334179 0.45289248 6447713
-0.14044762 0.10359547 0.45400426 6645349
-0.13980269 0.10372458 0.45457006 7171437
-0.13915616 0.10385401 0.45513728 7171437
-0.13850801 0.10398376 0.45570591 7105644
-0.13785915 0.10411453 0.45627901 7039851
-0.13722964 0.10426156 0.45692337 6908265
-0.13659833 0.104409 0.45756954 6579299
-0.13596524 0.10455687 0.45821753 5855833
-0.13533036 0.10470515 0.45886737 5592659
-0.13469367 0.10485384 0.45951903 5526609
-0.13416912 0.10509221 0.46056369 5854029
-0.13423532 0.10579918 0.46366194 5065543
-0.13367949 0.10602167 0.46463701 6575176
-0.13312133 0.1062451 0.46561617 7231818
-0.1325608 0.10646947 0.46659949 7166025
-0.13209891 0.10677644 0.46794477 7034440
-0.13167962 0.10712201 0.46945921 7034440
-0.13123956 0.10745504 0.47091872 7166025
-0.13066524 0.10768179 0.47191241 7297611
-0.13008851 0.10790949 0.47291031 7297611
-0.13146475 0.10977089 0.48106787 5713194
-0.1809679 0.1128284 0.49058911 6440500
-0.17885575 0.1120595 0.48724589 5844510
-0.17518401 0.11030105 0.47959995 4922910
-0.17196409 0.10881103 0.4731212 4795439
-0.1682245 0.10697567 0.46514091 6442567
-0.16482057 0.10533645 0.45801339 6574403
-0.1635609 0.10505801 0.4568027 6574403
-0.16226728 0.10475482 0.45548442 6574403
-0.1609811 0.10445338 0.45417374 6574403
-0.1597023 0.10415367 0.45287055 6574403
-0.15843083 0.10385568 0.45157486 6574403
-0.15710844 0.10352106 0.45011991 6574660
-0.15567167 0.10310721 0.44832045 6313550
-0.15462276 0.10294726 0.44762498 6182221
-0.15380964 0.10294346 0.44760841 5723472
-0.15299658 0.10293965 0.44759187 5657938
-0.15218358 0.10293584 0.4475753 5592403
-0.15137064 0.10293204 0.44755876 5592403
-0.15056261 0.10293154 0.44755661 5592403
-0.1498733 0.10301265 0.44790927 5526611
-0.14918292 0.10309389 0.44826251 5131854
-0.14849144 0.10317525 0.44861627 4737352
-0.1478081 0.10326319 0.44899866 4342337
-0.147129 0.10335508 0.44939819 5131853
-0.14644867 0.10344712 0.44979841 5592403
-0.14576715 0.10353934 0.45019937 5658196
-0.1450844 0.10363171 0.45060101 5789783
-0.14440043 0.10372426 0.4510034 5526867
-0.14371523 0.10381696 0.45140648 4934730
-0.14302883 0.10390983 0.4518103 5131852
-0.14234118 0.10400287 0.45221484 5723990
-0.14165439 0.1040976 0.45262676 6316384
-0.14104927 0.10425381 0.45330593 6842472
-0.1404222 0.1043955 0.45392206 6908265
-0.13979952 0.10454217 0.45455977 6974058
-0.1391751 0.10468924 0.45519924 6908265
-0.13854894 0.10483673 0.45584056 6908265
-0.13792099 0.10498463 0.45648366 6842472
-0.13729127 0.10513296 0.45712858 6842472
-0.13665977 0.1052817 0.45777532 6776679
-0.13602649 0.10543086 0.45842391 6052955
-0.1353914 0.10558045 0.45907432 5329231
-0.13487065 0.10582158 0.46012279 5328973
-0.13481708 0.10643454 0.46278799 3091755
-0.13426353 0.10665794 0.46375939 4210749
-0.13370764 0.10688229 0.46473485 6312519
-0.13314943 0.10710759 0.46571445 7231818
-0.13262576 0.10736371 0.46682811 7100233
-0.13220917 0.10771034 0.4683353 7034440
-0.13178988 0.10805922 0.46985227 7166025
-0.13122566 0.10829301 0.47086883 7297610
-0.13065138 0.10852151 0.47186232 7297610
-0.13007466 0.10875095 0.47285998 7297611
-0.13104621 0.11028641 0.47953632 6042926
-0.18144812 0.11401508 0.49189097 5851196
-0.17919505 0.11315265 0.48817021 6041622
-0.17622995 0.11182987 0.48246339 5185819
-0.17291991 0.11027399 0.47575092 4859431
-0.16936934 0.10854843 0.46830639 5587008
-0.16501598 0.10628849 0.45855641 6574403
-0.1638892 0.10609452 0.45771959 6574403
-0.16270052 0.10585831 0.45670053 6574403
-0.16143164 0.10556725 0.45544484 6574403
-0.16016333 0.1052736 0.45417792 6574403
-0.15888686 0.10497153 0.45287472 6574403
-0.15761772 0.1046712 0.451579 6574403
-0.1563558 0.10437257 0.45029065 6574660
-0.15495379 0.10397682 0.4485833 6510927
-0.15387698 0.10379627 0.44780436 5789007
-0.15306355 0.10379244 0.44778779 5657938
-0.1522502 0.10378859 0.44777122 5592660
-0.1514369 0.10378475 0.44775465 5592660
-0.15068252 0.10382147 0.44791308 5724246
-0.14999276 0.10390335 0.4482663 5987162
-0.14930192 0.10398535 0.44862008 5658454
-0.14862429 0.1040775 0.44901761 5329233
-0.14794587 0.1041701 0.44941714 4605766
-0.14726625 0.10426288 0.44981742 5329232
-0.1465854 0.10435582 0.45021838 6118748
-0.14590336 0.10444893 0.45062009 6381921
-0.1452201 0.1045422 0.45102251 6316128
-0.14453563 0.10463565 0.45142564 6052955
-0.14384946 0.10472892 0.45182806 5526867
-0.14315307 0.10481578 0.45220277 6119005
-0.14245553 0.10490278 0.45257813 6579300
-0.14177926 0.10500654 0.45302576 6645093
-0.14110804 0.10511526 0.45349482 6710886
-0.14048484 0.10526123 0.45412457 6842472
-0.13986199 0.10540918 0.45476285 6908265
-0.13923737 0.10555754 0.45540291 5921370
-0.138611 0.10570632 0.45604479 5329233
-0.13798288 0.10585552 0.45668846 6250335
-0.13735296 0.10600513 0.45733395 6842472
-0.13672125 0.10615518 0.45798129 6842472
-0.13608778 0.10630564 0.45863044 6316127
-0.13557082 0.10654955 0.4596827 5723733
-0.13539666 0.10706751 0.46191734 5066061
-0.13484536 0.10729183 0.46288508 2105375
-0.13429175 0.10751708 0.46385688 4342079
-0.13373582 0.10774328 0.46483278 6313290
-0.13317753 0.10797043 0.46581277 7100232
-0.13273618 0.10829587 0.46721679 7034440
-0.1323196 0.1086458 0.46872652 7166025
-0.13178357 0.10890155 0.46982983 7297610
-0.13121174 0.10913081 0.47081894 7297610
-0.1306375 0.10936103 0.47181219 7297610
-0.13006082 0.10959224 0.47280967 7297611
-0.13061303 0.11078399 0.47795117 6306867
-0.18247177 0.11555058 0.49466598 6115399
-0.17967227 0.1143369 0.48947027 6241319
-0.17726023 0.11335901 0.485284 5712925
-0.17401595 0.11183656 0.47876644 4988958
-0.17047389 0.11010657 0.47136047 5125172
-0.16673589 0.10823207 0.46333581 6838605
-0.16408338 0.10704684 0.45826191 6574403
-0.16295902 0.10685162 0.45742616 6574403
-0.16183876 0.1066571 0.45659342 6574403
-0.16057324 0.10636437 0.4553403 6574403
-0.15931396 0.10607279 0.45409206 6574403
-0.15806156 0.10578281 0.45285064 6574403
-0.15680459 0.10548673 0.45158315 6574403
-0.15554498 0.10518578 0.45029479 6574403
-0.15423506 0.10484746 0.44884649 6378826
-0.15313058 0.10464597 0.44798389 5723472
-0.15231687 0.10464209 0.44796732 5592145
-0.15150321 0.10463822 0.44795072 5658452
-0.15080263 0.10471281 0.44827008 6250333
-0.15011702 0.10479868 0.44863766 6381921
-0.14944053 0.10489186 0.44903654 6447713
-0.14876281 0.1049852 0.44943613 6184542
-0.1480839 0.1050787 0.44983643 5460819
-0.14740375 0.10517237 0.45023742 5855576
-0.14671998 0.10526447 0.45063168 6447714
-0.1460278 0.10535154 0.45100442 6513507
-0.1453345 0.10543875 0.45137778 6645093
-0.14464004 0.10552611 0.45175177 6645093
-0.14394443 0.10561362 0.45212635 6513763
-0.14324766 0.10570127 0.4525016 6579300
-0.14257742 0.10580961 0.45296538 6645093
-0.14190713 0.10591915 0.45343432 6710886
-0.14123543 0.10602891 0.45390424 6710886
-0.14056236 0.10613892 0.45437515 6710886
-0.1399245 0.10627697 0.45496613 6710886
-0.13929971 0.10642661 0.45560676 4210752
-0.13867314 0.10657669 0.45624921 2829099
-0.1380448 0.10672718 0.45689347 5460819
-0.13741469 0.10687809 0.45753953 6513507
-0.13678281 0.10702945 0.45818746 6645093
-0.13626967 0.10727613 0.45924348 5658198
-0.13597406 0.10769811 0.46104997 5658198
-0.13542502 0.10792332 0.46201408 5723990
-0.13487366 0.10814947 0.46298221 3618357
-0.13431999 0.10837657 0.46395442 5000264
-0.133764 0.10860462 0.46493071 6116170
-0.1332607 0.10887861 0.46610361 6903367
-0.13284679 0.10922959 0.46760613 7034696
-0.13233905 0.10950739 0.46879539 7297610
-0.13176964 0.10973742 0.46978015 7297610
-0.13119784 0.10996842 0.47076905 7297610
-0.13062362 0.11020039 0.47176209 7231817
-0.1301022 0.11048023 0.47296008 7100489
-0.1301827 0.11127828 0.47637647 6703421
-0.18027861 0.11560865 0.4911221 6375223
-0.1779138 0.11465556 0.48707327 5976089
-0.1750524 0.1133714 0.48161799 5317145
-0.17176513 0.11179725 0.47493076 5056552
-0.1678057 0.10976764 0.46630865 6509390
-0.16427803 0.10800143 0.45880553 6574403
-0.16315198 0.10780422 0.45796779 6574403
-0.16203004 0.10760774 0.45713308 6574403
-0.16091219 0.10741197 0.45630145 6574403
-0.15971524 0.10716112 0.45523581 6574403
-0.15845859 0.10686743 0.45398813 6574403
-0.15720883 0.10657534 0.45274732 6574403
-0.15596588 0.10628483 0.45151323 6574403
-0.15472966 0.10599592 0.45028585 6574403
-0.15348402 0.10569743 0.44901785 6575691
-0.1523836 0.10549634 0.44816357 5591887
-0.15161251 0.1055223 0.4482739 5131852
-0.15093264 0.10561238 0.44865656 6184542
-0.15025683 0.10570629 0.44905546 6513507
-0.14957532 0.10579719 0.44944161 6645093
-0.14888735 0.10588447 0.44981241 6513507
-0.14819825 0.1059719 0.45018381 6250335
-0.14750798 0.10605946 0.4505558 6316128
-0.1468166 0.10614718 0.45092842 6513507
-0.14612405 0.10623503 0.45130166 6710886
-0.14543036 0.10632303 0.4516755 6776679
-0.14473552 0.10641118 0.45204997 6776679
-0.14404339 0.10650233 0.45243716 6645093
-0.14337537 0.10661246 0.452905 6645093
-0.14270599 0.10672282 0.45337385 6710886
-0.14203522 0.10683341 0.45384362 6710886
-0.14136305 0.10694423 0.45431441 6710886
-0.14068949 0.10705528 0.45478615 6645093
-0.14001453 0.10716655 0.45525888 6316128
-0.13936208 0.10729647 0.45581079 5000268
-0.13873532 0.10744783 0.4564538 3947580
-0.13810679 0.10759962 0.45709863 5460819
-0.1374765 0.10775185 0.45774531 5855577
-0.13696718 0.10800131 0.45880508 3421236
-0.13654931 0.10832635 0.46018586 3355443
-0.13600248 0.10855244 0.46114632 4934475
-0.13545339 0.10877948 0.46211085 5395025
-0.13490197 0.10900748 0.46307939 4144957
-0.13434824 0.10923643 0.46405199 4144700
-0.13379219 0.10946634 0.4650287 5590341
-0.13337147 0.10981058 0.4664911 6115398
-0.13289209 0.11011058 0.46776554 7166281
-0.13232508 0.11034137 0.46874595 7297610
-0.13175572 0.11057313 0.4697305 7297610
-0.13118868 0.11080986 0.47073615 7166024
-0.13070706 0.11112228 0.47206339 7034439
-0.13021231 0.11142758 0.47336033 7034696
-0.1297552 0.11176933 0.47481212 6901571
-0.1315992 0.11411094 0.48475963 4666419
-0.18125547 0.11712577 0.4937833 6181192
-0.17851126 0.11592213 0.48870894 6175268
-0.17588215 0.11478165 0.48390085 5646101
-0.17285196 0.11336675 0.47793585 5186591
-0.16869231 0.11119318 0.46877244 6245448
-0.1652588 0.10947875 0.46154469 6904142
-0.1633454 0.10875908 0.4585107 6574403
-0.16222177 0.10856063 0.45767403 6574403
-0.16110224 0.10836289 0.4568404 6574403
-0.15998679 0.10816588 0.45600984 6574403
-0.15885761 0.1079575 0.45513135 6574403
-0.15760362 0.10766169 0.45388427 6574403
-0.15635647 0.1073675 0.45264399 6574403
-0.15511613 0.10707491 0.45141047 6574403
-0.1538825 0.1067839 0.45018366 6443332
-0.1526556 0.10649449 0.44896352 6246983
-0.15173182 0.10641459 0.44862667 6184285
-0.15104687 0.10650221 0.4489961 6645093
-0.15036079 0.10659 0.44936615 6710886
-0.14967357 0.10667791 0.4497368 6776678
-0.14898522 0.10676597 0.45010805 6579300
-0.14829573 0.10685419 0.45047995 6447713
-0.14760509 0.10694253 0.45085242 6316127
-0.14691333 0.10703104 0.45122555 6579300
-0.14622042 0.10711969 0.45159927 6776679
-0.14552635 0.10720848 0.45197362 6842472
-0.14484021 0.10730415 0.45237693 6710886
-0.14417312 0.1074151 0.45284468 6710886
-0.14350465 0.10752628 0.45331338 6710886
-0.1428348 0.10763768 0.45378304 6710886
-0.14216354 0.10774931 0.45425367 6710886
-0.14149091 0.10786118 0.4547253 6710886
-0.14081687 0.10797329 0.4551979 6316128
-0.14014144 0.10808562 0.45567149 6118749
-0.13946459 0.10819819 0.45614606 5723991
-0.13879757 0.10831977 0.4566586 3750201
-0.13816884 0.10847285 0.457304 4802889
-0.13766336 0.10872512 0.45836753 4144959
-0.13712239 0.10895222 0.45932496 2302755
-0.13657779 0.10917921 0.46028185 3618615
-0.13603091 0.10940713 0.46124274 4013373
-0.13548176 0.109636 0.46220765 5263440
-0.13493028 0.10986584 0.46317658 3552821
-0.13437651 0.11009664 0.46414962 3947578
-0.13389365 0.11038881 0.46538135 4736579
-0.13344269 0.11071112 0.46674016 5656392
-0.13287808 0.11094265 0.46771628 6969419
-0.13231114 0.11117516 0.4686965 7231817
-0.13178661 0.11144657 0.46984068 7100232
-0.1313076 0.11176018 0.47116286 7034439
-0.13081759 0.11206849 0.47246259 7034696
-0.13032259 0.11237653 0.47376126 7034696
-0.12982486 0.11268627 0.47506708 7034440
-0.13036972 0.11391108 0.48023069 5453361
-0.18236265 0.11873735 0.4967995 5459015
-0.17911276 0.11719724 0.49035564 6440759
-0.17662795 0.11614493 0.48595276 5910296
-0.17387897 0.11490755 0.48077554 5448984
-0.16987461 0.11282399 0.47205788 5518642
-0.16633981 0.11103287 0.46456382 7102295
-0.16353926 0.10971621 0.45905489 6574661
-0.16241397 0.10951578 0.45821625 6574403
-0.16129276 0.10931607 0.45738065 6574403
-0.16017564 0.10911708 0.45654809 6574403
-0.15906258 0.10891882 0.45571858 6574403
-0.15795356 0.10872128 0.45489207 6574403
-0.15674904 0.1084556 0.45378044 6574403
-0.15550451 0.1081593 0.45254076 6574403
-0.15426676 0.10786463 0.4513078 6508868
-0.15303575 0.10757154 0.45008153 6378054
-0.15183128 0.10729411 0.44892076 6446681
-0.15114598 0.10738253 0.44929069 6776679
-0.15045953 0.10747109 0.44966123 6776679
-0.14977193 0.10755979 0.45003235 6776679
-0.14908321 0.10764864 0.45040411 6645093
-0.14839335 0.10773764 0.45077649 6447714
-0.14770235 0.10782678 0.45114946 6381921
-0.14701019 0.10791607 0.45152307 6645093
-0.1463169 0.10800552 0.45189729 6776679
-0.14563683 0.10810576 0.45231673 6710886
-0.14497064 0.10821752 0.45278433 6710886
-0.14430308 0.10832951 0.45325291 6710886
-0.14363416 0.10844174 0.45372248 6710886
-0.14296383 0.1085542 0.454193 6710886
-0.14229211 0.10866688 0.45466447 6710886
-0.141619 0.10877981 0.45513695 6645093
-0.14094448 0.10889297 0.45561042 5987163
-0.14026856 0.10900636 0.45608485 5329233
-0.13959123 0.10912 0.45656028 5460819
-0.1389125 0.10923386 0.45703673 4408131
-0.13823648 0.10935125 0.45752785 3421236
-0.13769333 0.10957577 0.45846727 1447446
-0.13715094 0.10980362 0.45942059 3947580
-0.13660628 0.11003242 0.46037787 4342338
-0.13605936 0.11026217 0.46133918 4013373
-0.13551013 0.11049288 0.46230447 6118749
-0.13495862 0.11072457 0.46327385 4605509
-0.13441335 0.11096429 0.46427688 4144956
-0.13399088 0.11130904 0.46571928 4605507
-0.13342866 0.11154132 0.46669114 5657165
-0.1328641 0.11177456 0.46766707 6509898
-0.13238229 0.11208085 0.46894857 6968904
-0.13190585 0.11239566 0.47026575 7034439
-0.13142058 0.11270697 0.47156826 7034696
-0.13092817 0.11301618 0.47286201 7034696
-0.13043307 0.11332709 0.47416288 7034696
-0.12993522 0.11363972 0.4754709 7034696
-0.12984112 0.11431195 0.47828352 5915709
-0.18004352 0.11869536 0.49290377 6969678
-0.17735387 0.11750244 0.48795 6175267
-0.17435206 0.11608978 0.48208365 5777684
-0.17163217 0.11485161 0.47694191 5318175
-0.16715197 0.11241706 0.46683204 6970451
-0.16379307 0.11071583 0.45976734 6772298
-0.16260661 0.11047319 0.45875975 6574403
-0.16148372 0.11027149 0.45792216 6574403
-0.16036493 0.11007053 0.45708764 6574403
-0.15925021 0.1098703 0.45625615 6574403
-0.15813956 0.1096708 0.45542771 6574403
-0.15703291 0.10947203 0.45460224 6574403
-0.15589485 0.10924914 0.45367667 6574403
-0.15465292 0.10895074 0.45243752 6574403
-0.15341778 0.10865398 0.45120513 6509126
-0.15218936 0.10835882 0.44997945 6247241
-0.15124521 0.108264 0.44958568 6710886
-0.15055838 0.10835334 0.44995669 6710886
-0.14987043 0.10844283 0.45032832 6776679
-0.14918134 0.10853247 0.45070055 6710886
-0.1484911 0.10862225 0.45107341 6710886
-0.14779972 0.10871219 0.45144689 6710886
-0.1471072 0.10880227 0.45182097 6776679
-0.14643323 0.10890717 0.45225656 6710886
-0.14576797 0.10901974 0.45272404 6710886
-0.14510132 0.10913254 0.45319247 6710886
-0.1444333 0.10924558 0.45366189 6579300
-0.1437639 0.10935885 0.45413229 6645093
-0.14309309 0.10947237 0.45460367 6710886
-0.1424209 0.10958611 0.45507601 6710886
-0.14174733 0.1097001 0.45554936 6710886
-0.14107232 0.10981432 0.45602366 6447714
-0.1403821 0.10991794 0.45645398 6645093
-0.13968357 0.11001626 0.45686227 5855577
-0.13901432 0.11013894 0.45737171 4210752
-0.1383862 0.11029587 0.4580234 2697513
-0.1377563 0.11045325 0.45867693 3092271
-0.13717949 0.11065536 0.45951626 4408131
-0.1366348 0.11088599 0.46047395 4342338
-0.13608781 0.11111757 0.46143565 5723991
-0.13553853 0.11135012 0.46240136 6842472
-0.13498697 0.11158365 0.46337113 5329231
-0.13452466 0.11189434 0.46466133 3947579
-0.13397685 0.11213735 0.4656705 4737094
-0.13344693 0.11239852 0.46675503 5197387
-0.13297571 0.11271274 0.4680599 6248015
-0.13250184 0.11302873 0.46937206 6838090
-0.13202128 0.11334303 0.47067729 7034696
-0.13153146 0.1136534 0.47196615 7034696
-0.13103895 0.11396547 0.47326207 7034696
-0.13054372 0.11427926 0.47456515 7034696
-0.13004577 0.11459479 0.47587544 7034696
-0.12954505 0.11491206 0.47719294 7167829
-0.18116814 0.12033143 0.49598265 6379344
-0.17795055 0.11878089 0.4895916 6506808
-0.17509215 0.11745583 0.48412997 5910039
-0.17238046 0.1162164 0.47902128 5580312
-0.16801395 0.1138432 0.46923941 6310723
-0.16488487 0.11228868 0.462832 7168601
-0.1627997 0.11143288 0.45930454 6574403
-0.16167514 0.11122919 0.45846498 6574403
-0.16055468 0.11102625 0.45762849 6574403
-0.1594383 0.11082404 0.45679504 6574403
-0.15832597 0.11062256 0.4559646 6574403
-0.1572177 0.11042183 0.45513719 6574403
-0.15611343 0.11022182 0.4543128 6574403
-0.15501316 0.11002253 0.45349136 6574403
-0.15380174 0.10974183 0.45233437 6574918
-0.1525692 0.10944298 0.45110255 6509898
-0.15134457 0.10914662 0.44988102 6644062
-0.15065737 0.10923675 0.45025253 6710886
-0.14996904 0.10932703 0.45062464 6776679
-0.14927958 0.10941746 0.45099738 6842472
-0.14858897 0.10950804 0.45137072 6842472
-0.14789723 0.10959877 0.45174471 6776679
-0.14722942 0.10970835 0.45219639 6710886
-0.14656508 0.10982174 0.45266375 6645093
-0.14589934 0.10993536 0.45313206 6513507
-0.14523223 0.11004922 0.45360136 6381921
-0.14456375 0.11016331 0.45407164 5987163
-0.14389387 0.11027764 0.45454288 6316128
-0.14322123 0.11039115 0.45501074 6776679
-0.14252746 0.11048958 0.45541647 6776679
-0.14183244 0.11058819 0.45582291 6776679
-0.14113618 0.11068697 0.45623007 6447714
-0.14043868 0.11078594 0.45663798 6052956
-0.13979161 0.11092608 0.45721564 5658198
-0.13916482 0.11108408 0.45786688 5526612
-0.13853624 0.11124254 0.45852 4868682
-0.13790587 0.11140144 0.45917496 3815994
-0.1372737 0.1115608 0.4598318 3815994
-0.1366633 0.11173991 0.46057007 4737096
-0.13611628 0.11197333 0.46153218 6250335
-0.13556695 0.11220772 0.46249828 6645093
-0.13504207 0.11246537 0.46356028 5526612
-0.13452262 0.11273079 0.46465427 4605509
-0.13403557 0.11302686 0.46587461 4671045
-0.13356687 0.11334224 0.46717456 5789525
-0.13309556 0.11365938 0.46848175 6183253
-0.13261972 0.1139767 0.46978968 6575692
-0.13213247 0.11428821 0.47107366 7034696
-0.13164254 0.11460143 0.47236469 7034696
-0.13114992 0.11491637 0.47366282 7034696
-0.13065457 0.11523306 0.47496814 7034696
-0.1301565 0.11555149 0.47628063 7100488
-0.12961058 0.11583139 0.47743434 7233364
-0.17885886 0.12027481 0.49209061 7035214
-0.17588627 0.11886579 0.48632574 6109219
-0.17283343 0.11738812 0.48028004 5778453
-0.16937743 0.11562036 0.47304744 5847087
-0.16577926 0.11373717 0.46534258 7102293
-0.16296718 0.11237686 0.45977703 6772041
-0.1618607 0.11218478 0.45899117 6574403
-0.16074488 0.11198422 0.45817059 6574403
-0.15962683 0.11178003 0.45733514 6574403
-0.15851285 0.11157657 0.45650277 6574403
-0.15740293 0.11137387 0.45567343 6574403
-0.15629703 0.11117189 0.45484707 6574403
-0.15519512 0.11097065 0.45402369 6574403
-0.1540972 0.11077014 0.45320332 6574403
-0.15295094 0.11053255 0.45223126 6574918
-0.15172099 0.11023161 0.45099998 6708308
-0.15075649 0.11012132 0.45054877 6710886
-0.15006781 0.1102124 0.45092139 6776679
-0.14937796 0.11030362 0.4512946 6842472
-0.14868748 0.11039536 0.45166996 6776679
-0.14802541 0.11050932 0.45213622 6579300
-0.14736196 0.11062352 0.45260346 6447714
-0.14669715 0.11073796 0.45307165 6052956
-0.14603096 0.11085263 0.45354083 5263440
-0.14535341 0.11095992 0.45397979 4671303
-0.1446631 0.11105864 0.45438367 5592405
-0.14397155 0.11115752 0.45478827 6316128
-0.14327879 0.1112566 0.45519361 6579300
-0.14258479 0.11135583 0.45559964 6645093
-0.14188954 0.11145525 0.45600641 6776679
-0.14119305 0.11155486 0.45641392 5987163
-0.14056838 0.11171269 0.45705968 5460819
-0.13994291 0.11187176 0.4577105 4408131
-0.13931565 0.11203128 0.45836315 2500134
-0.13868661 0.11219127 0.45901769 5263440
-0.13805577 0.1123517 0.45967409 4868682
-0.13742313 0.11251259 0.46033236 4539717
-0.13678867 0.11267395 0.46099252 5395026
-0.13615237 0.11283576 0.46165457 5526612
-0.13559537 0.11306567 0.46259525 5921370
-0.13508558 0.11333805 0.46370965 5460819
-0.13462199 0.11365283 0.46499753 5000267
-0.13415581 0.11396936 0.46629256 5921369
-0.13368702 0.11428764 0.4675948 5592147
-0.13321562 0.11460773 0.46890438 5592147
-0.1327312 0.11492062 0.47018456 6707020
-0.13224384 0.11523499 0.47147074 7034696
-0.1317538 0.11555107 0.47276396 7034696
-0.13126107 0.1158689 0.47406429 7034696
-0.1307545 0.11617859 0.47533137 7166025
-0.13017383 0.1164261 0.47634405 7231817
-0.12964272 0.11672152 0.47755271 6968651
-0.17997757 0.12192028 0.49516848 7167830
-0.17668629 0.12028768 0.48853779 6440243
-0.17353535 0.11873472 0.48223057 5976346
-0.17079169 0.11744617 0.47699726 5648163
-0.16663277 0.11516645 0.46773836 6772555
-0.1637702 0.11376403 0.4620426 7233623
-0.16195494 0.11307851 0.45925841 6706246
-0.16085143 0.11288545 0.45847431 6640196
-0.15975168 0.11269305 0.45769289 6640196
-0.15865569 0.1125013 0.45691413 6640196
-0.1575634 0.11231021 0.45613801 6640196
-0.15647483 0.11211976 0.45536453 6574403
-0.15537752 0.111921 0.4545573 6574403
