# .PCD v0.7 - Point Cloud Data file format
VERSION 0.7
FIELDS x y z rgb
SIZE 4 4 4 4
TYPE F F F U
COUNT 1 1 1 1
WIDTH 1108
HEIGHT 1
VIEWPOINT 0 0 0 1 0 0 0
POINTS 1108
DATA ascii
0.10378956 -0.045296475 0.39545798 4144706
0.10448629 -0.045289278 0.39539516 4078914
0.10518362 -0.045282438 0.39533547 3684160
0.1058827 -0.045276441 0.39528307 3421246
0.10659144 -0.045274626 0.39526725 3158078
0.10730013 -0.045272812 0.39525142 2631229
0.10801085 -0.045271873 0.39524323 2630719
0.10873328 -0.045275826 0.39527771 2565184
0.10945587 -0.04527979 0.39531231 2368065
0.11017857 -0.04528375 0.39534691 2302021
0.11090919 -0.045290887 0.39540923 1972547
0.11164214 -0.045298886 0.39547905 1906754
0.11237534 -0.045306884 0.39554888 1709885
0.11310881 -0.045314886 0.39561874 1578811
0.11384304 -0.045323089 0.39569035 1775931
0.11458243 -0.045333236 0.39577895 1973565
0.11533008 -0.045346498 0.39589474 2039101
0.11607938 -0.045360249 0.39601475 2170685
0.11682912 -0.045373999 0.39613482 2236222
0.11757933 -0.045387764 0.39625499 2301759
0.11835514 -0.045411188 0.39645949 2301759
0.119132 -0.045434728 0.39666501 2236476
0.11990966 -0.045458291 0.3968707 2170938
0.12068813 -0.045481876 0.39707664 2302520
0.12146942 -0.045506239 0.39728934 2302775
0.12227449 -0.045539178 0.3975769 2434620
0.12310635 -0.045581654 0.39794773 2434362
0.1239382 -0.045623627 0.39831418 2565435
0.12476917 -0.045664798 0.39867362 3092029
0.12560165 -0.045706041 0.3990337 3354939
0.12643561 -0.045747358 0.39939439 3354938
0.12729515 -0.045797404 0.39983132 3749951
0.12816241 -0.045849651 0.40028748 3815744
0.12903762 -0.045904137 0.40076315 3355194
0.12993726 -0.045966666 0.40130904 2894133
0.130858 -0.046035919 0.40191367 2828345
0.13178858 -0.046107851 0.40254167 2960697
0.13284847 -0.046223987 0.40355557 3488310
0.13387017 -0.046325646 0.40444311 3817527
0.13488573 -0.046424083 0.40530252 3751484
0.13599464 -0.046553422 0.4064317 3619394
0.13710472 -0.046681769 0.40755221 2895175
0.13824792 -0.046819966 0.40875873 2499916
0.13952637 -0.047002248 0.41035014 2368335
0.14109942 -0.047281336 0.41278669 2565712
0.067826904 -0.048447788 0.42973787 2565699
0.068101399 -0.048094209 0.42660156 1315129
0.068500377 -0.047835458 0.42430642 1249593
0.068973787 -0.04763383 0.42251796 1118003
0.069463201 -0.047447544 0.42086557 1052721
0.069981925 -0.047285084 0.41942453 1052723
0.070518665 -0.047138143 0.41812116 1184052
0.071067721 -0.047002461 0.41691762 1381172
0.071637489 -0.046883173 0.41585952 2434361
0.072215863 -0.046771932 0.41487283 3684925
0.072799437 -0.046666302 0.41393587 3947581
0.073398992 -0.046572968 0.41310796 4079420
0.073999718 -0.046482235 0.41230315 3684670
0.07459835 -0.046392009 0.41150284 2170940
0.075195953 -0.04630293 0.41071269 1710146
0.075812213 -0.04622696 0.41003883 1644100
0.076430455 -0.046153657 0.40938863 1907013
0.077046745 -0.046080586 0.40874049 2697029
0.077661075 -0.046007745 0.40809438 3816005
0.07828708 -0.045943122 0.40752116 4211266
0.078913264 -0.045879804 0.40695953 4342596
0.079539075 -0.045817439 0.40640634 4408137
0.080166802 -0.045757305 0.40587294 3684170
0.080794856 -0.045698445 0.40535086 2828619
0.081429623 -0.045644406 0.40487152 2697036
0.082062885 -0.04559049 0.40439329 3157833
0.082695886 -0.045537382 0.4039222 4013385
0.083330862 -0.045486279 0.40346891 4210762
0.083964407 -0.045435287 0.4030166 3684168
0.084600002 -0.045386266 0.40258178 3289161
0.085237868 -0.045339294 0.40216511 3881548
0.085878603 -0.045294624 0.40176889 4079430
0.086518079 -0.04525004 0.40137345 4277061
0.087156296 -0.045205545 0.40097877 4408389
0.087803647 -0.045166485 0.40063229 4539973
0.088453956 -0.045129571 0.40030485 4605766
0.089103207 -0.045092717 0.39997795 4539973
0.089756697 -0.045058582 0.39967519 4473925
0.090411715 -0.045025755 0.39938399 4342340
0.091071285 -0.044995692 0.39911735 4210758
0.091729969 -0.04496567 0.39885104 3815752
0.092387661 -0.044935632 0.3985846 2696774
0.093043864 -0.044905338 0.39831591 2301510
0.093700655 -0.044875793 0.39805382 2170182
0.094363727 -0.044849679 0.3978222 1973317
0.095026024 -0.044823594 0.39759082 1776451
0.095687553 -0.044797543 0.39735973 2565955
0.096348308 -0.044771519 0.39712891 3552836
0.097009264 -0.044745971 0.39690229 4078915
0.097682722 -0.044726521 0.39672977 4144704
0.098355606 -0.044707093 0.39655745 4276287
0.099028908 -0.044688135 0.39638928 4210751
0.099701658 -0.044669203 0.39622134 4210751
0.10037385 -0.04465029 0.39605358 4210495
0.10105383 -0.044635087 0.39591873 4342081
0.10173988 -0.044622757 0.39580935 4276288
0.10242556 -0.044610437 0.39570007 4210753
0.10311086 -0.044598121 0.39559084 4079170
0.10379662 -0.044586174 0.39548486 3486782
0.10448993 -0.044577617 0.39540896 2894396
0.10518646 -0.044570535 0.39534613 2565180
0.1058836 -0.044563804 0.39528644 2302012
0.1065871 -0.044559825 0.39525115 1907003
0.10729577 -0.044558041 0.39523533 1907005
0.10800437 -0.044556256 0.3952195 1775676
0.10872237 -0.044558346 0.39523804 1841213
0.10944488 -0.044562247 0.39527264 1907009
0.11016751 -0.044566147 0.39530721 1907011
0.11089231 -0.044570863 0.39534906 1907011
0.11162513 -0.044578727 0.39541882 1841730
0.11235823 -0.044586599 0.39548865 1841729
0.11309158 -0.044594474 0.39555848 1907520
0.11382519 -0.044602349 0.39562833 2104894
0.11456276 -0.044611666 0.39571097 2170939
0.11530378 -0.044622209 0.39580449 2236730
0.1160529 -0.044635732 0.39592445 2368062
0.11680247 -0.044649262 0.39604446 2367296
0.1175525 -0.044662803 0.39616457 2367296
0.11831567 -0.044681147 0.39632729 2236220
0.11909226 -0.044704299 0.39653265 2104888
0.11986963 -0.044727474 0.39673823 1973809
0.12064783 -0.044750676 0.39694402 2039597
0.12142681 -0.044773899 0.39715001 2434610
0.12220977 -0.044798303 0.39736649 2829367
0.12303486 -0.04483778 0.39771664 2763318
0.12386611 -0.044879027 0.39808249 3355708
0.12469654 -0.044919502 0.39844152 4145731
0.12552844 -0.044960044 0.39880115 4145216
0.12636186 -0.045000665 0.39916146 4210494
0.12720416 -0.045043968 0.39954555 4210496
0.12807071 -0.045095321 0.40000105 4342337
0.12893923 -0.045146789 0.40045759 3947834
0.1298276 -0.045204595 0.40097034 3025968
0.13073644 -0.045268852 0.40154031 3157052
0.13165893 -0.045337096 0.40214562 3026232
0.1326617 -0.045432091 0.40298826 3290420
0.13370049 -0.045538314 0.40393046 3620148
0.13470906 -0.045633148 0.40477166 3685944
0.13576429 -0.045742687 0.40574327 3422015
0.13687378 -0.045869227 0.40686572 3290181
0.13798746 -0.04599582 0.40798861 2565706
0.13917984 -0.046147164 0.40933102 2368333
0.14050324 -0.046340119 0.41104257 2433872
0.14259391 -0.046782777 0.414969 2894667
0.068370849 -0.047511946 0.42828944 1249591
0.068707012 -0.047212079 0.42558634 1315130
0.069115289 -0.046967845 0.42338476 1118006
0.069605149 -0.04678379 0.4217256 1052720
0.070103057 -0.046609059 0.42015052 1052466
0.070638232 -0.046462581 0.4188301 1118259
0.071178474 -0.046322498 0.41756737 1381428
0.071742862 -0.046200901 0.41647124 2105399
0.072310306 -0.046083771 0.41541538 3618879
0.072888948 -0.045976106 0.41444486 3947581
0.073478736 -0.045877587 0.41355675 4013628
0.074079953 -0.045788113 0.41275021 3684669
0.074679323 -0.045699287 0.41194952 2433851
0.075277418 -0.045611441 0.41115764 1710143
0.075880073 -0.045528047 0.41040587 1644354
0.076497629 -0.045455113 0.40974844 1775683
0.077114351 -0.045383085 0.40909916 2762820
0.077729113 -0.045311283 0.40845191 3816004
0.078345969 -0.045242038 0.40782771 4144962
0.078972541 -0.045179639 0.40726522 4342595
0.079597391 -0.045117415 0.40670431 4408136
0.080225073 -0.045057919 0.40616798 3618632
0.080851533 -0.044998813 0.40563521 2762827
0.081481673 -0.044942807 0.40513033 2697037
0.082115285 -0.044889688 0.40465149 3223881
0.082747392 -0.044836693 0.40417379 4144715
0.083381899 -0.044785913 0.40371603 4342090
0.084015779 -0.044735678 0.40326318 3684170
0.084648244 -0.044685554 0.40281135 2828615
0.085284665 -0.044638358 0.40238592 3618379
0.085923843 -0.04459339 0.40198055 4013385
0.08656361 -0.044549473 0.40158468 4211013
0.087202117 -0.044505645 0.4011896 4276805
0.087841369 -0.044462916 0.40080443 4408389
0.088491358 -0.044426274 0.4004741 4539717
0.08914084 -0.044389974 0.4001469 4539717
0.089790754 -0.044354469 0.39982685 4539460
0.090445273 -0.044321787 0.39953223 4407879
0.09110146 -0.044290435 0.39924961 4078922
0.091760352 -0.044260874 0.39898315 3091528
0.09241835 -0.044231351 0.39871702 2301767
0.093075342 -0.044201806 0.39845067 2104647
0.093730867 -0.044172015 0.39818215 2039366
0.094390281 -0.044144504 0.39793414 2237253
0.095052749 -0.044118822 0.39770263 3158086
0.095714442 -0.044093169 0.3974714 3947589
0.096375369 -0.044067547 0.39724043 4144961
0.097035535 -0.044041958 0.39700976 4210750
0.09770155 -0.044019382 0.39680624 4276287
0.098375373 -0.044000622 0.39663714 4211007
0.099048831 -0.043981973 0.39646903 4145214
0.099721722 -0.043963339 0.39630106 4079679
0.10039403 -0.04394472 0.39613321 4079678
0.10106753 -0.043926876 0.39597237 4211007
0.1017507 -0.043913461 0.39585143 4210754
0.10243645 -0.043901332 0.39574212 3816002
0.10312181 -0.043889213 0.39563286 2894653
0.10380679 -0.043877099 0.39552367 2236473
0.10449377 -0.043865986 0.39542347 2038588
0.10519014 -0.043858938 0.39535996 1775678
0.10588646 -0.043851968 0.39529711 1710141
0.10658342 -0.043845352 0.39523748 1710397
0.10729139 -0.043843329 0.39521924 1710398
0.10799997 -0.043841571 0.39520341 1709884
0.10871165 -0.043841094 0.39519909 1709631
0.1094339 -0.043844853 0.39523298 1840707
0.11015645 -0.043848686 0.39526755 1841474
0.11087914 -0.043852523 0.39530212 1907267
0.11160815 -0.043858793 0.39535865 1973061
0.11234112 -0.043866534 0.39542842 2104134
0.11307436 -0.043874279 0.39549825 2236226
0.11380786 -0.043882027 0.39556807 2302269
0.11454307 -0.043890338 0.395643 2368316
0.11528254 -0.043900162 0.39573157 2368316
0.11602645 -0.04391155 0.39583421 2433598
0.11677584 -0.043924857 0.39595416 2367549
0.11752568 -0.043938175 0.39607421 2236217
0.11827624 -0.043951593 0.39619517 2170678
0.11905253 -0.043974359 0.39640039 2171186
0.11982963 -0.043997146 0.39660582 2434353
0.12060754 -0.044019964 0.39681149 3158073
0.12138626 -0.0440428 0.39701736 3618878
0.12216577 -0.044065658 0.39722341 3882047
0.122963 -0.0440946 0.3974843 4211009
0.1237941 -0.044135291 0.39785108 4342593
0.12462398 -0.04417507 0.39820966 4342849
0.12545533 -0.044214919 0.3985689 4211262
0.12628822 -0.044254843 0.39892879 4078907
0.1271226 -0.044294842 0.39928934 3947066
0.12797913 -0.044342063 0.39971501 3881528
0.12884691 -0.044392634 0.40017089 3355698
0.12972844 -0.044447344 0.40066406 3092015
0.13061841 -0.044504333 0.40117776 2960430
0.13153654 -0.044570234 0.40177181 3223857
0.13247547 -0.044642419 0.40242252 3289908
0.13353123 -0.04475297 0.40341908 3488048
0.13453816 -0.044846054 0.40425816 3619893
0.13554929 -0.044939525 0.40510073 3487550
0.1366436 -0.04505942 0.40618151 3158341
0.13775478 -0.045183569 0.40730065 2697290
0.13887317 -0.045308754 0.40842912 2434125
0.14015371 -0.045485239 0.41002002 2368078
0.14158487 -0.045708504 0.41203257 2499664
0.068741709 -0.04699292 0.43061259 2697283
0.068921089 -0.046589114 0.4269124 1249337
0.069309741 -0.046334136 0.42457592 1315386
0.069747776 -0.04611738 0.42258972 1118259
0.070234157 -0.045936935 0.42093623 1052721
0.070758201 -0.045784716 0.41954142 1118002
0.071299002 -0.045646451 0.41827443 1184308
0.071848549 -0.045516621 0.41708475 1907767
0.072416559 -0.045401055 0.41602579 3355453
0.072981693 -0.045286074 0.41497219 3947580
0.073560648 -0.045181919 0.41401777 4013372
0.074160367 -0.045092482 0.41319823 3947583
0.074760474 -0.045005061 0.41239715 2630971
0.075359061 -0.044918455 0.41160357 1841215
0.075955354 -0.044832185 0.41081303 1709889
0.076565981 -0.044755962 0.41011456 1775937
0.077182077 -0.044684362 0.40945846 2499649
0.077797271 -0.044613604 0.40881008 3947590
0.078410529 -0.044543073 0.40816379 4079426
0.079031907 -0.04447842 0.40757138 4342339
0.079657137 -0.044417117 0.4070096 4408134
0.080283441 -0.044357516 0.40646347 3881546
0.080910273 -0.04429929 0.40592992 2762824
0.081535466 -0.044241216 0.40539777 2762827
0.082167745 -0.044187989 0.40491003 3289673
0.082800195 -0.044135787 0.4044317 4210762
0.083433002 -0.044084687 0.40396345 4408138
0.084067218 -0.044035211 0.40351006 3683914
0.084700003 -0.04398584 0.40305766 2763080
0.085331574 -0.043936685 0.40260723 3026249
0.085969143 -0.043891419 0.40219244 3816010
0.0866092 -0.043848172 0.40179616 4013382
0.08724799 -0.043805011 0.40140066 4145221
0.087885529 -0.043761931 0.40100592 4276550
0.088528782 -0.043722376 0.40064347 4342341
0.089178517 -0.043686643 0.40031603 4342084
0.089827195 -0.043650966 0.3999891 4276805
0.090479583 -0.043617647 0.3996838 3947336
0.091133356 -0.043585517 0.39938939 3157576
0.091790751 -0.04355561 0.39911532 2433606
0.092448957 -0.043526549 0.39884904 2170438
0.093106277 -0.043497525 0.39858308 2170694
0.093762569 -0.043468472 0.39831683 2763079
0.094417401 -0.043439187 0.39804849 3618633
0.095079482 -0.04341365 0.39781448 4079173
0.095741346 -0.0433884 0.39758313 4276544
0.096402444 -0.043363184 0.39735204 4342335
0.097062774 -0.043337993 0.39712122 4276800
0.097723149 -0.04331319 0.39689395 4276800
0.098395184 -0.043293882 0.39671701 4211262
0.099068768 -0.043275528 0.39654884 4145471
0.099741779 -0.043257188 0.39638078 4145215
0.10041422 -0.043238863 0.39621288 4211006
0.10108609 -0.043220557 0.39604512 4079167
0.10176308 -0.043204676 0.39589959 3486274
0.10244733 -0.043192081 0.39578417 2565183
0.10313276 -0.043180153 0.39567488 2039101
0.10381782 -0.043168232 0.39556566 1841215
0.10450342 -0.043156702 0.39546001 1643583
0.10519394 -0.043147344 0.39537424 1578558
0.10589018 -0.043140441 0.395311 1579069
0.10658628 -0.043133579 0.39524812 1644606
0.10728703 -0.043128677 0.39520317 1644606
0.10799564 -0.043126971 0.39518756 1710141
0.10870591 -0.04312595 0.3951782 1709630
0.10942291 -0.0431276 0.39519331 1840962
0.1101454 -0.04313137 0.39522788 1775682
0.11086801 -0.043135144 0.39526245 1841475
0.11159117 -0.043139078 0.39529848 2038853
0.11232403 -0.043146688 0.39536825 2367813
0.11305714 -0.043154303 0.39543802 2565442
0.11379053 -0.043161925 0.39550784 2565182
0.11452417 -0.043169547 0.3955777 2499644
0.11526274 -0.04317892 0.39566359 2367804
0.1160024 -0.043188587 0.39575216 2302012
0.11674921 -0.04320078 0.39586389 2236216
0.11749888 -0.043213874 0.39598387 2105140
0.11824901 -0.043226976 0.39610395 2236979
0.11901283 -0.043244906 0.39626822 3092540
0.11978966 -0.04326731 0.39647353 3881794
0.12056728 -0.043289736 0.39667904 4144964
0.12134572 -0.043312188 0.39688477 4211011
0.12212496 -0.043334663 0.3970907 4408387
0.122905 -0.04335716 0.39729685 4473922
0.12372218 -0.043392416 0.39761993 4671301
0.12455151 -0.043431506 0.39797813 4539971
0.12538232 -0.043470662 0.39833692 4408386
0.12621464 -0.043509893 0.39869639 4276287
0.12704846 -0.043549191 0.39905649 4013369
0.12788768 -0.043589886 0.39942941 3618613
0.12875475 -0.043639567 0.39988464 3289906
0.12962942 -0.043691251 0.40035826 3026734
0.13051859 -0.043747224 0.40087116 2960683
0.1314144 -0.043804798 0.40139872 3618612
0.13233757 -0.04387081 0.40200362 3881787
0.13334909 -0.043965232 0.40286884 3553331
0.1343677 -0.044060957 0.40374598 3619124
0.1353772 -0.04415267 0.4045864 3816253
0.13641335 -0.044252053 0.40549707 3158340
0.13752289 -0.044374052 0.40661499 2763082
0.13863768 -0.044496443 0.40773651 2499917
0.1398059 -0.044634603 0.40900251 2368077
0.1411224 -0.044818398 0.4106867 2368335
0.14281115 -0.045117881 0.41343096 2894666
0.069224857 -0.046020992 0.428794 1249591
0.069525182 -0.045709923 0.42589566 1315129
0.069910444 -0.045460891 0.42357534 1183798
0.070378706 -0.045270626 0.42180255 1118257
0.07087858 -0.045104552 0.42025518 1183539
0.071419932 -0.044968106 0.41898388 1184053
0.071958028 -0.044832487 0.41772026 1775927
0.072523132 -0.044716332 0.41663802 3223613
0.073088817 -0.044602919 0.41558132 3815740
0.073651649 -0.04449008 0.41452995 3947324
0.074240953 -0.044395342 0.41364723 3815997
0.074841797 -0.044309322 0.41284576 2828348
0.075440884 -0.044223964 0.41205046 1709628
0.076037668 -0.044138938 0.41125822 1578303
0.076634929 -0.044055831 0.41048387 1775936
0.077250913 -0.043984972 0.40982366 2499649
0.077865556 -0.043914698 0.4091689 3684420
0.078479238 -0.04384521 0.40852144 4144962
0.079091363 -0.043776147 0.40787798 4210754
0.079716988 -0.043715764 0.40731537 4342597
0.080341883 -0.043656092 0.40675938 4013385
0.080969095 -0.043598745 0.40622506 2959943
0.081594668 -0.043541547 0.40569213 2762825
0.082220271 -0.043485388 0.40516886 3618378
0.082853064 -0.043433987 0.40468994 4342346
0.083484374 -0.043382712 0.40421218 4342347
0.084118716 -0.043333884 0.40375724 3552586
0.08475183 -0.043285269 0.40330428 2697289
0.085383527 -0.043236766 0.40285236 2434377
0.086015932 -0.043189432 0.40241134 3355210
0.086654827 -0.043146126 0.40200785 3750219
0.087293915 -0.043103635 0.40161192 3881800
0.087931633 -0.043061171 0.40121627 4013383
0.088567853 -0.043018669 0.40082029 4013381
0.089216225 -0.042982716 0.40048528 4013127
0.089865141 -0.042947598 0.40015808 3881546
0.090513915 -0.042912971 0.39983547 3223368
0.091167912 -0.042881347 0.39954081 2499910
0.091821171 -0.04284988 0.39924762 2170694
0.092479579 -0.042821281 0.39898115 2433863
0.093137093 -0.042792719 0.39871502 2960455
0.093793735 -0.042764194 0.39844924 3750216
0.094449326 -0.042735629 0.39818308 4079427
0.095106229 -0.04270808 0.39792642 4276543
0.095768265 -0.042683236 0.39769492 4342592
0.096429542 -0.042658418 0.39746371 4342849
0.0970902 -0.042633705 0.39723343 4408130
0.097751521 -0.042609639 0.39700919 4408386
0.098415181 -0.04258693 0.39679763 4277056
0.099088714 -0.042568795 0.39662865 4276799
0.099761851 -0.042550754 0.39646053 4276285
0.10043442 -0.042532727 0.39629257 4144447
0.10110641 -0.042514712 0.39612472 3552065
0.10177854 -0.042497005 0.39595976 2367551
0.10245837 -0.042482741 0.39582685 1907265
0.10314372 -0.042470943 0.39571694 1644609
0.10382885 -0.04245922 0.39560768 1710145
0.1045136 -0.042447504 0.39549851 1578304
0.10520042 -0.042436782 0.39539862 1512766
0.10589399 -0.042428907 0.39532524 1578560
0.10659003 -0.04242212 0.395262 1513023
0.10728594 -0.042415373 0.39519915 1644862
0.10799135 -0.042412445 0.39517188 1579068
0.10870159 -0.042411443 0.39516252 1644349
0.10941271 -0.042410791 0.39515647 1710400
0.11013435 -0.0424142 0.39518821 1644607
0.11085689 -0.04241791 0.39522278 1841729
0.11157955 -0.04242162 0.39525735 2104898
0.11230693 -0.042427063 0.39530808 2565444
0.11303994 -0.042434551 0.39537784 2894149
0.1137732 -0.042442042 0.39544764 2762561
0.11450672 -0.042449534 0.39551744 2499133
0.11524294 -0.042457927 0.39559564 2235707
0.11598247 -0.04246743 0.39568418 2170422
0.11672261 -0.042477034 0.39577368 2039345
0.11747209 -0.042489905 0.3958936 2368564
0.11822204 -0.042502787 0.39601362 3289663
0.11897317 -0.042515937 0.39613613 4013381
0.1197497 -0.042537954 0.39634129 4210755
0.12052706 -0.04256 0.39654669 4276545
0.1213052 -0.042582065 0.39675227 4342337
0.12208417 -0.042604152 0.39695808 4408128
0.12286393 -0.042626262 0.39716408 4408130
0.12365034 -0.042650409 0.39738905 4474180
0.12447912 -0.042688806 0.39774683 4408643
0.12530939 -0.042727273 0.39810523 4474178
0.12614116 -0.042765807 0.39846426 4473665
0.12697442 -0.042804409 0.39882395 4079162
0.12780921 -0.042843089 0.39918432 3750455
0.12866271 -0.042887568 0.39959878 3684663
0.12953103 -0.04293647 0.4000544 3421235
0.13041891 -0.042991273 0.40056503 3026476
0.13130954 -0.043046378 0.40107846 3223598
0.13221461 -0.043105584 0.40163007 4144701
0.13316195 -0.043177854 0.40230346 4079421
0.13419768 -0.043277841 0.40323508 3816248
0.13520554 -0.043367814 0.40407339 3815995
0.13621759 -0.04345816 0.40491518 3816260
0.13729177 -0.043567255 0.40593165 3092041
0.13840404 -0.043687217 0.40704939 2631500
0.13952246 -0.043807842 0.40817329 2368333
0.14077459 -0.043968964 0.40967453 2302542
0.14209628 -0.044150021 0.41136149 2499663
0.06969066 -0.045551997 0.43167931 3026244
0.0697423 -0.04508204 0.42722571 1249336
0.070125565 -0.044834375 0.42487869 1315386
0.070542544 -0.044613391 0.42278451 1118260
0.071007282 -0.044427015 0.42101827 1183793
0.07154128 -0.044287458 0.41969573 1249332
0.072079912 -0.044153664 0.41842782 1512502
0.072630011 -0.04402959 0.41725203 2960189
0.073196255 -0.043917753 0.4161922 3815997
0.073759638 -0.043806486 0.41513777 3882044
0.074322164 -0.043696951 0.41409972 3815740
0.074923299 -0.04361207 0.41329536 2894650
0.075522885 -0.043527965 0.41249833 1841466
0.076120146 -0.043444183 0.41170433 1644095
0.076715119 -0.043360721 0.41091341 1775680
0.077320434 -0.043284643 0.41019246 2236480
0.077934876 -0.043215074 0.40953317 3749958
0.078548066 -0.043146122 0.40887973 4144961
0.079160243 -0.043077897 0.4082332 4276291
0.079776913 -0.04301336 0.40762159 4276804
0.080401205 -0.042954069 0.4070597 4276554
0.081028014 -0.042897183 0.40652063 3157830
0.08165396 -0.042840865 0.40598693 2894663
0.082278259 -0.042784698 0.40545464 3816009
0.082906008 -0.042731293 0.40494853 4408392
0.083537646 -0.042680807 0.40447012 4210763
0.084170274 -0.042631697 0.40400472 3355210
0.084803723 -0.042583842 0.40355122 2762825
0.085435748 -0.042536095 0.40309873 2499657
0.086066358 -0.042488456 0.40264726 2631241
0.086700507 -0.042443346 0.40221977 3288907
0.087339886 -0.042401522 0.40182343 3552076
0.087977529 -0.04235955 0.40142569 3684172
0.088613816 -0.042317618 0.40102831 3684172
0.08925423 -0.04227832 0.4006559 3486796
0.089903116 -0.042243633 0.40032718 2828616
0.09055122 -0.042209134 0.40000024 2236742
0.091202497 -0.042176649 0.39969239 2236998
0.091855742 -0.042145576 0.39939794 2499910
0.092510216 -0.042115543 0.39911333 3092295
0.093167931 -0.042087447 0.39884704 3881542
0.093824774 -0.042059381 0.39858109 4276802
0.094480745 -0.042031359 0.39831552 4342592
0.095135629 -0.042003278 0.39804941 4342848
0.095795207 -0.041977674 0.39780679 4408385
0.096456647 -0.041953262 0.39757544 4473922
0.097118422 -0.041929357 0.39734888 4473921
0.097779922 -0.041905683 0.39712453 4473921
0.098440669 -0.041882031 0.39690042 4342336
0.099108666 -0.041861784 0.39670852 4276287
0.09978193 -0.041844036 0.39654034 4144703
0.10045462 -0.041826304 0.39637229 3881281
0.10112675 -0.041808583 0.39620438 2499646
0.1017983 -0.04179088 0.39603662 1578559
0.10247394 -0.041775092 0.39588699 1644866
0.10315467 -0.041761581 0.39575896 1710657
0.10383987 -0.041750051 0.3956497 1710145
0.10452469 -0.041738529 0.39554051 1709889
0.10521015 -0.041727412 0.39543515 1513021
0.10589781 -0.041717321 0.39533952 1513277
0.10659388 -0.041710649 0.39527628 1513790
0.10728972 -0.041703977 0.39521307 1645373
0.10798706 -0.041697975 0.39515617 1579323
0.10869727 -0.041696988 0.39514682 1579067
0.10940745 -0.041696001 0.39513746 1644861
0.11012368 -0.041697316 0.39514992 1710653
0.11084577 -0.041700821 0.39518315 1907776
0.11156836 -0.041704468 0.39521772 2368578
0.11229108 -0.041708115 0.39525229 2763077
0.11302273 -0.041715015 0.39531764 2959942
0.11375589 -0.04172238 0.39538744 2827843
0.11448929 -0.041729745 0.39545724 2433085
0.11522315 -0.041737176 0.39552769 2170167
0.11596256 -0.04174652 0.39561623 2104882
0.11670229 -0.041755866 0.39570478 2302769
0.11744532 -0.041766267 0.39580336 3092282
0.11819508 -0.041778926 0.39592332 3816258
0.11894529 -0.041791588 0.39604333 4145219
0.11970979 -0.041809089 0.39620918 4342338
0.12048685 -0.041830745 0.3964144 4342335
0.12126472 -0.041852426 0.39661986 4342591
0.1220434 -0.041874129 0.39682552 4342335
0.12282289 -0.041895851 0.3970314 4342080
0.12360246 -0.041917358 0.39723518 4276802
0.12440653 -0.041946873 0.39751488 4342849
0.12523654 -0.041984744 0.39787379 4408385
0.12606776 -0.042022586 0.3982324 4342335
0.12690048 -0.042060502 0.3985917 4145212
0.12773471 -0.042098481 0.39895162 4013370
0.1285708 -0.042136651 0.39931333 4210749
0.1294384 -0.042184658 0.39976829 3684662
0.13031939 -0.042236477 0.40025938 3223599
0.13120922 -0.042290576 0.40077204 3025963
0.13210133 -0.042344809 0.40128598 3355439
0.13301574 -0.042405561 0.4018617 4013627
0.13402808 -0.042496707 0.40272546 4342593
0.13503431 -0.042584945 0.40356165 4144958
0.13604474 -0.042673551 0.40440133 4408389
0.13706113 -0.042763073 0.40524971 3684168
0.138171 -0.042880658 0.40636402 2894667
0.13928701 -0.042998891 0.40748447 2499917
0.14042848 -0.043123707 0.40866733 2302541
0.14173211 -0.043296754 0.4103072 2499919
0.14329265 -0.043546077 0.41266996 2894416
0.070080884 -0.044526529 0.42929977 1315383
0.070344545 -0.044205587 0.42620546 1315129
0.07070715 -0.043953095 0.42377105 1249592
0.071172282 -0.04376905 0.42199659 1118258
0.071663029 -0.043604489 0.42041001 1183794
0.072202213 -0.043472536 0.41913778 1446708
0.072738141 -0.04334138 0.41787323 2368057
0.073304012 -0.043230575 0.41680491 3684413
0.073867954 -0.043120887 0.41574737 3881787
0.074429035 -0.043011755 0.41469517 3881787
0.07500498 -0.042913295 0.41374591 3223356
0.075605057 -0.042830449 0.41294715 1907001
0.076202817 -0.042747922 0.41215146 1644094
0.076798275 -0.042665709 0.4113588 1709633
0.077391453 -0.042583812 0.41056922 2038591
0.078004964 -0.042514551 0.40990144 3420740
0.078617878 -0.042446271 0.40924311 4144963
0.079229616 -0.04237863 0.40859097 4211009
0.079840273 -0.042311668 0.40794533 4276803
0.080461606 -0.042251531 0.40736553 4342598
0.081087016 -0.042194597 0.40681663 4079177
0.081713334 -0.042139165 0.40628216 3750471
0.082338013 -0.042083874 0.40574908 4211015
0.08296106 -0.042028729 0.40521741 4474185
0.083590999 -0.041978013 0.40472841 4078924
0.0842219 -0.041928649 0.4042525 3157578
0.084855676 -0.041881558 0.40379846 2762825
0.085488029 -0.041834567 0.40334541 2565449
0.086118966 -0.041787684 0.40289339 2302280
0.086748496 -0.041740909 0.4024424 2433353
0.08738564 -0.041698541 0.40203393 2630731
0.088023469 -0.041657198 0.40163532 2696780
0.088660046 -0.041615941 0.40123752 2630986
0.08929614 -0.041575126 0.40084401 2236232
0.089941375 -0.041539188 0.40049753 2039367
0.090589471 -0.041505136 0.40016922 2170950
0.091237105 -0.041471411 0.39984405 2434374
0.091890581 -0.041440848 0.39954939 3289672
0.092543095 -0.041410334 0.39925519 4079177
0.093198799 -0.041381706 0.39897916 4276548
0.093855828 -0.041354101 0.39871302 4408131
0.094511993 -0.041326538 0.39844728 4408131
0.095167279 -0.041299008 0.39818186 4473923
0.095822155 -0.041271716 0.3979187 4473923
0.096484229 -0.041247904 0.39768913 4473667
0.097146653 -0.041224595 0.39746439 4474180
0.097808331 -0.041201312 0.39723992 4473922
0.098469265 -0.041178055 0.39701569 4342337
0.099129811 -0.041154973 0.39679316 4210752
0.099802017 -0.041137032 0.39662015 4013122
0.10047483 -0.041119594 0.39645204 3026241
0.10114709 -0.041102175 0.39628407 1841727
0.10181877 -0.041084766 0.39611626 1513025
0.10248989 -0.041067377 0.39594859 1644608
0.10316909 -0.041053444 0.39581427 1775937
0.1038509 -0.041040733 0.39569172 1840963
0.10453579 -0.041029405 0.3955825 1709888
0.10522031 -0.041018087 0.39547336 1644606
0.10590699 -0.041007761 0.39537379 1644861
0.10659772 -0.040999122 0.39529052 1711164
0.10729359 -0.040992565 0.39522731 1645369
0.10798923 -0.040986013 0.3951641 1842491
0.10869296 -0.040982593 0.39513114 1842236
0.10940311 -0.040981621 0.39512178 1841724
0.11011364 -0.040980801 0.39511389 1841726
0.11083464 -0.040983871 0.39514348 2104641
0.11155716 -0.040987458 0.39517805 2499651
0.11227981 -0.040991042 0.39521262 2828614
0.11300553 -0.040995698 0.3952575 2959687
0.11373857 -0.041002933 0.39532724 2499393
0.11447187 -0.041010171 0.39539704 2236219
0.11520542 -0.041017409 0.39546683 2104884
0.11594264 -0.041025858 0.39554828 2039341
0.11668225 -0.041035041 0.39563683 2829110
0.11742219 -0.041044228 0.3957254 3816256
0.11816814 -0.041055396 0.39583308 4079425
0.11891817 -0.041067839 0.39595303 4211008
0.11966989 -0.04108071 0.39607713 4342591
0.12044667 -0.041101981 0.39628223 4342591
0.12122426 -0.041123275 0.39648753 4276798
0.12200267 -0.041144595 0.39669308 4211006
0.12278187 -0.041165933 0.39689881 4144702
0.12356174 -0.041187245 0.39710429 4144702
0.12433805 -0.041207135 0.39729604 4342592
0.12516303 -0.041242834 0.39764026 4408897
0.12599444 -0.041280232 0.39800081 4408385
0.12682661 -0.041317452 0.39835969 4474179
0.12766029 -0.041354742 0.39871919 4276799
0.12849545 -0.041392092 0.39907932 4013626
0.12934589 -0.041433923 0.39948261 3750197
0.13022003 -0.041482836 0.3999542 3289648
0.13110904 -0.041535925 0.40046605 2894123
0.13200034 -0.041589148 0.40097922 3025960
0.13289393 -0.041642513 0.40149373 3881782
0.13384803 -0.041714154 0.40218446 4407874
0.13486351 -0.041804057 0.40305123 4605508
0.1358723 -0.041890923 0.40388876 4737095
0.13688111 -0.041976873 0.40471745 4539723
0.1379346 -0.042075541 0.40566874 3223626
0.13904804 -0.042191356 0.40678537 2697292
0.14016761 -0.042307809 0.40790814 2434126
0.14138311 -0.042451851 0.4092969 2565710
0.14269258 -0.042622462 0.41094184 3092047
0.144802 -0.043029021 0.41486165 3289413
0.070722543 -0.044152748 0.43323043 4407887
0.070595846 -0.043591969 0.42772803 1315127
0.070934914 -0.043327812 0.42513612 1380922
0.071338043 -0.043108016 0.42297944 1118261
0.071804509 -0.042930737 0.42123997 1118002
0.072324932 -0.042789094 0.41985017 1249587
0.072861388 -0.042659778 0.41858131 1973558
0.073412091 -0.042541366 0.41741943 3355707
0.073976584 -0.042433269 0.41635877 3816251
0.074537806 -0.042325485 0.4153012 3882043
0.075093746 -0.042216882 0.41423556 3355196
0.075687408 -0.042131413 0.41339695 2104377
0.07628566 -0.042050146 0.41259953 1709630
0.076881602 -0.041969188 0.41180515 1709377
0.077475272 -0.041888542 0.41101387 1907009
0.078075171 -0.04181277 0.41027039 2894913
0.078688525 -0.041745555 0.40961087 4013378
0.079299904 -0.041678555 0.40895346 4145217
0.079910204 -0.041612227 0.40830263 4276802
0.080522113 -0.041547939 0.40767184 4408387
0.081146091 -0.041490991 0.40711305 4539718
0.081772797 -0.041436438 0.4065778 4408135
0.082397848 -0.041382033 0.40604395 4473926
0.083021268 -0.041327767 0.4055115 4407881
0.083644412 -0.041274317 0.40498704 3683914
0.084275246 -0.041225553 0.40450856 2762568
0.084907696 -0.041178409 0.404046 2631242
0.085540377 -0.041132182 0.40359241 2631497
0.086171642 -0.041086059 0.40313983 2368329
0.086801492 -0.041040037 0.40268826 2170698
0.087431341 -0.040994778 0.40224418 2236233
0.088069469 -0.040954113 0.40184519 2170698
0.088706329 -0.04091353 0.40144697 2039370
0.089341924 -0.040873025 0.40104952 2104906
0.089980148 -0.040834367 0.4006702 2170953
0.090627968 -0.040800638 0.40033928 2631495
0.09127529 -0.040767223 0.40001139 3487049
0.091925435 -0.040735587 0.39970097 4211018
0.092578173 -0.040705577 0.39940652 4276805
0.093229949 -0.040675614 0.39911252 4408131
0.093886904 -0.040648356 0.39884505 4473670
0.094543263 -0.040621251 0.39857909 4473927
0.09519875 -0.040594183 0.39831352 4407880
0.095853359 -0.040567152 0.39804828 4275786
0.096512303 -0.040542342 0.39780486 4210250
0.097174913 -0.040519428 0.39758 3947335
0.097836763 -0.040496536 0.39735538 4078919
0.098497868 -0.04047367 0.39713103 4078661
0.099158227 -0.04045083 0.39690691 4079173
0.099823087 -0.04043014 0.3967039 3749957
0.10049506 -0.040412605 0.39653185 2631233
0.10116743 -0.040395476 0.39636379 1578305
0.10183924 -0.040378369 0.39619592 1578306
0.10251048 -0.04036127 0.39602816 1709632
0.10318477 -0.040345602 0.39587441 1841218
0.10386398 -0.04033206 0.39574155 1775426
0.1045469 -0.040320136 0.39562452 1709888
0.10523148 -0.040309008 0.39551535 1710142
0.10591678 -0.040298302 0.3954103 1973823
0.10660363 -0.040288329 0.39531243 2500417
0.10729746 -0.040281106 0.39524156 2500158
0.10799312 -0.040274661 0.39517835 2763073
0.10868883 -0.040268321 0.39511612 2433853
0.10939877 -0.0402673 0.39510611 2170429
0.11010886 -0.040266346 0.39509675 1973053
0.1108245 -0.040267423 0.39510733 2039357
0.11154598 -0.040270593 0.39513841 2368575
0.11226854 -0.040274113 0.39517295 2631234
0.11299124 -0.040277638 0.39520752 2499392
0.11372127 -0.040283706 0.3952671 2236731
0.11445444 -0.040290814 0.39533684 2039604
0.11518788 -0.040297929 0.39540663 2105392
0.11592273 -0.040305443 0.39548036 2697525
0.11666221 -0.040314462 0.39556888 3552831
0.11740201 -0.040323488 0.39565742 4079425
0.11814214 -0.040332515 0.39574599 4079678
0.11889106 -0.040344413 0.39586276 4211006
0.11964137 -0.040356643 0.39598274 4211005
0.12040653 -0.040373702 0.39615014 4211262
0.12118384 -0.040394615 0.39635533 4211263
0.12196195 -0.040415544 0.3965607 4145215
0.12274088 -0.040436499 0.3967663 4210751
0.12352061 -0.040457476 0.39697212 4276543
0.12429198 -0.040475488 0.39714885 4408640
0.1250885 -0.040501434 0.39740345 4474434
0.12592003 -0.040538356 0.39776573 4474179
0.12675284 -0.04057527 0.39812794 4539715
0.12758596 -0.040611867 0.39848703 4473922
0.12842058 -0.040648531 0.39884678 4013371
0.12925671 -0.040685259 0.39920714 3881784
0.13012165 -0.040730599 0.39965203 3355185
0.13100903 -0.040782426 0.40016055 2894379
0.13189952 -0.040834647 0.40067294 2894634
0.13279229 -0.040886998 0.40118665 3684405
0.13369343 -0.040941346 0.4017199 4210496
0.13469316 -0.041025139 0.40254208 4670788
0.1356996 -0.041110069 0.40337542 4802887
0.13670401 -0.041193474 0.40419382 4868682
0.13771369 -0.04127758 0.40501904 3881803
0.13880989 -0.041386589 0.40608865 2960459
0.13992688 -0.041500624 0.40720758 2565709
0.14105088 -0.041615535 0.40833509 2565453
0.14234069 -0.041777916 0.40992841 3289679
0.14377239 -0.041980054 0.41191179 3552848
0.070941165 -0.043029889 0.4298203 1446968
0.0711651 -0.042699061 0.4265157 1315128
0.071504585 -0.042443898 0.42396691 1315129
0.071967378 -0.042266555 0.42219546 1118259
0.072458543 -0.042109415 0.42062581 1184050
0.072985068 -0.041975867 0.41929179 1644852
0.073520482 -0.04185012 0.41803575 3092538
0.074085534 -0.041743625 0.41697195 3750203
0.074646704 -0.041637108 0.41590798 3816251
0.075202189 -0.04152957 0.41483378 3618876
0.075769745 -0.041430749 0.41384667 2170680
0.076368682 -0.041350849 0.41304857 1775166
0.076965123 -0.04127115 0.41225249 1709632
0.077559263 -0.04119176 0.41145948 1644095
0.078151122 -0.041112673 0.41066948 2565696
0.078759298 -0.04104358 0.40997928 3684418
0.079371117 -0.040977646 0.40932068 4144962
0.079980969 -0.040911924 0.4086642 4210754
0.080589831 -0.040846899 0.40801468 4408131
0.081206419 -0.040786933 0.40741569 4473924
0.081832349 -0.040732693 0.40687388 4539717
0.082457781 -0.040679172 0.40633926 4539462
0.083081566 -0.040625788 0.40580603 4342091
0.083703727 -0.040572546 0.40527421 3354955
0.084329061 -0.04052176 0.40476689 2565194
0.084959775 -0.0404744 0.40429384 2499402
0.085592791 -0.040428933 0.40383968 2499914
0.086224385 -0.040383574 0.40338656 2434122
0.086854555 -0.040338308 0.40293443 2302282
0.087482065 -0.040292569 0.40247753 2236490
0.088115506 -0.040250294 0.40205526 2170698
0.088752657 -0.040210385 0.40165663 2105419
0.089388542 -0.040170558 0.4012588 2302794
0.090024509 -0.040131409 0.40086773 2697542
0.090666905 -0.04009572 0.40051126 3487047
0.091314025 -0.040062677 0.40018117 4145223
0.091960557 -0.040029891 0.39985368 4408388
0.09261328 -0.040000286 0.39955798 4408132
0.093265273 -0.03997083 0.39926374 4473928
0.093918011 -0.039942142 0.39897716 4342089
0.094574556 -0.039915498 0.39871103 3815240
0.095230244 -0.039888892 0.39844528 3354440
0.095885046 -0.039862324 0.39817986 3157064
0.096540451 -0.039836396 0.39792088 2828102
0.09720318 -0.039813846 0.39769566 2762564
0.097865202 -0.039791346 0.39747089 2893893
0.098526493 -0.039768875 0.39724642 2893891
0.099187016 -0.039746422 0.39702216 3091524
0.099846818 -0.039724 0.39679819 2828614
0.10051606 -0.03970563 0.3966147 2104642
0.1011878 -0.039688502 0.39644358 1644099
0.10185973 -0.039671686 0.39627561 1643842
0.1025311 -0.039654884 0.39610779 1643840
0.10320189 -0.039638095 0.3959401 1578560
0.10387976 -0.039624237 0.39580166 1775939
0.10455862 -0.039610945 0.39566886 1710144
0.10524265 -0.03959978 0.39555734 1973311
0.10592692 -0.03958885 0.39544818 2565696
0.10661347 -0.039578915 0.39534894 3224130
0.10730133 -0.039569594 0.39525583 3486785
0.10799702 -0.039563265 0.39519262 3420735
0.10869249 -0.039556939 0.39512941 2960189
0.10939442 -0.039553031 0.3950904 2499390
0.11010448 -0.039552096 0.39508104 2039099
0.1108145 -0.039551158 0.39507169 1973564
0.11153536 -0.039554071 0.39510077 2368318
0.11225729 -0.03955733 0.39513332 2499647
0.11297991 -0.039560791 0.39516789 2499647
0.11370395 -0.039564699 0.39520693 2170936
0.11443702 -0.03957168 0.39527667 2105395
0.11517034 -0.039578665 0.39534643 2565939
0.11590394 -0.03958565 0.39541623 3487293
0.11664218 -0.039594132 0.39550096 3882303
0.11738185 -0.039602995 0.39558947 4079678
0.11812185 -0.039611857 0.39567801 4145213
0.11886397 -0.039621323 0.39577255 4211006
0.1196141 -0.03963333 0.39589247 4211005
0.12036641 -0.03964591 0.39601815 4211006
0.12114345 -0.039666437 0.39622319 4276800
0.12192128 -0.039686985 0.39642844 4342593
0.12269992 -0.039707553 0.39663389 4342336
0.12347937 -0.039728146 0.39683959 4342591
0.12425104 -0.039746009 0.39701802 4408128
0.12502962 -0.039765868 0.39721641 4474177
0.125845 -0.039797138 0.39752874 4605250
0.12667748 -0.03983343 0.39789125 4539201
0.12751149 -0.039869785 0.39825442 4210749
0.12834579 -0.039905831 0.39861447 3749944
0.12918136 -0.039941866 0.39897442 3157811
0.13002868 -0.039981119 0.3993665 2960686
0.13090916 -0.040030073 0.39985552 2697259
0.13179883 -0.040081292 0.40036711 2434345
0.1326908 -0.040132642 0.40088004 3355188
0.13358505 -0.040184122 0.40139428 3881531
0.13452323 -0.040248189 0.40203422 4013117
0.13552463 -0.040330384 0.40285528 4539459
0.13652737 -0.040412106 0.40367156 4802888
0.13753422 -0.040494159 0.40449119 4802893
0.13857254 -0.040584572 0.40539432 3289417
0.13968697 -0.040696207 0.40650943 2763340
0.14080755 -0.040808458 0.40763068 2499662
0.14199053 -0.040937528 0.40891996 2960461
0.14330122 -0.041101899 0.41056186 4078928
0.14502737 -0.041383132 0.41337106 3355210
0.071451388 -0.042098384 0.42823151 1315383
0.071745254 -0.041819423 0.42539388 1315129
0.072134279 -0.041601252 0.42317459 1118261
0.072603963 -0.041433673 0.42146996 1184304
0.073118016 -0.041294631 0.42005557 1315635
0.073643446 -0.041164797 0.41873491 2697529
0.074194804 -0.041051947 0.41758695 3684412
0.074755929 -0.040946715 0.41651654 3881531
0.075311944 -0.040840808 0.41543922 3750459
0.075867459 -0.040736716 0.41438037 2697529
0.076451734 -0.040649947 0.41349775 1775676
0.077048816 -0.040571596 0.41270077 1775680
0.077643439 -0.04049347 0.41190603 1643839
0.078235775 -0.040415637 0.41111434 1906752
0.078830197 -0.040340338 0.41034836 3421251
0.079442449 -0.040275473 0.40968856 3947841
0.080052741 -0.040210821 0.40903091 4144961
0.080661073 -0.040146377 0.40837538 4342337
0.081268497 -0.040082652 0.40772715 4407875
0.081891976 -0.04002792 0.40717039 4473669
0.082517788 -0.039975286 0.40663499 4473671
0.083141953 -0.039922789 0.40610099 3947594
0.083764479 -0.03987043 0.40556839 2894665
0.08438538 -0.039818209 0.40503719 2499659
0.085012972 -0.039770018 0.40454698 2433612
0.085645266 -0.039724827 0.40408728 2433867
0.086277187 -0.039680224 0.40363359 2499658
0.086907461 -0.039635617 0.40317985 2368330
0.087535255 -0.039590634 0.40272227 2236746
0.08816386 -0.039546754 0.40227589 2236746
0.08879903 -0.039506506 0.4018665 2368330
0.089435197 -0.039467357 0.40146825 2697288
0.090070106 -0.039428279 0.40107077 3552841
0.090708248 -0.039391231 0.40069389 4342345
0.091353238 -0.039357718 0.40035301 4408389
0.091999538 -0.039325293 0.40002316 4342342
0.092648409 -0.039294463 0.39970955 4276552
0.093300633 -0.039265517 0.39941511 3684167
0.093951881 -0.039236609 0.39912108 3025733
0.094605871 -0.03920928 0.39884305 2762567
0.095261753 -0.039183136 0.39857712 2499655
0.095916748 -0.039157026 0.39831153 2368070
0.096571937 -0.039131377 0.39805064 2368070
0.097229823 -0.0391072 0.39780468 2302279
0.09789367 -0.03908575 0.39758649 2301511
0.098555125 -0.039063666 0.39736187 2301509
0.099215835 -0.039041609 0.39713749 2235716
0.0998758 -0.039019577 0.39691338 2169926
0.10053754 -0.038998548 0.39669946 1775429
0.10120872 -0.038981449 0.39652553 1644355
0.10188022 -0.038964719 0.39635533 1644098
0.10255171 -0.038948212 0.39618742 1578561
0.10322264 -0.03893172 0.3960197 1513024
0.10389555 -0.0389162 0.3958618 1710402
0.1045745 -0.038903143 0.39572898 1973314
0.10525384 -0.038890399 0.39559937 2565443
0.10593817 -0.038879666 0.39549017 3420741
0.10662332 -0.038869374 0.39538547 3881538
0.10730995 -0.038859751 0.3952876 4210754
0.10800092 -0.038851816 0.39520687 3947072
0.10869641 -0.038845599 0.39514366 3354943
0.10939209 -0.038839538 0.395082 2500155
0.11010011 -0.038837902 0.39506537 1908026
0.11081011 -0.038836982 0.39505601 2039358
0.11152518 -0.038837843 0.39506474 2302271
0.11224616 -0.038840737 0.39509419 2433598
0.11296857 -0.038844083 0.39512822 2499393
0.11369126 -0.03884748 0.39516279 2302267
0.11441961 -0.038852762 0.39521652 2434358
0.11515282 -0.038859621 0.39528626 3553086
0.11588629 -0.038866479 0.39535603 4211010
0.11662216 -0.038874052 0.39543307 4145214
0.11736169 -0.038882747 0.39552152 4013882
0.11810157 -0.038891453 0.39561006 4145212
0.11884176 -0.038900156 0.39569861 4210749
0.11958683 -0.038910344 0.39580223 4211006
0.12033725 -0.038922135 0.39592218 4276543
0.12110307 -0.038938746 0.39609113 4408129
0.12188062 -0.038958907 0.39629623 4408128
0.12265898 -0.038979094 0.39650157 4342334
0.12343815 -0.0389993 0.39670712 4408127
0.12421012 -0.03901701 0.39688727 4407871
0.12498119 -0.03903424 0.39706251 4473664
0.12577309 -0.039057739 0.39730155 4342079
0.12660199 -0.039092399 0.39765415 4144957
0.12743542 -0.039128058 0.39801687 3684409
0.12827037 -0.039163783 0.39838028 2895153
0.12910609 -0.039199341 0.39874196 2763316
0.12994261 -0.03923475 0.39910215 2960693
0.13080944 -0.039278869 0.39955094 2631727
0.13169833 -0.039329089 0.40006179 2566191
0.13258947 -0.039379437 0.40057391 2828852
0.1334829 -0.03942991 0.40108734 3223350
0.13437714 -0.039480075 0.40159765 2960431
0.13535009 -0.039552707 0.40233648 3881529
0.13635121 -0.039632753 0.40315068 4539715
0.13735639 -0.039713118 0.40396819 4802889
0.13836733 -0.039794296 0.40479395 4210763
0.1394479 -0.039894544 0.40581366 3092042
0.14056589 -0.040004391 0.40693107 2697036
0.1416911 -0.040115144 0.40805766 2697037
0.14294815 -0.040261883 0.40955031 3749966
0.14431897 -0.040438991 0.41135189 3947344
0.071890548 -0.041579939 0.43086353 3026244
0.071986854 -0.041190337 0.42682639 1315128
0.072307751 -0.040936135 0.42419225 1315129
0.07276874 -0.040765733 0.42242649 1118258
0.073255144 -0.040612958 0.42084339 1250096
0.073775694 -0.040482048 0.41948688 1908019
0.074304394 -0.040358223 0.41820377 3618621
0.074865475 -0.040254302 0.41712689 3815739
0.075422019 -0.040150031 0.41604641 3815995
0.075975686 -0.040046297 0.4149715 3158329
0.076538526 -0.03994938 0.41396719 1973305
0.077132575 -0.03987046 0.41314942 1710140
0.077727802 -0.039793659 0.41235358 1578558
0.078320622 -0.039717093 0.41156018 1578559
0.078911163 -0.039640818 0.41076979 2565441
0.079513915 -0.039572041 0.41005713 3750211
0.080124639 -0.039508462 0.40939829 4013631
0.080733396 -0.039445087 0.40874156 4144961
0.081340209 -0.03938191 0.40808693 4276291
0.0819517 -0.039322119 0.40746734 4276293
0.082577884 -0.039270371 0.40693113 4210505
0.083202429 -0.039218765 0.40639636 3420746
0.083825327 -0.039167292 0.40586299 2499658
0.084446594 -0.039115954 0.40533102 2368075
0.085067272 -0.039065227 0.40480536 2368076
0.085697807 -0.039019853 0.40433517 2368075
0.086330056 -0.038976017 0.40388092 2434122
0.086960398 -0.038932063 0.40342546 2434121
0.087588526 -0.038887851 0.40296733 2368329
0.088215217 -0.03884374 0.40251023 2368586
0.088845871 -0.038802072 0.40207848 2828874
0.089481913 -0.038763419 0.40167794 3749963
0.090117104 -0.038725022 0.40128005 4342602
0.090752974 -0.038687523 0.40089148 4342343
0.09139248 -0.038652156 0.40052497 4276550
0.092039034 -0.038620301 0.40019488 3881288
0.092684515 -0.038588494 0.3998653 3222855
0.093336008 -0.038559664 0.39956656 2696519
0.093987487 -0.03853127 0.39927232 2433863
0.094638005 -0.038502913 0.3989785 2236743
0.095293276 -0.03847691 0.39870903 2170951
0.09594848 -0.038451262 0.39844328 2236488
0.096603438 -0.038425904 0.39818048 2236487
0.097259909 -0.038401514 0.39792776 2171206
0.09792091 -0.038379259 0.39769715 2104903
0.098583773 -0.038358051 0.39747739 2104646
0.099244662 -0.038336385 0.39725289 2038342
0.099904805 -0.038314745 0.39702865 1972550
0.1005642 -0.038293131 0.39680466 1907269
0.10123035 -0.03827437 0.39661026 1775940
0.10190106 -0.038257591 0.39643639 1710147
0.10257234 -0.038241256 0.39626712 1644354
0.10324339 -0.038225058 0.3960993 1578818
0.10391387 -0.03820888 0.39593163 1710146
0.10459039 -0.038195122 0.39578909 2039106
0.10526898 -0.038182307 0.39565629 2630977
0.10594942 -0.03817033 0.39553216 3420739
0.10663345 -0.038159799 0.39542302 4012866
0.10731987 -0.038150251 0.39532411 4341826
0.10800622 -0.038140811 0.39522627 3947072
0.10870034 -0.038134214 0.39515793 3223871
0.10939572 -0.038128149 0.39509508 2566460
0.1100958 -0.03812379 0.3950499 1973818
0.11080571 -0.038122866 0.39504033 1907515
0.11151565 -0.038121961 0.39503098 2236222
0.11223594 -0.038124587 0.39505818 2367808
0.11295724 -0.038127523 0.39508858 2499394
0.11367985 -0.038130857 0.39512315 2762816
0.11440258 -0.038134191 0.39515769 3421249
0.1151353 -0.038140796 0.39522612 4210756
0.11586865 -0.038147524 0.39529586 4342337
0.11660226 -0.038154259 0.39536563 4210237
0.11734154 -0.038162749 0.39545363 4079164
0.11808128 -0.038171291 0.39554211 4144957
0.11882135 -0.038179833 0.39563066 4210751
0.11956175 -0.038188379 0.3957192 4342080
0.12030981 -0.038199261 0.39583194 4407872
0.12106272 -0.038211536 0.39595917 4407872
0.12183999 -0.038231317 0.39616415 4407871
0.12261808 -0.038251121 0.39636934 4210749
0.12339696 -0.038270943 0.39657474 4276542
0.12416923 -0.038288493 0.39675662 4079420
0.12494003 -0.038305398 0.39693177 3882042
0.12572093 -0.038325187 0.39713684 3750202
0.12652659 -0.038352251 0.39741731 3618876
0.12735945 -0.038387217 0.39777961 3289914
0.12819384 -0.038422246 0.39814258 3224636
0.12902975 -0.038457334 0.39850619 3422019
0.12986688 -0.0384924 0.39886957 3289663
0.13071106 -0.038529158 0.39925045 2894900
0.13159795 -0.03857803 0.39975688 2895158
0.1324883 -0.038627379 0.40026823 3553090
0.13337797 -0.038675997 0.40077204 3684418
0.13426875 -0.038724408 0.4012737 3355447
0.135176 -0.038777031 0.40181899 3553080
0.13617548 -0.038855404 0.4026311 4210494
0.137179 -0.038934093 0.4034465 4408130
0.13818659 -0.039013099 0.4042652 4803146
0.13921072 -0.039095923 0.40512344 3684425
0.14032505 -0.039203081 0.40623385 3026251
0.14144664 -0.039311145 0.40735361 2565453
0.14260584 -0.039428487 0.40856957 3091789
0.14390874 -0.039584152 0.4101826 3749967
0.14548305 -0.039812498 0.41254878 3289424
0.07230895 -0.040601283 0.42873618 1315383
0.072556578 -0.040309209 0.42565197 1315129
0.072934262 -0.040094752 0.42338738 1183798
0.07340429 -0.039934974 0.42170018 1184048
0.073913872 -0.03979978 0.42027256 1578801
0.074431598 -0.039671663 0.41891971 2960696
0.074975334 -0.039559852 0.417739 3684666
0.075532414 -0.039457232 0.41665536 3815995
0.076086603 -0.03935514 0.41557732 3487290
0.076641709 -0.039255511 0.41452527 2170934
0.077216312 -0.039167695 0.41359794 1644604
0.077812269 -0.039092287 0.41280168 1579069
0.078405641 -0.039017025 0.41200694 1513022
0.078996666 -0.038942017 0.41121489 1841214
0.079585515 -0.038867343 0.41042635 3092035
0.080196664 -0.03880484 0.40976632 3749956
0.080805853 -0.038742535 0.4091084 4013123
0.081413098 -0.038680431 0.4084526 4079169
0.08201839 -0.038618527 0.40779892 4013124
0.08263807 -0.038564432 0.40722772 3552585
0.083262987 -0.038513716 0.40669218 2762568
0.083886266 -0.038463134 0.40615803 2367817
0.084507905 -0.038412683 0.40562528 2367818
0.085127912 -0.038362365 0.40509394 2367820
0.085750848 -0.038314208 0.40458542 2368076
0.086382985 -0.038270943 0.40412855 2433867
