# .PCD v0.7 - Point Cloud Data file format
VERSION 0.7
FIELDS x y z rgb
SIZE 4 4 4 4
TYPE F F F U
COUNT 1 1 1 1
WIDTH 1120
HEIGHT 1
VIEWPOINT 0 0 0 1 0 0 0
POINTS 1120
DATA ascii
-0.11174026 0.069901444 0.56572485 4013391
-0.11090144 0.070016116 0.56665289 4408399
-0.11005986 0.070131168 0.56758404 4605774
-0.10922921 0.070255406 0.56858951 4869198
-0.108421 0.070396572 0.56973201 4934734
-0.10761842 0.070544131 0.57092625 4276561
-0.10684944 0.070716776 0.5723235 3289681
-0.10608736 0.070897408 0.57378536 4079185
-0.10536878 0.071110949 0.5755136 4802893
-0.1046791 0.071348444 0.57743567 3618380
-0.10402148 0.071612783 0.579575 3881802
-0.10344578 0.071939446 0.58221877 3881796
-0.10298116 0.072350867 0.58554846 2763326
-0.17183553 0.071727142 0.57214803 854837
-0.16969848 0.071263105 0.56844652 460086
-0.16787894 0.070927575 0.56577009 460087
-0.16626817 0.070676684 0.5637688 394552
-0.16476296 0.070467845 0.56210297 394553
-0.16339496 0.07031548 0.56088758 394553
-0.16203287 0.070163772 0.55967742 460344
-0.16076897 0.070052937 0.55879337 394810
-0.15955479 0.069962509 0.55807203 460345
-0.15834373 0.069872312 0.55735254 526138
-0.15713578 0.069782346 0.5566349 591418
-0.1559484 0.069700412 0.55598134 723516
-0.15479869 0.069634363 0.55545449 986687
-0.15365116 0.06956844 0.55492866 1183808
-0.15250604 0.069502756 0.55440468 1315137
-0.15142743 0.06946671 0.55411714 1446723
-0.1503551 0.069433086 0.55384898 1446723
-0.14928384 0.069399506 0.55358112 1381186
-0.1482136 0.069365956 0.55331349 1315647
-0.14717662 0.069347627 0.55316728 1381182
-0.1461354 0.069327034 0.55300301 1381438
-0.1450948 0.069306448 0.5528388 1381438
-0.1440782 0.06929712 0.55276442 1447228
-0.1430594 0.069286607 0.55268055 1578302
-0.14206636 0.069288507 0.55269569 1644353
-0.14107957 0.069293499 0.55273551 1644610
-0.14010055 0.069302402 0.55280656 1644353
-0.139126 0.069313675 0.55289644 1644353
-0.13815512 0.069326937 0.55300224 1578812
-0.1371852 0.069340877 0.55311346 1645112
-0.13621522 0.069355004 0.55322611 2105659
-0.13524485 0.069369122 0.55333877 2105145
-0.1342762 0.069384351 0.55346024 3223872
-0.1333206 0.069406606 0.55363774 4144964
-0.13237149 0.069432586 0.55384499 3947586
-0.13142203 0.06945879 0.55405402 2894652
-0.13048215 0.069490492 0.55430686 2697278
-0.12954611 0.069524743 0.55458009 4079687
-0.128617 0.069563277 0.55488747 4342851
-0.12768966 0.069603384 0.55520737 4408132
-0.12677643 0.069651872 0.55559415 3882051
-0.12586313 0.069701098 0.55598682 2697026
-0.12494887 0.06975057 0.55638146 2170694
-0.1240447 0.069806531 0.55682784 1973831
-0.12314337 0.069865011 0.55729431 2368074
-0.1222405 0.06992358 0.55776149 3486540
-0.12132729 0.069977149 0.5581888 4210762
-0.12041201 0.070030421 0.55861372 4408394
-0.11951302 0.070094138 0.55912197 4144974
-0.11861871 0.070161708 0.55966097 2960460
-0.11774932 0.070245303 0.56032777 2763087
-0.11687012 0.070324443 0.5609591 3158606
-0.11600365 0.070412695 0.56166303 4211277
-0.11512882 0.070497386 0.56233859 4606028
-0.11425191 0.070582293 0.56301588 4869197
-0.11337438 0.07066834 0.56370223 4671568
-0.11251033 0.070764415 0.56446862 4079182
-0.11164393 0.070860758 0.5652371 4408142
-0.11078607 0.070964344 0.5660634 4605773
-0.10994517 0.071080834 0.56699258 4737358
-0.10910591 0.071200579 0.56794775 4868686
-0.1082872 0.071336113 0.56902891 5000270
-0.10747556 0.071478955 0.57016832 4671312
-0.1066909 0.071642682 0.57147431 3421009
-0.10591889 0.07181818 0.57287419 4013395
-0.10517611 0.072017141 0.57446128 4868941
-0.1044701 0.072245494 0.5762828 4539726
-0.10379261 0.072498351 0.57829976 3750219
-0.10314719 0.072778985 0.58053827 4013381
-0.10263656 0.073161446 0.58358908 3355457
-0.10233916 0.073705405 0.58792812 1715271
-0.17173022 0.072714597 0.57179737 591926
-0.16962792 0.07225842 0.56821018 460343
-0.1678153 0.071920842 0.56555563 460087
-0.16619571 0.071662374 0.56352311 394552
-0.16467731 0.071444616 0.56181079 394553
-0.16331004 0.071290143 0.56059605 460090
-0.16199438 0.071156412 0.55954444 591674
-0.16076189 0.071057767 0.55876875 460347
-0.15953524 0.07096047 0.55800366 526139
-0.15831785 0.070866086 0.55726147 591675
-0.15711014 0.070774853 0.55654407 920382
-0.15592383 0.070692152 0.55589372 1183810
-0.15477432 0.070625179 0.55536705 1446724
-0.15364562 0.070566878 0.55490863 1446979
-0.15253414 0.070515782 0.55450684 1447234
-0.15144144 0.070472747 0.5541684 1512772
-0.15036884 0.070438564 0.55389959 1512772
-0.14929746 0.070404492 0.55363166 1512772
-0.1482271 0.070370443 0.55336392 1446977
-0.14718059 0.070347331 0.55318218 1446975
-0.14614443 0.070328891 0.55303717 1446974
-0.14510375 0.070308007 0.55287296 1446974
-0.14407806 0.070294142 0.55276394 1447231
-0.1430608 0.070284225 0.55268598 1512764
-0.14205427 0.070279486 0.55264866 1578814
-0.14106193 0.070281744 0.55266643 1710147
-0.14008026 0.070289381 0.55272651 1775938
-0.1391011 0.070298411 0.5527975 2039105
-0.13812722 0.07031025 0.5528906 2565950
-0.13715683 0.070324048 0.55299908 3356222
-0.13618706 0.070338368 0.55311173 2960703
-0.13521729 0.070352912 0.55322605 2302263
-0.13425075 0.070369348 0.55335534 3486785
-0.1332856 0.070386775 0.55349237 3881794
-0.13233548 0.070412464 0.55369437 3486785
-0.13138591 0.070438832 0.55390173 2565436
-0.13043867 0.070466861 0.55412215 3026242
-0.12950039 0.07050021 0.55438435 3947845
-0.12856904 0.07053788 0.55468059 4276547
-0.12763877 0.070576735 0.55498612 4342083
-0.12671903 0.070622072 0.55534261 3816003
-0.12580572 0.070671737 0.5557332 2368321
-0.12489183 0.07072188 0.55612749 2170950
-0.12397835 0.070773065 0.55653 2105413
-0.12307743 0.07083232 0.55699593 3158345
-0.122175 0.070891671 0.55746263 4408393
-0.12126426 0.07094714 0.55789882 4473929
-0.12034924 0.071001016 0.55832249 4144968
-0.11944291 0.07106097 0.55879396 4539724
-0.11854641 0.071127847 0.55931985 3684172
-0.11766697 0.071206197 0.55993593 2828877
-0.11678997 0.071287379 0.56057435 3618639
-0.11591409 0.071370684 0.56122941 4473933
-0.11504699 0.07146091 0.56193888 4737356
-0.1141706 0.071546905 0.56261516 4737357
-0.11329208 0.071633115 0.56329304 4671311
-0.11241921 0.071724474 0.56401145 4671311
-0.11155246 0.071821451 0.56477404 4539725
-0.11068428 0.071919285 0.56554335 4473933
-0.10983072 0.072028525 0.56640238 4539726
-0.10899175 0.072149463 0.56735343 4671054
-0.10815921 0.072277009 0.56835639 5000270
-0.10734374 0.072418503 0.56946903 4737359
-0.10653284 0.072565846 0.57062769 3947345
-0.10576159 0.072743341 0.57202339 3881809
-0.10498669 0.07292179 0.57342666 4802895
-0.10427884 0.073150828 0.57522774 4737101
-0.10356903 0.073383085 0.57705408 4210764
-0.10290474 0.073652633 0.57917368 4474184
-0.10231384 0.073980778 0.58175409 3881796
-0.10181839 0.074385457 0.58493632 2697534
-0.1716575 0.073714785 0.57155526 657718
-0.16955744 0.073252909 0.56797409 460344
-0.16778953 0.0729298 0.56546879 460344
-0.16615428 0.072660737 0.56338263 394553
-0.16460404 0.072425775 0.56156081 526139
-0.16326807 0.072282769 0.56045198 525883
-0.16197054 0.072155103 0.55946213 657724
-0.1607483 0.072059579 0.55872148 526141
-0.15953141 0.07196527 0.55799025 657983
-0.15830816 0.071866885 0.55722737 1118019
-0.15708825 0.071768753 0.55646652 1512518
-0.15590221 0.071684942 0.55581665 1644359
-0.15478729 0.071632951 0.55541354 1644358
-0.15367398 0.071581036 0.55501103 1644101
-0.15256226 0.071529195 0.55460906 1513027
-0.15145655 0.071479492 0.55422372 1513028
-0.15038265 0.071444251 0.55395043 1578563
-0.14931108 0.07140965 0.55368215 1643843
-0.14824064 0.071375124 0.55341446 1643843
-0.14718178 0.071345739 0.55318666 1578305
-0.14615066 0.071329504 0.55306077 1446975
-0.14511271 0.071309678 0.55290705 1446975
-0.14407365 0.07128904 0.55274701 1512768
-0.14306298 0.071282253 0.55269438 1447483
-0.14204392 0.071271159 0.55260837 1578556
-0.14104927 0.071272247 0.55261678 2104896
-0.14005998 0.071276069 0.55264646 2630977
-0.13908099 0.071285233 0.55271751 3421250
-0.13810173 0.07129439 0.5527885 3882561
-0.13712849 0.07130681 0.55288482 3948096
-0.13615891 0.071321331 0.55299741 3092284
-0.13519168 0.071337305 0.55312127 2368568
-0.13422529 0.071353965 0.55325043 3026240
-0.13325848 0.071370639 0.55337971 2960192
-0.1322995 0.071391806 0.55354381 2170683
-0.13135017 0.071418531 0.55375105 1973563
-0.13040067 0.071445577 0.55396074 2960962
-0.12945642 0.071475938 0.55419612 3947843
-0.12852082 0.071511582 0.55447251 4276292
-0.12759161 0.071551368 0.55478102 4342083
-0.12666167 0.071591385 0.55509126 3487296
-0.12574835 0.07164149 0.55547976 2368575
-0.12483485 0.071692303 0.55587375 2236740
-0.12392005 0.071743183 0.55626827 2697286
-0.12301158 0.071798593 0.55669791 4079433
-0.12210958 0.071858726 0.55716413 4539720
-0.12120129 0.071916118 0.55760914 3815751
-0.12028671 0.071970709 0.55803239 2828614
-0.11937392 0.072027303 0.5584712 3881290
-0.11847673 0.072094351 0.55899107 4210765
-0.11758476 0.07216575 0.55954468 2960714
-0.11670993 0.072249003 0.5601902 3816014
-0.11582647 0.072328322 0.5608052 4539724
-0.11495893 0.072419062 0.56150877 4737357
-0.11408938 0.072510146 0.56221497 4605520
-0.11321141 0.072597452 0.5628919 3881551
-0.11233447 0.072687007 0.56358629 3815758
-0.11146359 0.072782159 0.56432408 4013135
-0.1105946 0.072880313 0.56508511 4079182
-0.10972361 0.072978958 0.56584996 4013133
-0.10887782 0.073096372 0.56676036 4408142
-0.10803996 0.073221393 0.56772971 4934479
-0.10721678 0.073358849 0.5687955 4868941
-0.10639882 0.073502563 0.56990981 4342609
-0.10560501 0.073665939 0.57117653 3947858
-0.10483108 0.073846526 0.57257676 4868943
-0.1040809 0.074047603 0.57413584 5066062
-0.10337916 0.074287534 0.57599616 4737100
-0.1026772 0.074532181 0.57789302 4671562
-0.10205395 0.074839562 0.58027637 4144711
-0.10149426 0.075200409 0.58307421 2960706
-0.10113496 0.075718842 0.58709395 1649735
-0.1716499 0.074742451 0.57152998 723510
-0.16948701 0.074246578 0.56773818 526136
-0.16776378 0.073938444 0.565382 460345
-0.16611286 0.073658608 0.5632422 591932
-0.16459247 0.073433563 0.56152135 789309
-0.16324402 0.07328292 0.56036943 789053
-0.16194673 0.073153511 0.55937988 789309
-0.16073292 0.073060423 0.55866808 920897
-0.15952758 0.072970033 0.5579769 1381702
-0.15830438 0.072870269 0.55721402 1776202
-0.15708448 0.072770767 0.55645317 1841993
-0.15593624 0.072703399 0.55593801 1775942
-0.15481587 0.07264822 0.55551612 1710150
-0.15370232 0.072595559 0.55511343 1709894
-0.15259039 0.07254298 0.55471134 1644356
-0.15148009 0.072490469 0.55430984 1578820
-0.15039766 0.072450705 0.55400574 1578563
-0.14932473 0.072415002 0.55373275 1578306
-0.14825416 0.072379977 0.55346495 1578306
-0.14718463 0.072344989 0.55319738 1512770
-0.14615184 0.072327703 0.55306524 1381185
-0.14512122 0.07231126 0.55293947 1315902
-0.14408149 0.072290018 0.55277705 1447485
-0.1430586 0.072276995 0.55267745 1644604
-0.14204688 0.072269469 0.55261993 2236732
-0.14103898 0.072263785 0.55257648 3290176
-0.14004435 0.07226488 0.55258483 3882305
-0.13906127 0.072271988 0.55263919 4013889
-0.13808173 0.072281048 0.55270845 4211262
-0.13710237 0.072290339 0.5527795 4013885
-0.13613182 0.072304443 0.55288738 2960698
-0.13516608 0.072321333 0.55301648 2039608
-0.13419987 0.072338223 0.55314565 2104891
-0.13323322 0.072355121 0.55327487 1775930
-0.13226886 0.072373524 0.5534156 1710397
-0.13131444 0.072397694 0.55360043 1908029
-0.13036466 0.072424807 0.55380774 3092546
-0.12941732 0.072453707 0.55402875 3948100
-0.12847506 0.072485924 0.5542751 4144963
-0.12754373 0.072524868 0.55457288 4276290
-0.12661383 0.072565243 0.55488157 3552833
-0.12569104 0.072610363 0.55522662 2368064
-0.12477792 0.072661839 0.55562025 2367811
-0.1238635 0.07271339 0.55601442 3618120
-0.12294777 0.072765008 0.55640912 4539465
-0.12204423 0.072824746 0.55686593 4473672
-0.12113839 0.072884098 0.55731976 3289414
-0.12022423 0.072939381 0.55774254 2367816
-0.11930867 0.072994761 0.55816597 2828614
-0.11840712 0.073059715 0.55866265 4276556
-0.11750999 0.073128536 0.5591889 3421258
-0.11662998 0.073209301 0.55980647 4013391
-0.11574706 0.073289625 0.56042069 4539724
-0.11486989 0.073375039 0.56107384 4737357
-0.11400285 0.073468499 0.5617885 4474193
-0.11313085 0.073560417 0.56249136 3355215
-0.11225128 0.073649026 0.56316894 3092302
-0.11137905 0.073744118 0.56389606 3749967
-0.1105069 0.073841013 0.56463701 3882063
-0.10963615 0.073940657 0.56539893 3552845
-0.10876828 0.074044138 0.56619018 4144973
-0.10792695 0.07416781 0.56713587 4868686
-0.10709012 0.074296966 0.56812352 4934988
-0.10627288 0.074442349 0.56923521 4606030
-0.10545848 0.074592583 0.57038397 4408400
-0.10467595 0.074768536 0.57172942 4803152
-0.10390408 0.074955679 0.57316047 5131854
-0.10317763 0.075179681 0.57487333 4934477
-0.10247353 0.075424679 0.5767467 4473932
-0.10181418 0.07570798 0.57891303 4144713
-0.10119993 0.076031037 0.58138335 3091782
-0.10068373 0.076435298 0.58447456 2236736
-0.1006868 0.07724648 0.59067744 1062479
-0.17170449 0.075797476 0.57171172 789302
-0.16953216 0.075290725 0.56788945 591672
-0.16773804 0.074946776 0.56529522 657722
-0.16607147 0.074655987 0.56310189 789310
-0.16461305 0.074455746 0.56159157 986687
-0.16324009 0.07429193 0.56035596 1118272
-0.16192292 0.07415162 0.55929762 1447235
-0.16071756 0.074061073 0.55861467 1710664
-0.15951724 0.073971719 0.55794072 2039371
-0.15830058 0.073873602 0.55720067 1973577
-0.15712591 0.073793955 0.55659992 1841735
-0.15598296 0.073728278 0.55610454 1841735
-0.15484945 0.073666245 0.55563664 1775686
-0.15373069 0.073610462 0.5552159 1709893
-0.15261854 0.073557131 0.55481362 1709894
-0.151508 0.073503882 0.55441201 1644357
-0.15041268 0.073457353 0.55406106 1644357
-0.14933959 0.073421136 0.55378789 1578564
-0.14826769 0.073385015 0.55351543 1644099
-0.14719807 0.073349543 0.55324787 1578819
-0.14615305 0.073325932 0.55306977 1512770
-0.14512239 0.07330925 0.55294394 1381694
-0.14409037 0.073291644 0.55281115 1513277
-0.14305423 0.073271677 0.55266058 2236734
-0.14204381 0.073264703 0.55260795 3552835
-0.14103006 0.073255897 0.55254155 4013633
-0.14003414 0.073256291 0.55254453 3815999
-0.13904351 0.073259488 0.55256861 3881536
-0.138064 0.073268622 0.55263752 4144959
-0.13708425 0.073277757 0.55270642 4013631
-0.13610604 0.073287874 0.55278271 2894908
-0.13514048 0.073304981 0.55291176 1841978
-0.13417445 0.073322095 0.55304086 1841468
-0.13320798 0.073339224 0.55317003 1775933
-0.13224137 0.073356539 0.55330062 1710653
-0.13127968 0.073376857 0.55345386 1908028
-0.13032918 0.073403791 0.55365705 3421508
-0.12937963 0.073431678 0.5538674 4013635
-0.12843373 0.073462099 0.55409682 4145217
-0.12749591 0.073497638 0.55436492 4211010
-0.12656631 0.073538527 0.55467331 3420992
-0.12563565 0.073579445 0.55498195 2499392
-0.12472103 0.073630489 0.55536693 2630979
-0.12380698 0.073682696 0.55576074 3947593
-0.12289163 0.073734984 0.55615509 4408646
-0.12197894 0.073789731 0.55656803 4474183
-0.12107556 0.073851064 0.55703068 2960709
-0.12016182 0.073907062 0.55745304 2236743
-0.11924671 0.073963143 0.55787605 2566217
-0.1183376 0.074023947 0.55833465 4013387
-0.11744092 0.074093632 0.55886024 3487048
-0.11655016 0.074168287 0.55942333 4276303
-0.11566775 0.074249603 0.56003666 4671308
-0.11478339 0.074331097 0.56065136 4803148
-0.11391449 0.074424133 0.56135309 4408400
-0.1130458 0.074518979 0.56206846 3355215
-0.11217137 0.074611723 0.56276804 3092045
-0.11129645 0.074705839 0.56347787 3816014
-0.11042258 0.074802391 0.56420618 4013390
-0.10954915 0.074901044 0.56495029 3289421
-0.10867663 0.075002186 0.56571311 4013389
-0.10782061 0.075116724 0.56657708 4539723
-0.10697482 0.075240657 0.56751186 5066316
-0.10614723 0.075379916 0.56856221 5000524
-0.10533226 0.075530939 0.56970131 4934479
-0.1045246 0.075690225 0.57090276 4868688
-0.10374508 0.075873271 0.57228339 4802897
-0.10298736 0.07607609 0.5738132 4868687
-0.10227204 0.076314673 0.57561272 4276303
-0.1015775 0.076573804 0.57756728 3552333
-0.10096025 0.076897182 0.58000636 3025737
-0.10035074 0.077233292 0.58254153 1907525
-0.099895619 0.077696592 0.58603603 1841982
-0.17194797 0.076937675 0.5725224 3486805
-0.16962375 0.076356314 0.56819624 657464
-0.16778347 0.075987041 0.56544834 789308
-0.16605653 0.0756649 0.56305116 1052223
-0.16463365 0.075478196 0.56166184 1447235
-0.16324373 0.075304382 0.56036842 2039366
-0.16194093 0.075168848 0.55935985 2302790
-0.16072549 0.075072408 0.55864221 2434121
-0.15951078 0.074975096 0.55791807 2236744
-0.15831842 0.074887119 0.55726343 1907783
-0.15717305 0.074820399 0.55676693 1907271
-0.1560297 0.074753784 0.5562712 1907527
-0.15488841 0.074687295 0.55577642 1907014
-0.15376447 0.074628361 0.55533791 1710149
-0.15264669 0.074571662 0.55491596 1710150
-0.15153593 0.074517667 0.55451417 1710150
-0.1504277 0.074464209 0.55411637 1578821
-0.14935449 0.074427493 0.55384314 1578564
-0.14828236 0.074390814 0.55357021 1512771
-0.14721149 0.074354284 0.55329835 1512773
-0.14615422 0.074324161 0.55307424 1513026
-0.14512356 0.074307255 0.55294842 1513022
-0.14409336 0.07429035 0.55282265 1776446
-0.14305957 0.074271344 0.55268121 2960959
-0.14203946 0.074259229 0.55259103 4145218
-0.14102927 0.074252158 0.55253845 3750207
-0.14002393 0.074247561 0.55250424 2631479
-0.1390321 0.074250117 0.55252326 3750210
-0.13804637 0.074255988 0.55256695 4144961
-0.13706674 0.074265249 0.55263585 4144705
-0.13608685 0.07427451 0.55270475 2894396
-0.13511489 0.074288264 0.55280709 1907514
-0.13414904 0.074305601 0.55293614 1775932
-0.13318273 0.074322954 0.55306524 1710140
-0.13221599 0.074340314 0.5531944 1710397
-0.13125239 0.074359715 0.55333883 2170942
-0.13029376 0.07438226 0.55350655 3487044
-0.12934373 0.074410103 0.55371374 4013634
-0.12839632 0.074439891 0.55393541 4013887
-0.12744991 0.074470736 0.55416495 4079425
-0.12651885 0.074511096 0.55446529 3421248
-0.12558874 0.074552685 0.55477476 2368061
-0.12466462 0.074598506 0.55511576 2763329
-0.12375052 0.07465113 0.5555073 4079430
-0.12283557 0.074704081 0.55590135 4342853
-0.1219193 0.074757099 0.55629587 4145221
-0.1210115 0.074816234 0.55673593 3092292
-0.12009948 0.074873738 0.55716383 2236743
-0.11918478 0.074930519 0.55758637 2302789
-0.11826998 0.074988201 0.55801558 3947595
-0.11737213 0.075057715 0.55853289 3750218
-0.11647421 0.075128391 0.55905879 4079179
-0.11558855 0.075208269 0.55965322 4737099
-0.11470471 0.075290754 0.56026703 4803148
-0.11382627 0.075378291 0.56091839 4539984
-0.11295814 0.07547427 0.56163263 3289423
-0.11208779 0.075570501 0.56234872 3092557
-0.11121397 0.075666122 0.56306028 3881806
-0.11034065 0.075763851 0.56378752 4079183
-0.10946506 0.075861827 0.5645166 3289422
-0.10859035 0.075962268 0.56526399 3552590
-0.10772698 0.076072611 0.5660851 4210762
-0.10687163 0.076190777 0.56696445 4868683
-0.10602187 0.076315261 0.56789076 5131852
-0.10520757 0.076467939 0.56902689 5000270
-0.10439559 0.076625332 0.57019812 4605520
-0.10359163 0.076791801 0.57143688 3881552
-0.10282298 0.076988064 0.57289732 4276562
-0.10207134 0.077201173 0.57448316 3750224
-0.10136814 0.077455655 0.57637686 2763087
-0.10071014 0.077750318 0.57856953 2433612
-0.10009869 0.078087457 0.58107835 2038856
-0.099553563 0.078484029 0.58402938 1710401
-0.099265814 0.079094149 0.58856952 1320519
-0.17221503 0.078091502 0.57341164 3552597
-0.16971545 0.077423058 0.56850338 657721
-0.16784199 0.077033862 0.56564558 986686
-0.16620293 0.076748148 0.56354761 1183809
-0.16472858 0.076535434 0.56198573 1907781
-0.16328081 0.076332517 0.56049573 2829128
-0.16198941 0.076200627 0.55952728 3223879
-0.16077624 0.076104119 0.55881864 3552840
-0.15956111 0.076005451 0.55809414 2960199
-0.15837911 0.075921409 0.55747706 2105159
-0.1572202 0.075847447 0.55693394 1907783
-0.15607648 0.0757799 0.55643797 1973063
-0.15493481 0.07571248 0.55594289 1907527
-0.15380253 0.075648807 0.55547535 1775941
-0.15268068 0.075589448 0.55503953 1578821
-0.15156387 0.075531833 0.55461645 1644869
-0.15045449 0.075477168 0.55421507 1644613
-0.1493694 0.075434051 0.55389845 1644357
-0.14829716 0.075396873 0.55362546 1644611
-0.14722596 0.075359724 0.55335271 1578819
-0.14615612 0.075322777 0.55308139 1513282
-0.14512473 0.075305276 0.55295289 1710401
-0.14409454 0.075288147 0.55282712 2236990
-0.1430648 0.075271025 0.55270141 3618881
-0.14203513 0.075253695 0.55257416 4210753
-0.14102496 0.075246535 0.55252159 3355709
-0.14001551 0.075239651 0.55247104 2434359
-0.13902201 0.075241305 0.55248314 3487553
-0.13803019 0.07524389 0.55250216 4211011
-0.13704923 0.075252488 0.55256528 4013377
-0.13606948 0.075261869 0.55263418 2960190
-0.13509189 0.075272605 0.55271298 1841723
-0.13412364 0.075288735 0.55283141 1776187
-0.13315752 0.075306311 0.55296052 1710904
-0.13219094 0.075323895 0.55308962 1710651
-0.13122512 0.075342186 0.55322391 2105148
-0.13026328 0.075363047 0.55337709 3618628
-0.12930857 0.075388387 0.55356318 4013633
-0.12835893 0.075417116 0.55377412 4014144
-0.12741278 0.075448349 0.55400348 4079682
-0.12647179 0.075483158 0.55425906 3289918
-0.12554236 0.075525485 0.55456984 2368570
-0.1246119 0.075567856 0.55488098 2829374
-0.1236955 0.075619519 0.5552603 4145222
-0.12278007 0.075672612 0.55565017 4408134
-0.12186364 0.075725965 0.55604196 4277062
-0.12094678 0.07577993 0.55643821 3026752
-0.12003721 0.075839408 0.55687493 2434117
-0.11912433 0.075897783 0.55730355 2565702
-0.11821127 0.07595703 0.5577386 3684169
-0.11730381 0.076020919 0.55820775 3881801
-0.11640635 0.076092459 0.55873305 4078923
-0.1155092 0.076165453 0.55926901 4671306
-0.11462615 0.076249108 0.5598833 4802891
-0.11374089 0.076332778 0.56049764 4605775
-0.11287063 0.076428093 0.56119752 3487311
-0.11200084 0.076525457 0.56191248 3289677
-0.11112758 0.07662221 0.5626229 4210765
-0.11025832 0.076723531 0.56336689 4079439
-0.10938378 0.076823026 0.56409746 3223886
-0.10850648 0.076922432 0.56482738 3025999
-0.10763354 0.077026851 0.56559408 3816013
-0.10677879 0.077146396 0.56647187 4408139
-0.10592131 0.077266268 0.56735212 5000268
-0.10508317 0.077402726 0.56835407 5000013
-0.10426952 0.07756009 0.56950957 4342352
-0.10346104 0.077724464 0.57071656 3355473
-0.10266018 0.077897929 0.57199025 3092306
-0.10190545 0.07811027 0.57354945 2894418
-0.10116495 0.07833799 0.57522154 2565458
-0.10049546 0.078625977 0.57733619 2302030
-0.099850275 0.078939222 0.57963628 1973578
-0.09924566 0.079291508 0.58222306 1710149
-0.0987546 0.07974302 0.58553845 1578557
-0.16983563 0.078504078 0.56890595 854841
-0.1679301 0.078095153 0.56594253 1052479
-0.16635957 0.077837966 0.56407875 1644355
-0.16486703 0.077614322 0.56245804 2565446
-0.16340567 0.077402689 0.56092435 3289671
-0.16208838 0.077257074 0.55986911 3816006
-0.16082895 0.077137396 0.5590018 4079176
-0.15961324 0.077037305 0.55827647 3618376
-0.15844585 0.076959416 0.55771202 2631239
-0.15728104 0.076881789 0.55714947 2038855
-0.1561233 0.076806635 0.55660486 2038855
-0.15498123 0.076738283 0.55610949 1907783
-0.15384118 0.076670036 0.55561495 1907270
-0.15271844 0.076609574 0.55517679 1775686
-0.15159804 0.0765495 0.55474144 1644612
-0.15048221 0.076490954 0.55431718 1973572
-0.14938432 0.076440811 0.55395377 2631492
-0.14831194 0.076403126 0.55368066 2829379
-0.14724064 0.076365486 0.55340791 2434625
-0.14617541 0.076330505 0.55315441 1908288
-0.14512889 0.076304883 0.55296874 1842497
-0.14409697 0.076286636 0.55283648 2894400
-0.14306596 0.076268613 0.55270588 4079170
-0.14203669 0.076251276 0.55258024 3947840
-0.1410211 0.076241091 0.55250645 2960701
-0.14001335 0.076235026 0.55246252 2368313
-0.13901192 0.076232344 0.55244303 3619137
-0.13802016 0.076234967 0.55246204 4210755
-0.13703175 0.076239482 0.55249476 4079172
-0.1360521 0.076248981 0.55256361 2829119
-0.13507245 0.076258622 0.55263346 2038847
-0.13409825 0.076271489 0.55272675 2039357
-0.13313231 0.076289296 0.55285579 2040122
-0.13216589 0.076307103 0.55298483 1908282
-0.13119906 0.076324925 0.553114 2302781
-0.13023621 0.076345369 0.55326211 3487299
-0.12927403 0.076366507 0.5534153 4079426
-0.12832317 0.076394722 0.5536198 4079424
-0.12737568 0.076425403 0.55384213 4013889
-0.12642956 0.076457396 0.55407399 3421758
-0.12549601 0.07649757 0.5543651 2434108
-0.12456586 0.07654047 0.554676 2829373
-0.12364095 0.076587312 0.55501544 4079173
-0.12272588 0.07664106 0.55540496 4408390
-0.12180953 0.076694883 0.55579501 4211268
-0.12089188 0.076748781 0.5561856 3224387
-0.11997651 0.076805048 0.55659336 2303044
-0.11906528 0.076864928 0.55702728 2302791
-0.11815263 0.076924905 0.55746192 3881803
-0.11723905 0.0769853 0.55789959 3816009
-0.11633856 0.07705541 0.55840766 3947594
-0.11543824 0.077126861 0.55892545 4605513
-0.11454729 0.077205881 0.55949813 4802890
-0.11366284 0.077290729 0.56011301 4737358
-0.11278323 0.077380426 0.560763 3816270
-0.1119127 0.077478021 0.56147027 3684686
-0.11103977 0.077575728 0.56217831 4342605
-0.11017171 0.077678666 0.56292433 4144975
-0.10930064 0.077781387 0.56366873 3157838
-0.10842466 0.077882499 0.56440145 2763087
-0.10754638 0.077983871 0.56513608 3157583
-0.106685 0.078099549 0.56597435 4013134
-0.10582727 0.078220159 0.5668484 4473934
-0.10497256 0.078345373 0.56775582 4276302
-0.10414613 0.078494377 0.56883562 3552336
-0.10333339 0.078656763 0.57001239 2763088
-0.1025248 0.0788256 0.57123595 2631761
-0.10174212 0.079017989 0.57263017 2631506
-0.10098527 0.0792346 0.57419991 2499922
-0.10028841 0.079503253 0.57614678 2302288
-0.099619865 0.079800203 0.57829875 1973325
-0.098996267 0.080139838 0.58076 1775944
-0.098408528 0.08051607 0.5834865 1578562
-0.098028272 0.081072032 0.58751547 1254726
-0.17006706 0.079638653 0.56968117 1052217
-0.16813162 0.079210944 0.56662166 1249855
-0.16651653 0.078929849 0.5646109 2039363
-0.16500221 0.07869336 0.5629192 3158087
-0.16354413 0.078480929 0.56139964 3881799
-0.16220896 0.078325197 0.56028563 3816007
-0.16092485 0.078192331 0.55933517 3750215
-0.15969771 0.078085631 0.55857193 3816008
-0.15851268 0.077998303 0.55794722 2894663
-0.15734708 0.077919483 0.55738342 2170440
-0.15618454 0.07784117 0.55682319 2104648
-0.15502767 0.07776469 0.55627614 1973319
-0.15388727 0.077695526 0.55578136 1973319
-0.15275623 0.077630214 0.55531418 1907271
-0.15163551 0.077569321 0.55487859 2039108
-0.15051654 0.077508517 0.55444366 2960452
-0.14940172 0.077449054 0.55401826 3947842
-0.14832719 0.077409811 0.55373758 3947842
-0.14726336 0.077375665 0.55349332 3684675
-0.14620048 0.077341549 0.55324924 2565950
-0.14514001 0.077308252 0.55301106 1973824
-0.14410558 0.077288464 0.5528695 3224129
-0.14307411 0.077269986 0.55273736 4079680
-0.14204311 0.077251516 0.55260521 3882047
-0.14101893 0.077236518 0.55249792 2762813
-0.14001119 0.077230372 0.55245399 2433852
-0.13900363 0.07722424 0.55241013 3619137
-0.13801014 0.077225894 0.55242193 4145218
-0.1370184 0.077228546 0.55244094 4013378
-0.13603474 0.07723584 0.5524931 2894656
-0.13505498 0.077245466 0.55256194 2236224
-0.1340785 0.077257127 0.55264539 3026499
-0.1331071 0.077271909 0.55275112 2960960
-0.13214089 0.077289954 0.55288017 1973819
-0.13117421 0.077307992 0.55300921 2303037
-0.13020916 0.077327281 0.5531472 3684420
-0.12924716 0.077348687 0.55330032 4079170
-0.12828827 0.077372298 0.55346924 4144705
-0.12733859 0.077401891 0.5536809 4079425
-0.12639217 0.077433936 0.55391014 3487038
-0.1254497 0.077468939 0.55416054 2499643
-0.12451987 0.077512369 0.55447119 2763070
-0.12358899 0.07755585 0.55478221 4013381
-0.12267174 0.077608652 0.55515993 4407880
-0.12175574 0.077663131 0.55554962 4145478
-0.12083846 0.077717684 0.55593985 2763586
-0.11991956 0.077772103 0.55632913 2039877
-0.11900629 0.077831119 0.55675131 2500167
-0.11809403 0.077891812 0.55718547 3816010
-0.11718037 0.077952608 0.55762035 3750472
-0.11627086 0.078017242 0.5580827 3355462
-0.11537262 0.078090638 0.55860776 4539978
-0.11446851 0.078161314 0.55911332 4737098
-0.11358459 0.078247167 0.55972743 4803147
-0.11269835 0.078332931 0.56034094 4671312
-0.11182445 0.078428909 0.56102753 4474190
-0.1109521 0.078527741 0.5617345 4606029
-0.1100798 0.078628436 0.56245476 4013647
-0.10921541 0.078736685 0.56322914 3157838
-0.10834192 0.078840367 0.5639708 2697295
-0.10746422 0.078942917 0.56470436 2499919
-0.10659345 0.07905256 0.5654887 3025999
-0.10573339 0.079172343 0.56634551 3157326
-0.10487361 0.079294682 0.56722063 2960206
-0.10403599 0.079436347 0.56823403 2828369
-0.1032075 0.079587869 0.56931794 2631249
-0.10239846 0.079757594 0.57053202 2631249
-0.10159338 0.079933874 0.57179302 2499921
-0.10082018 0.080139115 0.57326114 2434130
-0.10007951 0.08037474 0.57494664 2368081
-0.099404804 0.080668822 0.57705033 2236495
-0.098744899 0.080981262 0.57928532 2039115
-0.098149732 0.081354059 0.58195204 1710150
-0.097586721 0.081761844 0.58486909 1512767
-0.17046997 0.080857359 0.57103086 3683927
-0.16837829 0.080350734 0.56745297 1315646
-0.16670236 0.080037527 0.56524104 2302275
-0.1651376 0.079774164 0.56338114 3684423
-0.1637006 0.079569645 0.56193674 4210505
-0.16235198 0.0794058 0.56077963 3552585
-0.16104461 0.0792602 0.55975139 3684167
-0.15980211 0.079144895 0.55893707 4013383
-0.15858664 0.079041593 0.55820757 2960199
-0.15741339 0.078958161 0.55761832 2170695
-0.15624969 0.078878462 0.55705547 2104904
-0.1550893 0.078799419 0.55649728 2039367
-0.15393336 0.07872162 0.55594784 2039111
-0.15279458 0.078651637 0.5554536 2039367
-0.15167302 0.078589655 0.55501586 2894918
-0.15055375 0.078528032 0.55458069 3948099
-0.1494385 0.078467704 0.55415463 4013632
-0.14835264 0.078422107 0.55383259 3552576
-0.14728864 0.078387506 0.55358827 3618370
-0.14622554 0.078352936 0.55334413 3223873
-0.14516339 0.078318395 0.55310017 2499903
-0.1441142 0.078290418 0.55290258 3618882
-0.14308265 0.078271694 0.55277038 4145472
-0.14205159 0.078252986 0.55263823 3881791
-0.14102103 0.078234278 0.55250615 2565690
-0.14000905 0.078225695 0.55244553 2236984
-0.13900149 0.078219473 0.5524016 3684672
-0.13799779 0.078215361 0.55237252 4145217
-0.13700844 0.078219369 0.55240083 3947587
-0.13601737 0.078222439 0.55242252 2828607
-0.13503774 0.078232199 0.55249143 2499647
-0.13405922 0.078242749 0.55256593 3487300
-0.13308452 0.078255691 0.55265737 3026494
-0.13211586 0.07827241 0.55277544 1973562
-0.13114937 0.078290686 0.55290449 2302779
-0.13018242 0.078308962 0.55303359 3486785
-0.12922032 0.078330465 0.5531854 4013377
-0.12825797 0.078352146 0.55333853 4013631
-0.12730294 0.07837867 0.55352587 4079425
-0.12635536 0.078410245 0.55374885 3816000
-0.12541136 0.078444555 0.55399114 2499898
-0.12447391 0.078483544 0.55426651 2697021
-0.12354334 0.078527555 0.55457729 3881540
-0.12261765 0.078575388 0.55491513 4210758
-0.12170202 0.078630522 0.55530447 3420993
-0.12078511 0.078685731 0.5556944 2368066
-0.11986691 0.078741021 0.55608487 2170694
-0.11894735 0.078796349 0.55647558 2565445
-0.11803551 0.078857765 0.55690932 4013642
-0.11712225 0.078919284 0.55734378 3355975
-0.11620858 0.078981586 0.55778378 3026247
-0.11530545 0.079052202 0.55828249 4473931
-0.11440212 0.079123929 0.55878901 4605769
-0.11350644 0.079202279 0.55934232 4803146
-0.11262111 0.079289302 0.55995691 4934732
-0.11173531 0.079377577 0.56058031 5000269
-0.11086457 0.079478256 0.56129134 4605774
-0.10999059 0.079578444 0.5619989 3684431
-0.10912425 0.079686083 0.56275904 3026254
-0.10825806 0.079795852 0.56353426 2697295
-0.10738219 0.079900488 0.56427324 2499664
-0.10650805 0.08000844 0.56503564 2368080
-0.10564269 0.080125131 0.56585974 2236238
-0.10478052 0.080246545 0.56671715 2302286
-0.10393464 0.080382951 0.56768048 2433871
-0.10309783 0.080529153 0.56871301 2499664
-0.10227348 0.080688119 0.56983566 2565456
-0.10146672 0.08086434 0.57108015 2631248
-0.10066973 0.081052043 0.57240576 2434129
-0.099909492 0.081273526 0.5739699 2631250
-0.099185146 0.081529155 0.57577521 3026256
-0.098530747 0.081848294 0.57802904 2763085
-0.09789487 0.082189806 0.58044088 2039112
-0.097280644 0.08255709 0.58303469 1578563
-0.096812226 0.083057486 0.58656859 1254725
-0.16866466 0.081512712 0.56841809 1381182
-0.16691959 0.081162736 0.56597757 2302531
-0.16532937 0.080884218 0.56403536 3684421
-0.16390474 0.08068376 0.56263751 4013384
-0.16251124 0.080496222 0.56132972 3355210
-0.16119801 0.080346338 0.56028455 3552841
-0.15991174 0.080208093 0.55932051 4078917
-0.15868096 0.080096103 0.55853957 3223624
-0.15748228 0.079998985 0.55786234 2236488
-0.15631542 0.07991688 0.55728978 2170952
-0.15515397 0.07983651 0.55672932 2105159
-0.15399535 0.07975655 0.55617172 2104903
-0.15284033 0.079677418 0.5556199 2302791
-0.15171054 0.079610482 0.55515313 3552838
-0.15059096 0.079548046 0.55471778 4079425
-0.14948674 0.079492941 0.55433351 3816002
-0.14838403 0.079437919 0.55394977 3420994
-0.14731389 0.07939969 0.55368322 4013379
-0.14625062 0.079364672 0.55343902 3618626
-0.14518829 0.079329677 0.553195 2434110
-0.14412889 0.079295821 0.55295891 4013636
-0.1430912 0.079273522 0.5528034 4144962
-0.14206009 0.079254575 0.55267125 3750207
-0.14102945 0.079235621 0.55253911 2434106
-0.14000511 0.079219975 0.55242997 2236987
-0.13899934 0.079214685 0.55239308 3816258
-0.13799198 0.079208389 0.55234921 4079425
-0.13699718 0.079209276 0.55235541 3947586
-0.13600683 0.07921277 0.55237973 2763325
-0.13502049 0.079218663 0.55242085 2631486
-0.13404074 0.079228543 0.55248976 3881798
-0.13306537 0.079241179 0.55257785 2894396
-0.13209085 0.079254515 0.55267084 1973561
-0.13112454 0.079273008 0.55279982 2170937
-0.13015777 0.079291515 0.55292886 3355712
-0.12919347 0.079311825 0.55307049 3947840
-0.12823133 0.079333782 0.55322361 4079423
-0.12726866 0.079355747 0.55337679 4079424
-0.12631859 0.079385988 0.55358768 3684671
-0.1253735 0.079419866 0.55382389 2697530
-0.12443106 0.079455979 0.55407572 2500157
-0.12349774 0.079498544 0.55437255 3552835
-0.12256645 0.079543129 0.55468345 3750467
-0.12164834 0.079597063 0.55505955 2499646
-0.12073179 0.079652928 0.55544913 2104897
-0.11981396 0.079708867 0.55583924 2104900
-0.11889356 0.079764038 0.55622393 2960454
-0.11797705 0.079822764 0.55663347 4013384
-0.11706418 0.079884999 0.55706745 3289669
-0.11615039 0.079947673 0.55750448 2565702
-0.11523835 0.080012657 0.55795765 4276300
-0.1143374 0.080086552 0.55847293 4539721
-0.11343068 0.080157682 0.55896896 4671561
-0.11254359 0.080244087 0.5595715 4868938
-0.1116522 0.080328956 0.56016332 4868684
-0.11077618 0.080426544 0.56084383 4408144
-0.10990378 0.080528572 0.56155533 3355215
-0.10903326 0.080633894 0.56228977 2894670
-0.10816766 0.080744877 0.56306368 2697295
-0.10729969 0.080856159 0.56383973 2499919
-0.10642279 0.080962792 0.5645833 2368336
-0.105558 0.081080779 0.56540608 2236751
-0.10469069 0.081199124 0.56623131 2170702
-0.10383349 0.081327707 0.567128 2236494
-0.10299444 0.081473216 0.56814265 2433872
-0.1021539 0.081620455 0.5691694 2499664
-0.10134196 0.081793763 0.57037795 2631248
-0.10053955 0.081978403 0.57166553 2565712
-0.099754527 0.082181193 0.57307965 2697296
-0.099014029 0.082425289 0.57478184 3684178
-0.09830644 0.082702242 0.57671314 3815504
-0.097655617 0.083033383 0.57902229 2828874
-0.097016983 0.083382159 0.58145446 1841990
-0.096420668 0.083775334 0.58419621 1579067
-0.16907835 0.082740471 0.56981224 1446972
-0.16715266 0.082298405 0.56676787 2039361
-0.16559303 0.082032241 0.56493485 3355461
-0.16410939 0.081800655 0.56334001 3749960
-0.16269673 0.081601791 0.56197047 2960203
-0.16135171 0.081434563 0.56081879 2960457
-0.16004901 0.081286713 0.55980062 3750215
-0.15878469 0.081156611 0.55890465 3223880
-0.15757136 0.081051081 0.55817789 2499657
-0.15638128 0.080956228 0.55752462 2302536
-0.15521872 0.08087448 0.55696166 2170951
-0.15405953 0.080793433 0.55640352 2105159
-0.15290268 0.080712564 0.55584657 2500167
-0.15174857 0.080632076 0.55529231 3881797
-0.15063962 0.080574676 0.55489701 4210752
-0.149535 0.080518849 0.5545125 3749701
-0.14843191 0.080463089 0.55412853 3552579
-0.14734101 0.08041323 0.55378515 4079679
-0.1462757 0.080376752 0.55353391 3684161
-0.14521317 0.080341309 0.55328983 2894401
-0.14415158 0.080305897 0.55304599 4013380
-0.14310291 0.080277242 0.55284864 4210753
-0.14206856 0.080256283 0.55270427 3618623
-0.14103787 0.080237091 0.55257213 2368315
-0.14000794 0.080218077 0.55244118 2434365
-0.13899709 0.080209792 0.55238414 3816258
-0.13798985 0.080203481 0.55234069 4079681
-0.13698374 0.080197752 0.55230123 3750465
-0.13599662 0.080203138 0.5523383 2894653
-0.1350053 0.080206096 0.55235869 2960448
-0.13402362 0.08021488 0.55241919 3749956
-0.13304624 0.080226384 0.5524984 2762812
-0.1320715 0.080239661 0.55258983 1973564
-0.13109972 0.080254957 0.55269516 2170939
-0.13013314 0.080273695 0.5528242 3158079
-0.12916666 0.080292784 0.55295569 3947843
-0.12820469 0.080315001 0.55310869 4013632
-0.12724221 0.080337241 0.55326182 4079679
-0.12628306 0.080361947 0.55343199 4079426
-0.12533565 0.080394581 0.5536567 2829115
-0.12439349 0.080431126 0.55390841 2302524
-0.12345216 0.080468819 0.55416799 3223875
-0.1225212 0.080513932 0.55447865 3092548
-0.12159471 0.080562755 0.55481488 2170942
-0.12067854 0.080619268 0.55520409 1973825
-0.11976106 0.080675863 0.55559385 2170691
-0.11884173 0.080732152 0.55598146 3289672
-0.11791937 0.080787316 0.55636138 4144967
-0.11700618 0.080849759 0.55679142 2894405
-0.11609229 0.080912814 0.55722564 2368069
-0.11517853 0.080977052 0.55766803 3421002
-0.11427276 0.081048079 0.55815721 4408393
-0.11336649 0.081120022 0.55865264 4474185
-0.11246618 0.081197552 0.55918658 4671563
-0.11157687 0.081284508 0.55978543 4671310
-0.11068675 0.081372455 0.56039107 3815760
-0.10981616 0.081476502 0.56110764 2960464
-0.10894241 0.081580132 0.56182128 2697294
-0.10807741 0.081692316 0.56259388 2631503
-0.10721005 0.081804819 0.56336868 2499920
-0.1063402 0.081917569 0.56414515 2368335
-0.10547344 0.082034893 0.56495315 2237008
-0.10460554 0.082153618 0.56577075 2302287
-0.10373583 0.082273245 0.5665946 2236494
-0.10288762 0.082412474 0.5675534 2302287
-0.10204592 0.082559764 0.56856775 2368336
-0.10121589 0.082719587 0.56966841 2499920
-0.10041358 0.082905568 0.57094926 2631504
-0.099624954 0.083106823 0.57233524 2763088
-0.098842174 0.083317228 0.57378423 3881554
-0.098105893 0.083571687 0.57553661 4605266
-0.09742523 0.083879471 0.57765627 4078926
-0.096763261 0.084210187 0.57993382 2565704
-0.096118644 0.084563397 0.58236629 1578817
-0.095634863 0.085067473 0.58583772 1710653
-0.1699913 0.084220611 0.57288897 926791
-0.16754688 0.083517253 0.56810457 1973313
-0.16585754 0.083183937 0.56583726 3157826
-0.16432661 0.082926437 0.56408566 3684167
-0.16289964 0.082718506 0.5626713 2894411
-0.16152053 0.082532428 0.56140554 2499658
-0.16019855 0.082373388 0.56032372 3289672
-0.15891786 0.08223369 0.55937344 3223624
-0.15766433 0.082106344 0.5585072 3355209
-0.15646768 0.082007177 0.55783266 2894919
-0.15528409 0.081913613 0.5571962 2499910
-0.15412374 0.081831172 0.55663544 2236742
-0.15296637 0.081749238 0.55607808 2960455
-0.15181297 0.081668369 0.55552799 4079429
-0.15068832 0.081601985 0.55507642 4144962
-0.14958331 0.08154542 0.55469167 3552579
-0.14847982 0.08148893 0.5543074 3223620
-0.14737788 0.081432521 0.55392373 3750466
-0.14630079 0.081389174 0.55362886 3289409
-0.14523807 0.081353284 0.55338472 2960449
-0.14417629 0.081317417 0.55314076 4210499
-0.14311796 0.081283025 0.55290681 4144960
-0.14207733 0.081258267 0.55273837 3684672
-0.1410463 0.08123868 0.55260515 2105402
-0.14001603 0.081219263 0.55247307 2171707
-0.13899319 0.0812039 0.55236858 3947585
-0.13798773 0.081198558 0.55233222 4211008
-0.13698053 0.081192099 0.55228829 3816257
-0.13598329 0.081191488 0.55228412 2631738
-0.13499549 0.081196547 0.55231857 3420994
-0.13400652 0.081200972 0.55234867 3815749
-0.13302711 0.081211306 0.55241895 2499646
-0.1320525 0.08122474 0.55251032 2038848
-0.13107757 0.081238188 0.55260181 1973564
-0.13010849 0.081255496 0.55271953 2960447
-0.12914163 0.081274457 0.55284852 3816002
-0.12817807 0.081295818 0.55299383 4013631
-0.12721579 0.081318319 0.5531469 4079423
-0.12625295 0.081340834 0.55330002 4013633
-0.12529893 0.081369422 0.55349451 3223870
-0.12435592 0.081405684 0.55374116 2302010
-0.12341315 0.081442691 0.55399287 2368063
-0.12247597 0.081484012 0.55427396 2499908
-0.12154428 0.081529699 0.55458474 1841982
-0.12062531 0.081584752 0.55495924 1908033
-0.11970821 0.081642002 0.55534863 2302530
-0.11878983 0.081699334 0.55573863 3684423
-0.11786795 0.081755221 0.55611879 3881799
-0.11694823 0.081813574 0.55651569 2565700
-0.11603476 0.081877343 0.5569495 2302279
-0.11512087 0.081941932 0.55738884 2302533
-0.11420633 0.082007185 0.55783272 3552586
-0.11330238 0.082081281 0.55833673 4276555
-0.11239497 0.08215417 0.55883253 4276557
-0.11150163 0.082238764 0.55940795 3683663
-0.11060671 0.082323715 0.55998582 2828368
-0.10972745 0.082422003 0.5606544 2565712
-0.10885522 0.082527444 0.56137162 2500175
-0.10798826 0.082638904 0.5621298 2565711
-0.10712229 0.082753241 0.56290758 2565711
-0.10625394 0.082867913 0.56368756 2434128
-0.10538368 0.082983285 0.56447238 2368336
-0.10451616 0.083103098 0.56528735 2433871
-0.10364712 0.083224043 0.56611007 2631501
-0.10278621 0.083353989 0.56699401 2828877
-0.10193817 0.083497092 0.56796741 2631757
-0.10110683 0.083656922 0.5690546 2434127
-0.10028613 0.083828919 0.57022458 2631505
-0.099484459 0.084020555 0.57152814 2894673
-0.098692656 0.084224626 0.57291627 3749971
-0.097934902 0.084462374 0.57453352 4737107
-0.097195923 0.08472158 0.57629669 4868434
-0.096533805 0.085054107 0.57855862 3749708
-0.095862314 0.085385561 0.58081323 2039366
-0.095259726 0.08578638 0.58353972 1578816
-0.095073722 0.086575516 0.5889076 1452101
-0.16794297 0.084741868 0.56944758 1973309
-0.16616553 0.084360957 0.56688797 3223873
-0.16457321 0.084069908 0.56493217 3815749
-0.16310658 0.083839826 0.56338608 2828618
-0.16169327 0.083634451 0.562006 2565451
-0.16035821 0.083467208 0.56088215 3092041
-0.15905428 0.083314151 0.55985361 3881800
-0.15778846 0.083179213 0.55894691 4210759
-0.15655617 0.083060347 0.55814815 3815751
-0.15536536 0.082962088 0.55748785 3026502
-0.15418819 0.082869872 0.5568682 2434118
-0.1530301 0.082786769 0.55630976 3158343
-0.15187974 0.082706794 0.5557723 4145475
-0.15074477 0.082634173 0.55528432 4144963
-0.14963165 0.082572646 0.5548709 3355204
-0.14852777 0.082515426 0.55448639 2565188
-0.14742544 0.082458295 0.55410248 2959940
-0.14633301 0.082405962 0.55375081 2499649
-0.14526297 0.082365602 0.55347961 2894657
-0.144201 0.082329296 0.55323559 4210753
-0.14313996 0.082293004 0.55299175 4144960
-0.14209229 0.082263954 0.55279654 3618369
-0.14105472 0.082240388 0.55263817 2302525
-0.14002439 0.082220733 0.55250609 2368831
-0.1389965 0.082202226 0.55238175 3816513
-0.13798298 0.082192026 0.55231321 4145215
-0.13697843 0.082187064 0.55227983 3816254
-0.13597141 0.082180522 0.5522359 2960696
-0.13498288 0.082185157 0.55226701 3618881
-0.1339941 0.082189687 0.55229747 3487043
-0.13300979 0.082197055 0.552347 2367550
-0.1320335 0.082209535 0.55243087 1973310
-0.13105871 0.082223147 0.5525223 1973310
-0.13008387 0.082236931 0.55261493 2434108
-0.12911718 0.082256116 0.55274385 3750209
-0.12815146 0.082276233 0.55287904 3947584
-0.12718937 0.082299002 0.55303204 3882560
-0.12622672 0.082321778 0.55318511 4013890
-0.12526357 0.082344577 0.55333829 3618624
-0.12431839 0.082379654 0.55357403 2565690
-0.12337589 0.082417093 0.55382562 2105146
-0.12243254 0.08245457 0.55407745 1973565
-0.1214994 0.082499593 0.55438 1908032
-0.12057214 0.082549393 0.55471462 2039617
-0.11965542 0.082607299 0.55510372 2829378
-0.11873738 0.082665272 0.5554933 4014150
-0.11781657 0.082722276 0.55587637 3487044
-0.11689369 0.082778797 0.55625618 2367813
-0.11597728 0.082840912 0.55667359 2170441
-0.11506326 0.082905844 0.55710989 2104648
-0.11414892 0.082971685 0.55755234 2170442
-0.11323833 0.083041444 0.55802113 2762827
-0.11233138 0.083115146 0.55851638 2565195
-0.11142649 0.083191723 0.55903095 2433358
-0.11053211 0.08327762 0.55960816 2368336
-0.10964043 0.083367147 0.56020975 2499920
-0.10877313 0.083477058 0.56094831 2499919
-0.10790244 0.083586402 0.56168312 2565710
-0.10703657 0.083701581 0.56245708 2631502
-0.10616881 0.083817475 0.56323588 2565711
-0.10529836 0.08393348 0.56401539 2499663
-0.10442695 0.084050961 0.56480485 3092048
-0.10355858 0.084173225 0.56562644 3947857
-0.10269825 0.084304541 0.56650883 4013647
-0.10183411 0.084435314 0.56738764 3487308
-0.10099357 0.08458852 0.56841713 2631502
-0.10015465 0.084746249 0.56947702 2565712
-0.099347271 0.084934197 0.57073998 2828625
-0.098549977 0.085134797 0.572088 3486546
-0.097762853 0.085348524 0.57352418 4407891
-0.097025253 0.085610516 0.57528472 5066067
-0.096305437 0.085894033 0.57718992 4473423
-0.095625751 0.086219937 0.57937992 2894154
-0.094974391 0.086578861 0.58179182 1710403
-0.094440795 0.087054364 0.5849871 1907776
-0.1688085 0.086211078 0.57238239 1124167
-0.16655749 0.085584931 0.5682252 3223615
-0.1648518 0.085232973 0.56588846 3618625
-0.16332668 0.084970579 0.56414634 2828872
-0.16189443 0.084753513 0.56270516 2565451
-0.16052954 0.084569193 0.56148142 3026506
-0.15919894 0.084400713 0.56036282 3816264
-0.1579238 0.084259667 0.55942637 4078920
-0.15666102 0.08412344 0.55852193 3881287
-0.1554538 0.084015489 0.55780518 3618375
-0.15426441 0.083915815 0.55714345 2960454
-0.15309387 0.083825171 0.55654162 3618888
-0.15194656 0.08374612 0.5560168 4211267
-0.15081102 0.083672561 0.5555284 4210501
-0.14968203 0.083601668 0.5550577 3223365
-0.14857575 0.083542593 0.55466551 2301765
-0.14747304 0.083484732 0.55428135 2104388
-0.14637183 0.083426945 0.55389768 2170690
-0.14529277 0.083381079 0.55359316 3157827
-0.14422572 0.083341509 0.55333042 4145218
-0.14316449 0.08330477 0.55308652 4079424
-0.14210723 0.083269857 0.55285472 3618626
-0.14106701 0.083244495 0.55268633 2236731
-0.14003277 0.083222322 0.55253911 2631996
-0.13900287 0.083202437 0.55240709 4013633
-0.13798198 0.083187692 0.55230922 4079679
-0.13697536 0.083181404 0.55226743 4013632
-0.13596933 0.083175376 0.55222744 3552828
-0.13496965 0.083173178 0.55221283 4079427
-0.13398255 0.083178759 0.55224991 3092032
-0.13299282 0.083182774 0.55227655 2170432
-0.13201451 0.083194047 0.55235142 2039104
-0.13103986 0.083207823 0.55244285 1973567
-0.13006489 0.083221592 0.55253428 2302780
-0.12909274 0.083237402 0.55263925 3355456
-0.12812579 0.083256833 0.55276823 3882049
-0.12716295 0.083279267 0.55291718 3882302
-0.12620051 0.083302319 0.55307025 4079167
-0.12523754 0.083325371 0.55322331 3947327
-0.12428088 0.083353043 0.55340701 3224382
-0.12333865 0.083390906 0.55365843 2171448
-0.12239558 0.083428822 0.55391014 2039611
-0.12145456 0.083468772 0.55417538 2105405
-0.12052247 0.08351557 0.5544861 2829120
-0.11960265 0.083571725 0.55485892 3947589
-0.11868501 0.083630368 0.55524826 4079685
-0.11776525 0.083688498 0.5556342 2960194
-0.11684273 0.083745651 0.55601364 2235975
-0.11591984 0.083803527 0.55639791 2039112
-0.11500577 0.083868839 0.55683154 1973577
-0.11409178 0.083935358 0.55727321 1973067
-0.11317642 0.084002055 0.55771601 1907531
-0.1122687 0.08407566 0.55820471 1973322
-0.11136052 0.084150255 0.55869997 2433869
-0.11046167 0.084233321 0.55925149 2631500
-0.1095674 0.084321454 0.55983663 2763085
-0.1086919 0.0844258 0.56052941 2631503
-0.10782183 0.084536359 0.56126344 2631503
-0.10695098 0.084648408 0.56200737 2631502
-0.10608379 0.084765516 0.56278485 2697294
-0.10521394 0.084882744 0.56356317 2697293
-0.1043416 0.085000232 0.56434321 3552848
-0.10347017 0.085120782 0.56514359 4473938
-0.10260689 0.085250497 0.56600481 4934227
-0.10173891 0.085378885 0.56685722 4408142
-0.10087834 0.085516162 0.56776863 3289421
-0.10004018 0.085675441 0.56882614 2565456
-0.099211112 0.085845888 0.56995779 2762833
-0.098407 0.086041726 0.57125801 3091792
-0.097614981 0.086252391 0.57265669 3881299
-0.096854575 0.086495794 0.57427275 4605266
-0.096106544 0.086755633 0.57599789 4473680
-0.095403165 0.087061904 0.5780313 3289164
-0.094727315 0.08740034 0.58027828 2039110
-0.094119921 0.087810203 0.58299953 1973057
-0.093808971 0.088509023 0.58763921 1583430
