# .PCD v0.7 - Point Cloud Data file format
VERSION 0.7
FIELDS x y z rgb
SIZE 4 4 4 4
TYPE F F F U
COUNT 1 1 1 1
WIDTH 1140
HEIGHT 1
VIEWPOINT 0 0 0 1 0 0 0
POINTS 1140
DATA ascii
0.22540496 -0.027589982 0.57718527 7432545
0.22644855 -0.027590282 0.57719153 5721927
0.22760686 -0.027604494 0.57748884 4933957
0.22875834 -0.027617749 0.57776612 5000265
0.22984628 -0.027623249 0.57788122 5855830
0.23093468 -0.027628755 0.57799637 5131081
0.23202349 -0.027634259 0.57811153 2896441
0.23328111 -0.027659727 0.57864434 399660
0.23458362 -0.027690271 0.5792833 5418
0.23588902 -0.027720882 0.57992369 5418
0.23719728 -0.027751559 0.58056545 5418
0.23839584 -0.027769187 0.58093423 5676
0.23955125 -0.027781654 0.58119506 5676
0.24095178 -0.027822318 0.58204573 5419
0.24252076 -0.027881997 0.58329421 5419
0.24409652 -0.027941933 0.58454812 202797
0.24779914 -0.028243773 0.59086263 2372417
0.24959964 -0.028327154 0.59260696 7171691
0.25141075 -0.028411025 0.59436154 4276543
0.1971647 -0.028647862 0.62281883 6574403
0.19741802 -0.028522151 0.62008578 6574403
0.1980408 -0.02845093 0.61853743 6574403
0.19866046 -0.028380064 0.61699677 6574403
0.19931889 -0.028315498 0.61559302 6574403
0.20000519 -0.028255582 0.61429042 6574403
0.20068859 -0.028195918 0.6129933 6574403
0.20136911 -0.028136507 0.61170167 6574403
0.20204693 -0.028077366 0.61041594 6574403
0.20273186 -0.028019851 0.60916555 6574403
0.20341401 -0.027962573 0.60792029 6574403
0.20409337 -0.027905528 0.6066801 6574403
0.20476997 -0.027848717 0.60544497 6574403
0.20544381 -0.027792133 0.60421485 6574403
0.20611493 -0.027735783 0.60298973 6574403
0.20678332 -0.027679658 0.60176957 6574403
0.20744902 -0.02762376 0.60055429 6574403
0.20811559 -0.027568558 0.59935421 6574403
0.20877814 -0.0275134 0.59815502 6574403
0.20944133 -0.027458889 0.59696996 6574403
0.21010189 -0.027404595 0.59578955 6574403
0.21075986 -0.027350515 0.59461385 6574403
0.21141522 -0.027296647 0.59344274 6574403
0.21204917 -0.027240572 0.59222364 6574403
0.21263675 -0.027179133 0.5908879 6574403
0.2132217 -0.027117973 0.58955824 6574403
0.21380401 -0.027057083 0.58823448 6574403
0.21438372 -0.026996469 0.58691669 6574403
0.21497893 -0.026938392 0.58565408 6574403
0.2157419 -0.026901802 0.5848586 6574403
0.21659052 -0.026876196 0.58430189 6640196
0.2174146 -0.026847808 0.58368474 6640196
0.21823698 -0.026819484 0.58306897 6640196
0.2190576 -0.026791219 0.58245444 6640196
0.21987651 -0.026763013 0.58184123 6640196
0.22069368 -0.026734864 0.58122927 6640196
0.22150914 -0.026706776 0.58061862 6640196
0.2223229 -0.026678748 0.58000928 6640196
0.22313495 -0.026650777 0.5794012 6640196
0.22394527 -0.026622865 0.57879436 6640196
0.22475393 -0.026595013 0.57818884 6772297
0.22556089 -0.026567219 0.57758456 7102807
0.22669654 -0.026578214 0.57782364 5852740
0.22781484 -0.026587086 0.57801652 5460042
0.22890308 -0.026592387 0.57813174 5987158
0.22999175 -0.026597686 0.57824695 5065287
0.23108086 -0.026602989 0.57836223 2567735
0.23220542 -0.026612308 0.57856482 202540
0.23350658 -0.026641689 0.57920361 5418
0.23481061 -0.026671138 0.57984382 5418
0.2361175 -0.026700648 0.5804854 5418
0.23731449 -0.026717525 0.58085233 5676
0.23846926 -0.02672952 0.5811131 5676
0.23962505 -0.026741525 0.58137411 5419
0.24115203 -0.02679467 0.58252949 5419
0.24272276 -0.026852192 0.58378005 202540
0.24425755 -0.026905259 0.58493376 465711
0.24749392 -0.027144495 0.59013486 6382950
0.2492913 -0.027224531 0.5918749 5921110
0.25109926 -0.027305037 0.59362513 2368547
0.19736756 -0.027552737 0.62345964 6508611
0.19790085 -0.027470656 0.6216023 6574403
0.19852392 -0.027401894 0.62004638 6574403
0.19914389 -0.027333476 0.61849821 6574403
0.19976078 -0.027265398 0.61695778 6574403
0.20037459 -0.027197659 0.61542499 6574403
0.20103617 -0.027137114 0.61405498 6574403
0.20171714 -0.027079836 0.61275887 6574403
0.20239525 -0.027022798 0.61146826 6574403
0.20307803 -0.026967002 0.61020571 6574403
0.20376064 -0.026911784 0.60895622 6574403
0.20444044 -0.026856788 0.60771179 6574403
0.20511748 -0.026802016 0.60647243 6574403
0.20579176 -0.026747469 0.60523814 6574403
0.20646903 -0.026693886 0.60402566 6574403
0.20715116 -0.026641488 0.60284001 6574403
0.20783061 -0.026589295 0.601659 6574403
0.2085074 -0.026537305 0.60048258 6574403
0.20915785 -0.026482519 0.59924287 6574403
0.20979501 -0.026426623 0.59797806 6574403
0.21044533 -0.026372943 0.59676343 6574403
0.21110368 -0.026320815 0.59558386 6574403
0.21175942 -0.02626889 0.59440893 6574403
0.2124086 -0.02621668 0.59322751 6574403
0.21299636 -0.026157448 0.59188724 6574403
0.21358149 -0.026098486 0.59055305 6574403
0.21416399 -0.02603979 0.58922487 6574403
0.21474385 -0.025981355 0.58790261 6574403
0.2153262 -0.025923794 0.58660012 6574403
0.21593846 -0.025870379 0.58539146 6705732
0.21671298 -0.025836827 0.58463228 6771524
0.21754104 -0.025809955 0.58402419 6837317
0.2183674 -0.025783138 0.58341742 6771525
0.21919203 -0.025756376 0.58281183 6771525
0.22001493 -0.025729669 0.5822075 6771525
0.22083613 -0.025703017 0.58160442 6771525
0.22165565 -0.025676424 0.58100265 6705988
0.22247346 -0.025649881 0.58040208 6705988
0.22328959 -0.025623396 0.57980275 6705989
0.22410062 -0.025596574 0.57919586 6771783
0.22490968 -0.025569778 0.5785895 7234136
0.22578247 -0.02555044 0.57815194 7299930
0.22687054 -0.025555532 0.57826716 6640454
0.22795905 -0.025560627 0.57838243 6182735
0.22904801 -0.025565723 0.57849777 4999237
0.23013741 -0.025570823 0.57861316 2305077
0.23122725 -0.025575927 0.57872862 5419
0.23242982 -0.025593394 0.57912391 5418
0.23373248 -0.025621681 0.57976395 5418
0.23503803 -0.025650028 0.58040541 5418
0.23623346 -0.025666162 0.58077049 5676
0.23738755 -0.025677683 0.58103114 5676
0.23854271 -0.025689214 0.58129209 5676
0.23978688 -0.02571019 0.58176672 5419
0.24135263 -0.025765315 0.58301407 202540
0.24288785 -0.025816714 0.58417714 399919
0.24540575 -0.025971666 0.58768338 3292488
0.24718949 -0.026047925 0.58940893 7039848
0.24898371 -0.02612463 0.59114462 3289649
0.25078854 -0.026201788 0.59289056 0
0.19775949 -0.026480615 0.62469769 6377282
0.19838601 -0.026414001 0.62312621 6574403
0.1990094 -0.026347723 0.62156266 6574403
0.19962968 -0.02628178 0.62000698 6574403
0.20024686 -0.026216162 0.61845905 6574403
0.20086096 -0.026150873 0.6169188 6574403
0.201472 -0.026085906 0.61538619 6574403
0.20208003 -0.026021263 0.6138612 6574403
0.20274492 -0.025964608 0.61252469 6574403
0.20342538 -0.025910549 0.61124939 6574403
0.20410843 -0.025857402 0.6099956 6574403
0.20478939 -0.025804561 0.60874903 6574403
0.20548016 -0.025753513 0.60754478 6574403
0.20616819 -0.025702665 0.60634524 6574403
0.20685351 -0.025652019 0.60515046 6574403
0.20753615 -0.025601573 0.60396039 6574403
0.2082161 -0.025551323 0.60277498 6574403
0.20889339 -0.025501272 0.60159421 6574403
0.2095622 -0.025450706 0.60040134 6574403
0.21019974 -0.025396883 0.59913164 6574403
0.21083461 -0.02534329 0.59786731 6574403
0.21146677 -0.025289921 0.59660828 6574403
0.21210475 -0.025237782 0.59537828 6574403
0.21275829 -0.02518801 0.59420413 6574403
0.21335721 -0.025132302 0.59288996 6574403
0.2139425 -0.025075555 0.59155124 6574403
0.21453376 -0.025020065 0.59024221 6574403
0.21512313 -0.024964908 0.58894098 6574403
0.21570994 -0.024909994 0.58764553 6574403
0.21629417 -0.024855321 0.58635575 6574403
0.21696623 -0.024811223 0.58531547 6574403
0.21763836 -0.024767561 0.58428544 6705732
0.21844421 -0.024739465 0.58362263 6837317
0.21926905 -0.024713777 0.58301663 6837317
0.22009216 -0.024688141 0.58241189 6837317
0.22091357 -0.02466256 0.58180839 6837317
0.2217333 -0.024637034 0.5812062 6837317
0.22255133 -0.024611559 0.58060521 6837317
0.22336766 -0.024586136 0.58000547 6837575
0.22418229 -0.024560763 0.57940692 6706504
0.22508694 -0.024545444 0.57904553 6509640
0.22601971 -0.024533316 0.57875943 6180418
0.22701424 -0.024527976 0.57863343 6443332
0.22810346 -0.024532868 0.57874882 5064000
0.22919315 -0.024537763 0.57886434 2042164
0.23028326 -0.02454266 0.57897985 5419
0.2313738 -0.024547558 0.57909542 5418
0.23265466 -0.024572514 0.57968414 5418
0.23395881 -0.024599696 0.58032537 5418
0.23515272 -0.024615096 0.58068866 5676
0.23630618 -0.024626141 0.58094925 5676
0.23746066 -0.024637198 0.58121008 5676
0.2386162 -0.024648268 0.5814712 5676
0.23998609 -0.024681283 0.58225006 137004
0.2415217 -0.02473098 0.58342248 334126
0.24301454 -0.024775887 0.58448184 1254195
0.2451051 -0.02488108 0.58696342 6974570
0.24688576 -0.024954045 0.58868474 4802887
0.24867688 -0.025027439 0.59041613 986894
0.2504786 -0.025101265 0.59215778 0
0.19880414 -0.025343304 0.62443954 5195070
0.19943175 -0.025280081 0.62288177 6574403
0.20005624 -0.025217172 0.62133175 6574403
0.20067762 -0.025154576 0.61978942 6574403
0.20129594 -0.025092291 0.61825478 6574403
0.20191118 -0.025030311 0.61672765 6574403
0.20252341 -0.024968639 0.61520809 6574403
0.20313261 -0.024907269 0.61369598 6574403
0.20377606 -0.024850739 0.61230314 6574403
0.20447966 -0.024802117 0.61110508 6574403
0.20517372 -0.024752861 0.60989147 6574403
0.20586501 -0.024703803 0.60868269 6574403
0.20655358 -0.024654936 0.60747868 6574403
0.20723942 -0.024606263 0.60627943 6574403
0.20792256 -0.024557782 0.6050849 6574403
0.20860301 -0.024509493 0.60389507 6574403
0.20928082 -0.024461394 0.60270995 6574403
0.20995595 -0.024413481 0.60152942 6574403
0.21060602 -0.024363164 0.60028964 6574403
0.21124125 -0.024311652 0.59902042 6574403
0.21187378 -0.024260357 0.59775656 6574403
0.21250364 -0.024209276 0.59649795 6574403
0.21312988 -0.024158299 0.5952419 6574403
0.21373139 -0.024105044 0.59392977 6574403
0.21432623 -0.024051573 0.59261227 6574403
0.21491846 -0.023998341 0.59130067 6574403
0.21550806 -0.023945341 0.58999479 6574403
0.21609506 -0.023892576 0.58869469 6574403
0.2166795 -0.023840042 0.58740032 6574403
0.21732116 -0.023794288 0.58627295 6574403
0.21799374 -0.023752345 0.58523953 6574403
0.21866399 -0.023710553 0.5842098 6574403
0.21934614 -0.023670446 0.58322161 6705732
0.22016947 -0.023645885 0.58261645 6837317
0.22099109 -0.023621375 0.58201253 6837317
0.22181101 -0.023596916 0.58140987 6837317
0.22262923 -0.023572506 0.58080846 6443075
0.22350809 -0.023554716 0.58037013 5392191
0.22444376 -0.023543052 0.58008271 4669500
0.22537848 -0.023531398 0.57979554 4341051
0.22631229 -0.023519754 0.57950866 3881273
0.22724518 -0.023508122 0.57922208 3421496
0.22824806 -0.023503805 0.57911569 2107443
0.22933845 -0.023508498 0.57923132 5419
0.23042929 -0.023513192 0.57934701 5419
0.23157713 -0.023523636 0.57960433 5418
0.23287994 -0.023549655 0.58024544 5418
0.23407228 -0.023564324 0.58060682 5676
0.23522508 -0.023574896 0.58086735 5676
0.23637892 -0.02358548 0.58112812 5676
0.23753381 -0.023596074 0.58138913 5676
0.23868974 -0.023606677 0.58165038 71212
0.24015906 -0.023648048 0.58266973 334126
0.2416475 -0.023690931 0.58372635 1188402
0.2431998 -0.023739677 0.58492738 2699576
0.2448353 -0.023796087 0.5863173 4737352
0.24658278 -0.02386285 0.58796227 2565926
0.24837084 -0.023932951 0.58968949 460551
0.2501694 -0.024003461 0.59142685 0
0.20166323 -0.024426812 0.62985128 1845300
0.2003092 -0.024126878 0.6221174 3224118
0.20093074 -0.024066914 0.6205712 5654848
0.20154919 -0.024007244 0.61903262 5720384
0.20216459 -0.023947872 0.61750168 5720384
0.20277695 -0.023888793 0.6159783 5786176
0.20338632 -0.023830004 0.61446244 5786176
0.20409328 -0.023783227 0.61325628 5917504
0.20480938 -0.023738015 0.61209047 5983041
0.20551896 -0.023692535 0.61091775 6048833
0.2062258 -0.023647225 0.60974944 6114369
0.20692997 -0.023602091 0.60858566 6180161
0.20762677 -0.023556599 0.60741264 6180418
0.20831043 -0.0235101 0.60621363 6245954
0.20899139 -0.023463786 0.60501939 6311746
0.20966966 -0.02341765 0.6038298 6377282
0.21034528 -0.023371698 0.60264492 6377282
0.21101388 -0.023325441 0.60145217 6443074
0.21164946 -0.023276027 0.600178 6508611
0.21228236 -0.023226824 0.59890926 6508867
0.21289864 -0.023176309 0.59760672 6574403
0.21349435 -0.023124073 0.59625983 6574403
0.21409728 -0.023073141 0.5949465 6574403
0.21471018 -0.023023786 0.59367388 6574403
0.21530455 -0.022972941 0.59236288 6574403
0.21589436 -0.022922117 0.59105235 6574403
0.21648157 -0.022871517 0.58974761 6574403
0.21706617 -0.022821138 0.58844858 6574403
0.21767724 -0.022774016 0.58723354 6574403
0.21835031 -0.022733809 0.58619678 6574403
0.21902101 -0.022693742 0.58516365 6574403
0.21968932 -0.022653814 0.5841341 6574403
0.22035532 -0.02261403 0.58310825 6574403
0.22106865 -0.022579458 0.5822168 6705732
0.22192198 -0.022559443 0.58170074 3881273
0.22286057 -0.022548247 0.58141202 662316
0.22379823 -0.022537058 0.58112353 465196
0.22473499 -0.022525884 0.5808354 333867
0.2256708 -0.02251472 0.58054751 202282
0.22660565 -0.022503564 0.58025986 5418
0.22753963 -0.022492422 0.57997257 5161
0.22847265 -0.022481291 0.57968551 5161
0.22948395 -0.022477927 0.57959878 5418
0.2305755 -0.022482418 0.5797146 5419
0.23180132 -0.022499902 0.58016545 5418
0.23299216 -0.022513848 0.58052504 5676
0.23414432 -0.022523951 0.58078551 5676
0.2352975 -0.022534059 0.58104616 5676
0.23645173 -0.022544179 0.58130711 5419
0.23760702 -0.022554308 0.5815683 136747
0.23902056 -0.022588756 0.58245653 202796
0.2406569 -0.022643866 0.58387756 399917
0.24230124 -0.022699244 0.58530551 728367
0.24395362 -0.022754893 0.58674043 1253937
0.24561414 -0.022810817 0.58818245 2108212
0.24728285 -0.022867016 0.58963156 2896439
0.24895982 -0.022923496 0.59108788 3685180
0.20222537 -0.023224762 0.62806863 5161
0.20243011 -0.02311876 0.625202 5161
0.20263301 -0.02301372 0.62236142 1450543
0.20241864 -0.022862712 0.61827767 1910321
0.20303115 -0.022806238 0.61675048 2501683
0.20369162 -0.02275574 0.61538482 2764340
0.20441118 -0.022712354 0.6142115 3026997
0.20512798 -0.022669131 0.61304265 3289910
0.20584199 -0.022626063 0.61187798 3552567
0.20654933 -0.022582727 0.61070603 3815480
0.20725396 -0.022539556 0.60953856 4078137
0.20795591 -0.022496551 0.60837555 4275258
0.20865521 -0.02245371 0.60721701 4537915
0.20935182 -0.02241103 0.60606283 4800572
0.2100458 -0.022368515 0.60491306 4997949
0.21073608 -0.022326045 0.60376453 5260606
0.21140952 -0.022282239 0.60257989 5391935
0.21205927 -0.022236394 0.60134012 5457471
0.21266557 -0.022186484 0.59999043 5589055
0.21326417 -0.02213628 0.59863275 5589055
0.21386006 -0.022086304 0.59728122 5654847
0.21445942 -0.022037184 0.59595287 5720384
0.2150726 -0.021989966 0.59467596 5720384
0.21568316 -0.021942951 0.59340453 5786176
0.21628205 -0.021895221 0.59211373 5785920
0.21686944 -0.021846799 0.59080428 5786176
0.21745424 -0.021798592 0.58950061 5851968
0.21803649 -0.021750599 0.58820271 5917505
0.21870802 -0.021711934 0.58715713 6048833
0.21937919 -0.021673607 0.58612061 6048833
0.22004797 -0.021635411 0.58508772 6114625
0.22071442 -0.021597354 0.58405852 6114626
0.22150087 -0.021571344 0.58335513 5851712
0.2224056 -0.021557044 0.58296841 5457471
0.22330911 -0.021542761 0.58258218 5129278
0.22421142 -0.021528497 0.58219641 4866364
0.22511254 -0.021514252 0.58181119 3421238
0.22601248 -0.021500027 0.5814265 3224118
0.22691122 -0.02148582 0.58104229 1976113
0.22783481 -0.021474086 0.58072495 1844528
0.2287689 -0.021463444 0.58043718 1778993
0.22970209 -0.021452814 0.58014971 859438
0.23072302 -0.021450439 0.58008552 5162
0.23191233 -0.021463668 0.58044326 5419
0.23310301 -0.021476906 0.58080125 5162
0.23436734 -0.02149678 0.5813387 5162
0.235634 -0.02151669 0.58187711 5161
0.23692696 -0.021538815 0.58247542 202539
0.23855823 -0.021591363 0.58389652 268332
0.24019751 -0.021644171 0.58532459 399917
0.2418448 -0.021697236 0.58675963 662575
0.2435002 -0.021750564 0.58820176 1122609
0.24516374 -0.02180415 0.58965093 2370869
0.24683551 -0.021858005 0.59110731 3093817
0.2025809 -0.022130685 0.6291728 1910577
0.20278437 -0.0220295 0.6262961 5161
0.20298599 -0.021929234 0.62344557 5161
0.20318578 -0.021829877 0.62062085 5161
0.20338377 -0.021731418 0.61782163 399403
0.20404191 -0.021682927 0.6164431 333867
0.20473006 -0.021638136 0.6151697 399403
0.20544739 -0.021596896 0.61399722 530732
0.20616198 -0.021555809 0.61282915 662060
0.20687386 -0.021514881 0.61166555 793388
0.207579 -0.021473691 0.61049449 859181
0.20828144 -0.021432655 0.60932785 990509
0.20898117 -0.021391774 0.60816562 1056302
0.20967826 -0.021351051 0.60700786 1187630
0.21037272 -0.021310482 0.60585451 1187630
0.21105655 -0.021269264 0.60468268 1318959
0.2117371 -0.02122814 0.60351354 1384751
0.21241502 -0.021187175 0.60234892 1516079
0.21303214 -0.021140594 0.60102463 1647408
0.21363094 -0.021092676 0.5996623 1713200
0.21422704 -0.021044973 0.59830612 1778992
0.21482277 -0.020997714 0.59696257 1910321
0.21543622 -0.020952649 0.59568137 2041649
0.21604703 -0.020907776 0.59440565 2238770
0.21665522 -0.020863095 0.59313536 2435891
0.21725872 -0.020818403 0.59186476 2632756
0.21784373 -0.020772384 0.59055644 2895669
0.21842612 -0.020726565 0.58925384 3158582
0.21906692 -0.020686707 0.58812064 3421239
0.21973854 -0.020650128 0.58708072 3749688
0.2204078 -0.02061368 0.58604449 4012345
0.22119917 -0.020588944 0.58534127 3749688
0.22210716 -0.020575248 0.58495188 3421239
0.22301395 -0.02056157 0.58456302 3026997
0.22391954 -0.020547912 0.58417469 2698548
0.22482391 -0.020534268 0.58378685 2304563
0.22572707 -0.020520642 0.58339947 1975857
0.22662906 -0.020507038 0.5830127 1581872
0.22752985 -0.020493452 0.5826264 924973
0.22842942 -0.02047988 0.58224058 399403
0.2292355 -0.020458089 0.58162105 136746
0.23003155 -0.020435605 0.58098185 5418
0.23113486 -0.020440498 0.58112097 5161
0.23239805 -0.020459421 0.58165896 5161
0.23366357 -0.020478381 0.58219796 5161
0.23493145 -0.020497376 0.58273798 70954
0.23645946 -0.020538796 0.58391553 202539
0.23809363 -0.020589028 0.58534366 333868
0.23973584 -0.020639509 0.58677882 465453
0.2413861 -0.020690236 0.58822101 662575
0.2430445 -0.020741215 0.5896703 1779507
0.20313984 -0.020936418 0.62739396 924973
0.2033402 -0.020840961 0.62453347 5161
0.20353873 -0.020746373 0.62169892 5161
0.20394333 -0.020673707 0.61952138 5161
0.20461184 -0.020628443 0.61816496 5161
0.20527746 -0.020583376 0.61681449 5161
0.20594016 -0.020538505 0.61546987 5161
0.20659998 -0.020493831 0.61413115 5161
0.20725694 -0.020449352 0.61279821 5161
0.20790641 -0.020404609 0.61145741 5161
0.20859855 -0.020364502 0.6102556 5161
0.20929016 -0.020324767 0.60906482 5161
0.20997906 -0.020285182 0.60787863 5161
0.2106653 -0.020245755 0.60669714 5161
0.21134886 -0.020206481 0.60552019 5161
0.21202977 -0.020167356 0.60434777 5161
0.21270807 -0.020128384 0.60317993 5161
0.21338373 -0.020089563 0.60201657 5418
0.21399899 -0.020045474 0.60069537 70954
0.21459527 -0.020000063 0.59933454 136746
0.21518885 -0.019954856 0.59797984 202282
0.21580109 -0.019911822 0.59669024 268074
0.21641214 -0.019869104 0.59541017 268075
0.21702057 -0.019826571 0.59413558 333867
0.21762642 -0.019784221 0.59286648 399403
0.21822968 -0.019742049 0.59160274 464939
0.21881717 -0.019698869 0.59030879 530988
0.21942699 -0.019658107 0.58908731 662060
0.22009909 -0.019623293 0.58804399 924973
0.22089542 -0.019599833 0.58734101 1187630
0.2218067 -0.019586749 0.58694893 793645
0.22271678 -0.019573683 0.58655739 465195
0.22362565 -0.019560635 0.58616638 70954
0.2245333 -0.019547606 0.58577591 5418
0.22538015 -0.019529426 0.58523118 5418
0.22618538 -0.019507831 0.584584 5418
0.22698884 -0.019486282 0.58393824 5418
0.22779053 -0.01946478 0.58329391 5418
0.22859046 -0.019443326 0.58265102 5418
0.22938862 -0.01942192 0.58200955 5418
0.23042661 -0.019420922 0.58197963 5161
0.23169102 -0.019438928 0.58251923 5161
0.23295777 -0.01945697 0.58305985 5161
0.23436053 -0.019486155 0.58393449 136747
0.23598963 -0.019533817 0.58536273 202539
0.23762672 -0.019581711 0.58679795 333868
0.23927185 -0.019629842 0.58824027 1253936
0.20369565 -0.019748885 0.62562519 5161
0.20389293 -0.019659098 0.6227808 5161
0.20451584 -0.019611107 0.62126052 5161
0.205185 -0.01956805 0.61989653 5161
0.2058512 -0.019525182 0.61853844 5161
0.20651451 -0.019482501 0.61718637 5161
0.20711178 -0.019434081 0.6156525 5161
0.20769279 -0.01938466 0.61408687 5161
0.20827766 -0.019336121 0.61254925 5161
0.2089489 -0.019296072 0.6112805 5161
0.20961738 -0.019256189 0.61001706 5161
0.21028309 -0.01921647 0.60875881 5161
0.21095803 -0.019178003 0.60754019 5161
0.21164197 -0.019140746 0.60635996 5161
0.21232326 -0.019103635 0.60518432 5161
0.21300194 -0.019066669 0.60401326 5161
0.21367797 -0.019029845 0.60284668 5161
0.2143514 -0.018993163 0.60168463 5161
0.21496478 -0.018951554 0.60036653 5161
0.21555853 -0.018908642 0.59900713 5161
0.21616717 -0.018867459 0.59770244 5161
0.21677849 -0.018826915 0.59641808 5161
0.21738717 -0.018786546 0.59513921 5161
0.21799323 -0.018746346 0.59386575 5161
0.21859673 -0.018706322 0.59259778 5161
0.21919766 -0.018666467 0.59133524 5161
0.21978979 -0.018626254 0.59006131 5161
0.22058956 -0.018603938 0.5893544 5418
0.22147661 -0.018589165 0.58888638 5418
0.22229123 -0.01856848 0.58823109 5418
0.22310403 -0.01854784 0.58757728 5418
0.22391503 -0.018527247 0.58692491 5418
0.22472422 -0.0185067 0.58627397 5418
0.22553162 -0.018486198 0.58562452 5418
0.22633722 -0.018465741 0.58497643 5418
0.22714107 -0.01844533 0.58432984 5418
0.22794314 -0.018424965 0.58368468 5418
0.22874342 -0.018404642 0.58304089 5418
0.22971624 -0.018398326 0.5828408 5161
0.23098186 -0.01841541 0.58338201 5161
0.23226148 -0.01843345 0.5839535 5418
0.23388548 -0.018478537 0.58538181 136747
0.23551747 -0.018523846 0.58681715 1122351
0.23715746 -0.018569376 0.58825952 2042163
0.20405236 -0.018652987 0.62672079 924973
0.20441887 -0.018583534 0.62438726 5161
0.20509158 -0.018542526 0.62300944 5161
0.2057161 -0.018497633 0.62150109 5161
0.20630616 -0.018450145 0.61990553 5161
0.20689322 -0.018402901 0.6183182 5161
0.20747729 -0.018355899 0.61673898 5161
0.20805837 -0.018309137 0.6151678 5161
0.20865043 -0.01826383 0.61364555 5161
0.20932209 -0.018225934 0.61237228 5161
0.20999098 -0.018188195 0.61110431 5161
0.21065712 -0.018150613 0.60984159 5161
0.21132049 -0.018113185 0.60858405 5161
0.21198115 -0.018075911 0.60733169 5161
0.21263908 -0.018038791 0.60608447 5161
0.21329661 -0.018002016 0.60484886 5161
0.213973 -0.017967198 0.60367906 5161
0.2146468 -0.017932517 0.60251379 5161
0.21531798 -0.017897969 0.60135299 5161
0.21592949 -0.017858831 0.60003799 5161
0.21653451 -0.017819548 0.59871817 5161
0.21714607 -0.017781191 0.59742939 5161
0.21775499 -0.017742999 0.59614617 5161
0.21836132 -0.017704971 0.59486848 5161
0.21896502 -0.017667105 0.59359622 5161
0.21961416 -0.017633254 0.59245884 5161
0.2202625 -0.017599666 0.59133035 5161
0.22094573 -0.017569179 0.59030598 5161
0.22166677 -0.017541975 0.58939195 5161
0.22244139 -0.017519251 0.58862847 5161
0.22325458 -0.017499765 0.58797377 5418
0.22406594 -0.017480321 0.58732051 5418
0.22487552 -0.017460924 0.58666873 5418
0.2256833 -0.017441567 0.58601838 5418
0.22648929 -0.017422253 0.58536947 5418
0.22729351 -0.017402982 0.58472198 5418
0.22809592 -0.017383754 0.58407593 5418
0.2290038 -0.017372701 0.58370459 5161
0.23027061 -0.017388856 0.58424735 5161
0.2317812 -0.017423188 0.58540088 5418
0.23340809 -0.017465912 0.58683634 1056559
0.20492247 -0.017500266 0.62592548 1910577
0.20550631 -0.017453961 0.62426931 5161
0.20608708 -0.017407902 0.62262189 5161
0.20667279 -0.017362755 0.62100714 5161
0.20725994 -0.017318215 0.61941415 5161
0.20784409 -0.017273905 0.61782932 5161
0.20842527 -0.017229822 0.6162526 5161
0.20902452 -0.017187692 0.6147458 5161
0.20969662 -0.017151967 0.61346799 5161
0.21036594 -0.017116388 0.61219549 5161
0.21103248 -0.017080957 0.61092824 5161
0.21169627 -0.017045673 0.60966623 5161
0.21235731 -0.017010534 0.6084094 5161
0.21301563 -0.016975539 0.60715777 5161
0.21367125 -0.016940689 0.60591125 5161
0.21432419 -0.01690598 0.60466987 5161
0.21497446 -0.016871413 0.60343355 5161
0.21562208 -0.01683699 0.6022023 5161
0.21628352 -0.016803982 0.60102177 5161
0.21690312 -0.016768072 0.59973735 5161
0.21752185 -0.016732451 0.5984633 5161
0.21818078 -0.016700257 0.59731185 5161
0.21883714 -0.016668186 0.59616476 5161
0.21949102 -0.016636239 0.59502214 5161
0.22014239 -0.016604414 0.59388387 5161
0.22079128 -0.01657271 0.59274995 5161
0.22143768 -0.016541127 0.59162033 5161
0.22215126 -0.016514841 0.59068018 5161
0.22287087 -0.016489252 0.58976495 5161
0.22358826 -0.016463744 0.58885258 5161
0.22430344 -0.016438313 0.58794302 5161
0.22502702 -0.016413735 0.58706397 5161
0.22583517 -0.016395528 0.58641273 5418
0.22664155 -0.016377361 0.58576298 5418
0.22744612 -0.016359234 0.5851146 5418
0.22828922 -0.016344031 0.58457088 5161
0.22967678 -0.016367771 0.58541995 924973
0.20661892 -0.016326835 0.62422866 1910577
0.20719673 -0.016283754 0.62258148 5161
0.20777148 -0.016240897 0.62094295 5161
0.20834321 -0.016198266 0.619313 5161
0.20891194 -0.016155858 0.61769158 5161
0.20950007 -0.016115392 0.61614442 5161
0.21014583 -0.016079761 0.61478215 5161
0.21081032 -0.01604593 0.61348867 5161
0.21147689 -0.016012611 0.6122148 5161
0.21214071 -0.01597943 0.61094618 5161
0.21280177 -0.015946386 0.6096828 5161
0.21346012 -0.015913479 0.60842466 5161
0.21411575 -0.015880708 0.60717171 5161
0.21476868 -0.01584807 0.60592389 5161
0.21541893 -0.015815567 0.60468119 5161
0.21606652 -0.015783196 0.60344356 5161
0.21671598 -0.015751287 0.60222352 5161
0.21738759 -0.015721297 0.6010769 5161
0.21805033 -0.015690967 0.59991729 5161
0.21870986 -0.015660705 0.59876031 5161
0.21936682 -0.01563056 0.59760773 5161
0.22002123 -0.015600528 0.59645951 5161
0.22067316 -0.015570613 0.59531575 5161
0.22132258 -0.015540811 0.59417635 5161
0.22196953 -0.015511123 0.5930413 5161
0.22263786 -0.015483209 0.59197402 5161
0.22335832 -0.015459168 0.59105486 5161
0.22407651 -0.015435198 0.59013844 5161
0.2247925 -0.015411306 0.58922493 5161
0.22550626 -0.015387487 0.58831424 5161
0.22621782 -0.01536374 0.58740634 5161
0.22692718 -0.015340066 0.58650118 5161
0.22763437 -0.015316466 0.58559889 1385523
0.20830621 -0.01515975 0.62254101 2173492
0.20887801 -0.015119856 0.62090272 530990
0.20944679 -0.015080169 0.61927295 465453
0.21003854 -0.015042548 0.61772805 465453
0.21068475 -0.015009204 0.61635876 399660
0.2113281 -0.014976008 0.61499554 334124
0.21196863 -0.014942958 0.61363834 333868
0.2126241 -0.014911301 0.6123383 268075
0.21328567 -0.014880395 0.6110692 268075
0.21394451 -0.014849619 0.60980535 202539
0.21460062 -0.014818969 0.60854667 202539
0.21525402 -0.014788444 0.60729319 136747
0.21590476 -0.014758047 0.60604489 136746
0.21656562 -0.014728645 0.60483748 136746
0.21724044 -0.014700481 0.60368091 71210
0.21791266 -0.014672424 0.60252875 70954
0.21858045 -0.014644348 0.60137582 70954
0.21924093 -0.014616062 0.60021424 5418
0.21989886 -0.014587885 0.59905714 5161
0.22055402 -0.014559801 0.59790385 5161
0.2212065 -0.014531814 0.59675455 5161
0.22185647 -0.014503934 0.59560966 5161
0.22250395 -0.014476161 0.59446913 5161
0.22314894 -0.014448493 0.59333295 5161
0.2238479 -0.014424566 0.59235036 5161
0.22456689 -0.014402152 0.59142995 5161
0.2252837 -0.014379811 0.59051245 5161
0.22599825 -0.014357536 0.58959776 5161
0.22671059 -0.014335331 0.58868587 662317
0.23109299 -0.014544314 0.59726787 1976629
0.20998439 -0.013998959 0.62086248 2962490
0.21057978 -0.013964177 0.61931986 2108729
0.21122646 -0.013933144 0.61794353 1845559
0.21187025 -0.013902248 0.61657327 1648437
0.21251121 -0.013871489 0.6152091 1385780
0.21314934 -0.013840866 0.61385095 1253938
0.21378465 -0.013810378 0.61249876 1122609
0.21443111 -0.01378092 0.61119229 991280
0.2150877 -0.01375241 0.60992789 859952
0.21574159 -0.01372402 0.60866874 793903
0.21641396 -0.013697086 0.60747421 728367
0.21709198 -0.01367078 0.60630751 662574
0.21776742 -0.013644575 0.60514534 596782
0.21844026 -0.01361847 0.60398757 531246
0.21911056 -0.013592467 0.60283428 531246
0.21977422 -0.01356631 0.6016742 531246
0.2204327 -0.013540092 0.60051143 531246
0.22108865 -0.013513977 0.59935319 465453
0.22174209 -0.013487962 0.59819943 465453
0.22239295 -0.013462042 0.59704989 399661
0.22304094 -0.013436201 0.59590381 465453
0.22368649 -0.013410461 0.59476221 399661
0.22433962 -0.013385419 0.59365159 334124
0.22505943 -0.013364575 0.59272712 268332
0.22577703 -0.013343796 0.59180558 268332
0.22649239 -0.013323082 0.59088689 1122351
0.21569055 -0.012818819 0.61795926 2501682
0.21598484 -0.012770311 0.61562085 2436145
0.21627687 -0.012722168 0.61330003 2436146
0.21656671 -0.012674388 0.61099666 2962489
0.21694225 -0.01263208 0.60895711 2305076
0.21762091 -0.012607761 0.60778475 2239541
0.21829699 -0.012583535 0.60661691 2634298
0.21897046 -0.012559403 0.60545355 2568250
0.21964134 -0.012535362 0.6042946 2831678
0.22030967 -0.012511414 0.60314012 2700349
0.22096914 -0.012487199 0.60197282 2568764
0.22162566 -0.012463056 0.60080898 2371643
0.22227965 -0.012439007 0.59964961 2240058
0.2229311 -0.012415049 0.59849465 2042936
0.22358005 -0.012391184 0.59734416 1911352
0.2242265 -0.01236741 0.59619808 1714487
0.22487016 -0.012343708 0.59505552 1582902
0.22555415 -0.012322435 0.59403002 1451573
0.22745939 -0.012367768 0.59621537 2502455
0.058147319 0.0070106699 0.45724636 8158329
0.059324097 0.0070525147 0.45997557 3551876
0.060313556 0.0070712445 0.46119714 2960225
0.058154438 0.0078364136 0.45730233 7302777
0.058934152 0.0078304121 0.4569521 8158329
0.059937909 0.0078539327 0.4583247 4802177
0.060914598 0.0078733154 0.45945579 1446537
0.061786246 0.0078787832 0.45977485 2631265
0.057380557 0.0086690048 0.45770919 2828636
0.058161557 0.0086623598 0.45735833 5328763
0.058941361 0.0086557241 0.457008 8158073
0.059719972 0.0086490996 0.45665821 8158329
0.060547337 0.0086496193 0.45668566 4736385
0.061511122 0.0086693531 0.45772755 1380489
0.062379904 0.0086753508 0.45804423 1380745
0.063249886 0.0086813569 0.45836133 1380745
0.05738759 0.0094957883 0.45776528 1578110
0.058168679 0.0094885081 0.45741433 3354749
0.058948573 0.0094812391 0.45706391 7368314
0.059727278 0.0094739823 0.45671406 8158330
0.060504787 0.0094667347 0.45636472 8224123
0.061287384 0.0094604688 0.45606264 6447486
0.062156297 0.0094675152 0.45640233 6381435
0.063026503 0.0094745718 0.45674253 6381435
0.063898005 0.0094816396 0.45708323 6381435
0.06477081 0.0094887177 0.45742443 6578814
0.065663666 0.009498517 0.45789686 5591683
0.066985421 0.009569346 0.46131131 1709698
0.068131059 0.0096135847 0.46344393 4605546
0.057110634 0.010421649 0.46220654 2565468
0.05739462 0.010322774 0.45782137 1314942
0.058175806 0.010314859 0.45747036 1907070
0.058955789 0.010306956 0.45711985 5394557
0.059722487 0.010296981 0.45667744 8421246
0.06047963 0.010285651 0.45617497 8355709
0.061313324 0.010287471 0.45625567 8026744
0.062182624 0.010295137 0.45659566 8026743
0.063053221 0.010302814 0.45693615 8026743
0.063925117 0.010310503 0.45727715 8421500
0.064744771 0.010309678 0.45724055 8750466
0.065553002 0.010307076 0.45712519 8750210
0.066607133 0.010342722 0.45870611 3223170
0.067826435 0.010402828 0.46137181 1709958
0.068691902 0.010407864 0.46159521 1578120
0.056619186 0.011158525 0.45822915 2367613
0.057401653 0.011149962 0.45787749 1249151
0.058167111 0.011138382 0.45740199 1775234
0.058927163 0.011126108 0.45689791 3025795
0.059685547 0.011113861 0.45639497 6513024
0.060470898 0.011106899 0.45610911 8223867
0.061339289 0.011115173 0.45644888 8026487
0.062208973 0.011123459 0.45678914 8026743
0.063071892 0.011130334 0.45707145 8421244
0.063880242 0.011127527 0.45695618 8750210
0.064688191 0.011124721 0.45684096 8750210
0.065495737 0.011121918 0.45672584 8750210
0.066302866 0.011119115 0.45661074 6907778
0.067524523 0.011185043 0.45931813 1380741
0.068385988 0.011190435 0.45953953 1446281
0.069248296 0.011195832 0.45976117 1446537
0.070111424 0.011201234 0.45998299 1512073
0.056207106 0.012074118 0.46163329 2697050
0.056607623 0.011982636 0.45813558 1314684
0.057369776 0.011969234 0.45762318 1314691
0.058131076 0.011956037 0.45711863 1314691
0.0588907 0.011942869 0.45661518 2038659
0.059648652 0.01192973 0.45611283 3946879
0.060496494 0.011934683 0.4563022 6513273
0.061365273 0.011943577 0.45664224 8158330
0.062208723 0.01194737 0.45678729 8552831
0.063016795 0.011944359 0.45667216 8750210
0.06382446 0.011941351 0.45655712 8750210
0.064631715 0.011938343 0.45644212 8750210
0.065438569 0.011935336 0.45632717 8750210
0.066245012 0.011932331 0.45621228 8750210
0.067173913 0.011951187 0.4569332 3222916
0.068082795 0.011966066 0.4575021 1380489
0.068941124 0.011971812 0.45772177 1446281
0.06980028 0.011977563 0.45794165 1446537
0.070660256 0.011983319 0.45816171 1512073
0.071521066 0.011989081 0.45838201 2960226
0.056146942 0.012893002 0.46113917 1183350
0.056715533 0.012833443 0.45900893 1314934
0.057334214 0.012786767 0.45733953 1907072
0.058095083 0.012772677 0.4568356 1314691
0.058854274 0.012758619 0.45633277 1446531
0.059654247 0.012753666 0.45615563 2170492
0.06052212 0.012763168 0.45649546 4275837
0.061346628 0.012763392 0.45650348 8750210
0.062154412 0.012760177 0.4563885 8750209
0.062961794 0.012756964 0.45627359 8750210
0.063768767 0.012753753 0.45615873 8750210
0.064575337 0.012750544 0.45604393 8750210
0.065381497 0.012747335 0.45592919 8618624
0.066187255 0.01274413 0.45581451 8552831
0.067000173 0.012742364 0.45575136 6776193
0.067844898 0.012746617 0.4559035 1314950
0.068712726 0.012755057 0.45620537 1314950
0.069581717 0.01276351 0.45650768 1314949
0.070451848 0.012771972 0.45681036 1314949
0.071323134 0.012780447 0.45711344 3157124
0.072194584 0.012788755 0.45741063 7105153
0.073198229 0.01282003 0.4585292 5986698
0.074247956 0.012858585 0.45990819 8487309
0.075304002 0.012897371 0.46129546 6579300
0.056236096 0.013746601 0.46187139 1183353
0.056823865 0.0136875 0.45988566 1183350
0.057387799 0.013624441 0.45776695 1446518
0.058059137 0.013588308 0.45655292 1314691
0.058817901 0.013573362 0.45605072 1249152
0.059677698 0.013581821 0.45633495 1643905
0.060485605 0.013578401 0.45622006 3617927
0.061293103 0.013574983 0.4561052 7895169
0.062100202 0.013571567 0.45599043 8618624
0.062908575 0.013568517 0.45588794 8421502
0.063727431 0.013567775 0.45586303 8421501
0.06454619 0.013567033 0.45583811 8355452
0.06536486 0.013566292 0.4558132 8421245
0.066170543 0.013562907 0.45569944 8553088
0.066965185 0.013557369 0.45551339 8618624
0.067788832 0.013557767 0.45552677 3157380
0.068655916 0.013566737 0.45582816 1314949
0.069524139 0.013575719 0.45612994 1314949
0.070393518 0.013584713 0.45643213 3157124
0.071269341 0.01359473 0.45676869 8618624
0.072136149 0.013602817 0.4570404 8750209
0.073023237 0.013614503 0.45743302 6644872
0.074069917 0.013655348 0.45880538 9342606
0.075122893 0.01369644 0.460186 9342606
0.076203883 0.013741683 0.46170616 9211020
0.077356063 0.013798649 0.46362016 6513507
0.055537969 0.014615255 0.46299684 2499675
0.056226518 0.014577245 0.46179274 1249149
0.056891624 0.014534356 0.46043405 1183353
0.057478249 0.014472941 0.45848846 1183350
0.058056429 0.01441117 0.45653164 3618169
0.058818027 0.01439602 0.45605171 1314690
0.059632137 0.014393964 0.45598656 1314945
0.06045134 0.014393177 0.45596161 2499202
0.06127046 0.01439239 0.4559367 4934016
0.062089484 0.014391603 0.45591176 8289661
0.062908426 0.014390816 0.45588684 8355452
0.063727275 0.01439003 0.45586193 8421244
0.064540654 0.014388044 0.45579904 8487294
0.065341108 0.014383262 0.45564753 8553087
0.066136971 0.014377602 0.45546824 8618879
0.066929847 0.01437144 0.455273 8618880
0.067732863 0.014367577 0.45515063 3157380
0.068599187 0.014377075 0.45545155 1314949
0.069466658 0.014386586 0.45575282 3091587
0.070340611 0.014397201 0.45608911 8618624
0.071218915 0.014408451 0.45644549 8684416
0.072077803 0.014415561 0.45667073 8750209
0.072932191 0.014421619 0.45686266 8750209
0.073892735 0.0144483 0.45770788 9342606
0.074942656 0.014491674 0.45908192 9342606
0.076006643 0.01453679 0.46051115 9276813
0.077155016 0.014596895 0.46241522 9211020
0.078312926 0.0146575 0.46433511 9342606
0.055518493 0.015444994 0.46283448 2499675
0.056206856 0.015404842 0.46163124 1249149
0.056891643 0.015364896 0.4604342 1249149
0.057543084 0.015317224 0.45900562 1183352
0.058125157 0.0152527 0.45707208 3749494
0.0588127 0.015217272 0.4560104 1314688
0.059631992 0.015216439 0.45598546 1314688
0.060451198 0.015215608 0.45596054 1512320
0.061270311 0.015214776 0.4559356 2696576
0.062089339 0.015213944 0.45591068 5460350
0.062908277 0.015213112 0.45588577 8420990
0.063711226 0.015208486 0.45574713 8487037
0.064511858 0.015203431 0.45559564 8421243
0.065308921 0.015197674 0.45542312 8618622
0.066102073 0.01519116 0.45522791 8487294
0.066894539 0.01518465 0.45503286 8618624
0.067686334 0.015178149 0.45483801 6776449
0.068542555 0.015186076 0.45507556 3091587
0.069414638 0.015197287 0.45541152 8421246
0.070290908 0.015209145 0.45576686 8487294
0.071166597 0.015220601 0.45611018 8684416
0.072019555 0.015226991 0.45630166 8750209
0.072873227 0.015233386 0.45649329 8750209
0.073727615 0.015239785 0.45668507 8881796
0.074763276 0.015283101 0.45798308 9342606
0.075816445 0.015329008 0.45935875 9276813
0.076955013 0.015391002 0.46121651 9211020
0.07809481 0.015451914 0.46304184 9342606
0.079082906 0.015481839 0.46393859 9474192
0.080217831 0.01553958 0.46566889 6579300
0.055499032 0.016274152 0.46267223 1907308
0.056187201 0.016231859 0.46146983 1249149
0.056871805 0.016189784 0.46027365 1249149
0.057552867 0.016147926 0.45908365 1249149
0.058190513 0.016095249 0.45758602 2565240
0.058812559 0.016039789 0.4560093 2762621
0.059631851 0.016038911 0.45598438 1314688
0.060451053 0.016038034 0.45595944 1314688
0.06127017 0.016037159 0.45593452 1643905
0.062080633 0.01603407 0.45584676 2499712
0.062881984 0.016028741 0.45569521 5855607
0.063682795 0.016023412 0.45554376 6711149
0.064481035 0.016017582 0.45537797 7039854
0.065274462 0.016010718 0.45518282 7171182
0.066067211 0.016003858 0.45498782 7763062
0.066859275 0.015997006 0.45479298 8157819
0.067650668 0.015990159 0.45459831 8486783
0.068491407 0.015995 0.45473596 8421246
0.069365665 0.016007461 0.45509025 8092538
0.070241287 0.016019942 0.45544508 8289659
0.071109153 0.016030388 0.45574203 8684160
0.071961395 0.01603711 0.45593318 8750209
0.072814353 0.01604384 0.45612451 8750209
0.073668025 0.016050575 0.45631599 8750209
0.07458476 0.01607075 0.45688951 9210763
0.075634867 0.016118906 0.4582586 9276813
0.076756038 0.016181001 0.460024 9211020
0.077849381 0.016235968 0.46158665 9474192
0.0788339 0.016267313 0.46247777 9539985
0.079844765 0.016303383 0.46350324 9474192
0.081028983 0.016373731 0.46550328 6579300
0.055479582 0.01710273 0.46251011 1907308
0.056167565 0.017058298 0.46130854 1249149
0.056851976 0.017014096 0.46011317 1249149
0.057532851 0.016970122 0.458924 1249149
0.058210216 0.016926374 0.45774096 3486332
0.058833949 0.016868476 0.45617518 5723513
0.059631709 0.016861379 0.45598328 1249152
0.060449332 0.016860018 0.45594645 1314690
0.061251394 0.016854411 0.45579481 1314948
0.062052928 0.016848808 0.45564333 1644161
0.062853925 0.016843209 0.4554919 2763383
0.063653313 0.016837327 0.45533285 4409960
0.064447016 0.016830113 0.45513773 5264741
0.06524004 0.016822902 0.45494276 5856357
0.066032387 0.0168157 0.45474797 6119271
0.066824704 0.016808668 0.45455781 6645098
0.067616887 0.016801771 0.4543713 7368305
0.068443164 0.016803412 0.45441565 7960696
0.06931676 0.016816493 0.4547694 7697781
0.070191726 0.016829595 0.45512375 7894904
0.071051799 0.016838865 0.45537445 8684417
0.071903333 0.016845923 0.4555653 8750209
0.072755583 0.016852988 0.45575634 8750209
0.07360854 0.016860057 0.45594749 8750209
0.074462213 0.016867131 0.45613882 8881796
0.075454153 0.016905028 0.45716369 9342606
0.076558091 0.016966928 0.45883763 9211020
0.077605493 0.017015109 0.46014059 9539985
0.078586444 0.017047852 0.4610261 9539985
0.079571187 0.017080726 0.46191508 9539985
0.080652274 0.017133385 0.46333915 9408399
0.081839554 0.017207291 0.46533778 8026746
0.055460148 0.017930724 0.46234807 1907308
0.056147937 0.017884158 0.46114734 1249149
0.056832165 0.017837832 0.45995283 1249149
0.057512853 0.017791746 0.45876449 1446524
0.058190037 0.017745897 0.45758227 3947633
0.05886374 0.017700285 0.45640615 4341880
0.059620094 0.017680442 0.45589447 1314947
0.060422342 0.017674563 0.4557429 1314948
0.061224058 0.017668689 0.45559141 1314948
0.062025245 0.017662818 0.45544004 1314947
0.062825754 0.017656911 0.45528775 1513086
0.063619733 0.017649347 0.45509267 2633836
0.064413033 0.017641786 0.45489773 4015716
0.065206118 0.017634358 0.45470622 5067619
0.065999225 0.017627122 0.4545196 5461858
0.066791676 0.017619889 0.45433313 5790306
0.067583479 0.017612664 0.4541468 6184804
0.068394981 0.017610684 0.45409575 7039853
0.069267929 0.017624384 0.45444903 7237232
0.070142239 0.017638108 0.45480287 7500403
0.070994541 0.017646043 0.45500749 8487295
0.07184536 0.017653432 0.45519802 8750209
0.072696894 0.017660828 0.45538872 8750209
0.073549144 0.01766823 0.45557961 8750209
0.074402101 0.017675638 0.45577061 8750209
0.075274304 0.017687405 0.45607403 9013639
0.076361164 0.01774881 0.4576574 9342606
0.077363126 0.017789382 0.45870355 9539985
0.078340545 0.017823512 0.45958355 9539985
0.079321727 0.017857771 0.46046695 9539985
0.080306679 0.017892161 0.46135372 9474192
0.081459217 0.0179628 0.46317518 9408399
0.08260227 0.018029938 0.46490631 9605778
0.083562873 0.0180563 0.46558607 9671571
0.084518395 0.01808105 0.46622425 9671571
0.08547654 0.018105868 0.4668642 9671571
0.086437322 0.018130755 0.46750593 9671571
0.087400742 0.018155711 0.46814939 9671571
0.088366829 0.018180734 0.46879464 8224125
0.089335576 0.018205827 0.46944168 8224125
0.090264849 0.018222481 0.4698711 6776679
0.055440724 0.018758141 0.46218616 1249149
0.056128327 0.018709442 0.46098629 1249147
0.056812365 0.018660996 0.45979258 1183352
0.057518944 0.018621242 0.45881307 1446772
0.058223657 0.018582018 0.45784664 1183350
0.058925409 0.01854296 0.45688429 1183350
0.05962421 0.018504065 0.45592594 1183353
0.060395386 0.018488383 0.45553955 1314948
0.061196748 0.01848224 0.45538819 1314948
0.061997585 0.018476101 0.45523694 1314948
0.062792614 0.018468415 0.45504758 1380993
0.063586473 0.01846059 0.45485476 1777524
0.064380504 0.018453011 0.45466802 3029346
0.065173879 0.018445438 0.45448142 4607074
0.065966606 0.018437872 0.45429498 4935775
0.066758677 0.018430309 0.45410869 5330271
0.067550108 0.018422756 0.45392257 5724769
0.068346873 0.018416822 0.45377633 6251110
0.069219165 0.018431138 0.4541291 6842733
0.070087977 0.018444205 0.45445102 7829368
0.07093738 0.01845192 0.4546411 8355710
0.071787484 0.018459639 0.45483133 8684417
0.07263831 0.018467367 0.45502174 8750209
0.073489845 0.0184751 0.4552123 8750209
0.074342094 0.018482842 0.455403 8750209
0.075195059 0.018490588 0.45559388 8750209
0.076152071 0.018523477 0.45640424 9276556
0.077122271 0.018558836 0.45727545 9539985
0.078096181 0.018594328 0.45814997 9539985
0.079073824 0.018629959 0.45902786 9539985
0.080055222 0.018665725 0.45990911 9539985
0.081082396 0.018711323 0.4610326 9408399
0.082240619 0.018785927 0.46287084 9539985
0.083203472 0.018814856 0.46358359 9671571
0.084165573 0.01884304 0.46427801 9671571
0.085119233 0.018868795 0.46491262 9671571
0.0860755 0.018894622 0.46554896 9671571
0.087034389 0.018920518 0.46618706 9671571
0.087995909 0.018946487 0.46682692 9671571
0.088960081 0.018972529 0.46746853 9671571
0.089862384 0.018985011 0.46777606 9737364
0.090688363 0.018981285 0.46768427 9671571
0.091790363 0.019034868 0.46900451 9474192
0.093043782 0.019118585 0.47106725 8026745
0.055440195 0.019591648 0.46218175 1249149
0.056162741 0.019552954 0.46126893 1183354
0.056878321 0.019513002 0.4603264 1183354
0.057586707 0.019471765 0.4593536 1183354
0.058292106 0.019430703 0.4583849 1183352
0.058994532 0.019389812 0.45742026 1183352
0.059694007 0.019349093 0.45645967 1183350
0.060390558 0.019308545 0.45550314 1183353
0.061169464 0.019295067 0.45518515 1314948
0.061965775 0.019287361 0.45500338 1314948
0.062760733 0.019279441 0.45481652 1314947
0.063555032 0.019271525 0.45462981 1381501
0.064348675 0.019263618 0.45444325 2239336
0.065141678 0.019255714 0.45425683 3555424
0.065934017 0.019247819 0.45407057 4673119
0.066725716 0.01923993 0.45388448 5133150
0.067516766 0.019232048 0.45369852 5461599
0.068307169 0.019224172 0.45351273 5922147
0.069170468 0.019236758 0.45380962 7171953
0.070031606 0.019248454 0.45408553 8487554
0.070880301 0.019256499 0.45427531 8553090
0.071729705 0.019264549 0.45446524 8684674
0.072579816 0.019272607 0.45465532 8750209
0.073430642 0.019280672 0.45484558 8750209
0.074282177 0.019288743 0.45503598 8618624
0.075145282 0.019299608 0.45529231 8421244
0.076037899 0.019317735 0.45571995 8223865
0.076941356 0.019338202 0.45620275 8487295
0.077853337 0.019360354 0.45672533 8816261
0.078827471 0.019397335 0.45759776 9211019
0.079805329 0.01943446 0.45847353 9539985
0.080786936 0.019471724 0.45935264 9539985
0.081882119 0.019535327 0.4608531 9539985
0.082840219 0.019565279 0.46155965 9671571
0.083801262 0.019595321 0.46226838 9671571
0.084764898 0.019625371 0.46297729 9671571
0.085716702 0.019652121 0.46360835 9671571
0.086671092 0.019678945 0.46424112 9671571
0.087628104 0.019705841 0.46487564 9671571
0.088587724 0.019732811 0.46551189 9671571
0.089463487 0.019740768 0.46569961 9737364
0.090285882 0.019736914 0.46560866 9737364
0.09110795 0.019733058 0.46551773 9737364
0.092070669 0.019759458 0.46614051 9605778
0.093317628 0.01984583 0.46817809 9474192
0.094329432 0.019881092 0.46900994 9539985
0.095183238 0.019882722 0.46904838 9539985
0.096037187 0.019884352 0.46908686 8092539
0.055441976 0.020425992 0.46219659 1907050
0.056144316 0.020378307 0.4611176 1249150
0.056863815 0.020338152 0.46020898 1249151
0.057580486 0.020298157 0.45930398 1249151
0.058294341 0.020258317 0.45840248 1249151
0.059005402 0.020218635 0.45750454 1249151
0.059713684 0.020179106 0.45661011 1249151
0.060419194 0.020139731 0.45571914 1249151
0.0611527 0.020110618 0.45506039 1249150
0.061938103 0.02009912 0.45480019 1249153
0.062729694 0.020089902 0.4545916 1249153
0.063523613 0.020081658 0.45440507 1315456
0.064316884 0.020073421 0.45421869 1711731
0.065109499 0.020065192 0.45403248 2832223
0.065901466 0.020056969 0.4538464 4344413
0.066692792 0.020048752 0.45366049 5067358
0.067483455 0.020040542 0.4534747 5461855
0.068273485 0.020032339 0.45328909 6448234
0.069121845 0.020041244 0.45349059 8421762
0.069975331 0.02005141 0.45372063 9211020
0.070823319 0.020059785 0.45391011 9079433
0.071672015 0.020068165 0.45409974 8881797
0.072521426 0.020076552 0.45428953 8684160
0.073388264 0.020089526 0.45458308 8421244
0.074267097 0.020105457 0.45494357 8355195
0.075151466 0.020122522 0.45532975 8289402
0.07605321 0.020143824 0.45581174 8223865
0.076956868 0.02016517 0.45629475 8158329
0.077862449 0.02018656 0.45677879 8223866
0.078769952 0.020207997 0.45726386 8223866
0.079679377 0.020229479 0.45774996 8158329
0.080590747 0.020251008 0.45823708 8487295
0.081516892 0.020275775 0.45879751 9013639
0.082480125 0.020309176 0.45955333 9408398
0.083436437 0.020340225 0.46025589 9671571
0.084395677 0.02037137 0.46096063 9671571
0.085357852 0.02040261 0.46166751 9671571
0.086310819 0.020431064 0.46231136 9671571
0.087263353 0.020458871 0.4629406 9671571
0.08821848 0.020486757 0.46357158 9671571
0.089068115 0.020489847 0.46364152 9737364
0.089886956 0.020485863 0.46355137 9737364
0.090705469 0.020481881 0.46346125 9737364
0.09152367 0.020477898 0.46337113 9737364
0.092347562 0.020475252 0.46331125 9539985
0.093317129 0.020504661 0.46397671 9539985
0.094203688 0.02051547 0.4642213 9474192
0.095196322 0.020548984 0.46497968 9474192
0.096192203 0.020582611 0.46574056 9408399
0.097191349 0.020616347 0.46650392 9408399
0.098191708 0.020649759 0.46725997 6645093
0.05545437 0.021264458 0.46229991 1907050
0.056145739 0.021210613 0.46112928 1248890
0.056845199 0.021161351 0.46005833 1315704
0.057561673 0.021119751 0.45915392 1249151
0.058275335 0.021078313 0.45825303 1249151
0.058986198 0.021037037 0.45735565 1249151
0.059694286 0.020995921 0.45646179 1249151
