# .PCD v0.7 - Point Cloud Data file format
VERSION 0.7
FIELDS x y z rgb
SIZE 4 4 4 4
TYPE F F F U
COUNT 1 1 1 1
WIDTH 1182
HEIGHT 1
VIEWPOINT 0 0 0 1 0 0 0
POINTS 1182
DATA ascii
-0.13203777 0.11614025 0.48962849 9013384
-0.13135122 0.11631437 0.49036258 9211020
-0.13066261 0.11648903 0.49109891 9211020
-0.1314187 0.11796287 0.49731234 9342606
-0.13094461 0.11834513 0.4989239 9539985
-0.13044286 0.11870752 0.50045168 8092539
-0.18481369 0.11578163 0.4844327 8421504
-0.18361834 0.11557924 0.48358589 8421504
-0.18242715 0.11537756 0.48274207 8421504
-0.18124013 0.11517658 0.48190117 8421504
-0.18005723 0.11497631 0.48106322 5065062
-0.17887844 0.11477672 0.48022816 1444938
-0.17770372 0.11457783 0.47939599 721220
-0.17653307 0.11437962 0.47856668 655428
-0.17536648 0.1141821 0.47774026 655428
-0.1742039 0.11398527 0.4769167 655428
-0.17304532 0.1137891 0.47609594 655428
-0.17206256 0.11370718 0.47575316 720965
-0.17116603 0.1136817 0.47564656 720965
-0.17026989 0.11365623 0.47553998 720965
-0.16937417 0.11363077 0.47543347 720965
-0.16847885 0.11360533 0.47532701 720965
-0.16758391 0.11357989 0.47522059 720965
-0.1666894 0.11355447 0.47511423 720965
-0.16579527 0.11352906 0.47500789 720965
-0.16490154 0.11350366 0.47490162 720965
-0.16400822 0.11347827 0.4747954 720965
-0.16311529 0.11345289 0.47468922 720965
-0.16222276 0.11342753 0.47458309 720965
-0.16133064 0.11340217 0.47447702 720965
-0.16048722 0.11341097 0.47451383 720965
-0.15967745 0.11344376 0.47465101 720965
-0.1588672 0.11347657 0.47478828 720965
-0.15806729 0.11351715 0.47495809 720965
-0.15726788 0.11355856 0.47513133 720965
-0.15646791 0.11359999 0.47530469 720965
-0.15566735 0.11364146 0.47547817 720965
-0.1548662 0.11368295 0.47565177 720965
-0.15406618 0.11372572 0.47583076 720965
-0.15326887 0.11377101 0.47602025 720966
-0.15247095 0.11381634 0.47620991 720966
-0.15167239 0.11386171 0.47639972 720966
-0.15087318 0.11390711 0.47658965 721222
-0.15007335 0.11395254 0.47677976 1905743
-0.14927287 0.11399801 0.47697002 5854574
-0.14847176 0.11404352 0.47716042 8618883
-0.14771298 0.11412227 0.47748992 8750469
-0.14696528 0.11421056 0.47785932 8750469
-0.14621644 0.11429898 0.47822928 8750469
-0.14546643 0.11438755 0.47859985 8684676
-0.14473391 0.114491 0.4790327 8618883
-0.14401664 0.11460784 0.47952154 8553090
-0.14329791 0.11472491 0.48001137 8553090
-0.14257769 0.11484221 0.48050219 8553090
-0.14185601 0.11495977 0.48099402 8553090
-0.14113285 0.11507756 0.48148686 8553090
-0.14040822 0.11519559 0.48198071 8553090
-0.13968208 0.11531387 0.48247558 8553090
-0.13895446 0.11543239 0.48297149 8487297
-0.13822535 0.11555115 0.48346838 8355710
-0.13749471 0.11567016 0.48396632 8092279
-0.13676259 0.11578941 0.48446527 8158072
-0.13607852 0.11595115 0.48514199 8420988
-0.13539389 0.1161145 0.48582542 8420988
-0.13470732 0.1162783 0.48651078 8420987
-0.13401881 0.11644257 0.48719808 8420988
-0.13332835 0.11660731 0.48788735 8420988
-0.13275875 0.11688063 0.48903096 8750211
-0.13207412 0.11705565 0.48976326 9211020
-0.13138744 0.11723121 0.4904978 9211020
-0.13069868 0.11740729 0.49123451 9211020
-0.13116534 0.11863077 0.49635357 9408399
-0.13067621 0.11900067 0.49790126 9539985
-0.13017468 0.11936433 0.49942279 8092539
-0.18506119 0.11681167 0.48508143 8421504
-0.18387103 0.11661179 0.48425141 8421504
-0.18268494 0.1164126 0.48342422 8421504
-0.18150289 0.11621408 0.48259982 8421504
-0.18032487 0.11601624 0.48177826 6973556
-0.17915085 0.11581907 0.48095948 2234704
-0.17798081 0.11562257 0.48014346 852549
-0.17681473 0.11542673 0.47933024 720964
-0.17565261 0.11523156 0.47851974 655428
-0.17449439 0.11503705 0.47771198 655428
-0.1733401 0.11484319 0.47690696 655428
-0.17229857 0.11472248 0.47640571 720964
-0.17138599 0.11468686 0.47625777 720964
-0.17048866 0.11466113 0.47615093 720965
-0.16959172 0.11463542 0.47604415 720965
-0.1686952 0.11460971 0.4759374 720965
-0.16779907 0.11458402 0.4758307 720965
-0.16690335 0.11455834 0.47572407 720965
-0.16600803 0.11453267 0.47561747 720965
-0.16511311 0.11450701 0.47551093 720965
-0.16421859 0.11448137 0.47540444 720965
-0.16332448 0.11445574 0.47529799 720965
-0.16243075 0.11443011 0.47519156 720965
-0.16153744 0.1144045 0.47508523 720965
-0.16071694 0.11443046 0.47519302 720965
-0.15990606 0.11446359 0.47533059 720965
-0.15909472 0.11449675 0.47546828 720965
-0.15828292 0.11452992 0.47560602 720965
-0.15747449 0.1145659 0.47575548 720965
-0.15667352 0.11460776 0.47592929 720965
-0.15587199 0.11464964 0.47610322 720965
-0.15506986 0.11469156 0.47627729 720965
-0.15426715 0.11473351 0.47645149 720965
-0.15346386 0.11477549 0.4766258 720965
-0.15265997 0.11481749 0.47680026 720965
-0.1518555 0.11485954 0.47697484 720966
-0.15105043 0.11490161 0.47714955 720966
-0.15024477 0.11494371 0.47732437 1445195
-0.14944273 0.11498907 0.47751278 4406626
-0.14864078 0.11503503 0.47770363 8553091
-0.14786728 0.11510368 0.47798872 8684676
-0.1471267 0.11519891 0.47838417 8618883
-0.14641285 0.11531631 0.47887167 8553090
-0.14569752 0.11543394 0.47936016 8553090
-0.14498074 0.11555182 0.47984967 8553090
-0.14426249 0.11566993 0.48034015 8553090
-0.1435428 0.1157883 0.48083168 8553090
-0.1428216 0.11590689 0.48132417 8553090
-0.14209893 0.11602574 0.48181769 8553090
-0.14137478 0.11614482 0.48231223 8553090
-0.14064915 0.11626416 0.48280779 8553090
-0.13992202 0.11638374 0.48330435 8553090
-0.13919339 0.11650356 0.48380193 8553089
-0.13846326 0.11662363 0.48430055 8421504
-0.13773163 0.11674395 0.48480022 8224124
-0.13699849 0.11686452 0.4853009 7960694
-0.13626382 0.11698534 0.48580259 7960693
-0.13552764 0.1171064 0.48630536 8158073
-0.13480625 0.11724191 0.48686808 8223609
-0.13411736 0.11740766 0.4875564 8420988
-0.13342655 0.11757388 0.48824665 8618368
-0.13279526 0.11779513 0.48916543 9211020
-0.13211049 0.11797158 0.48989815 9211020
-0.13142367 0.11814855 0.49063307 9211020
-0.13073477 0.11832605 0.49137017 9211020
-0.13090719 0.11929085 0.49537668 9474192
-0.13040891 0.11965354 0.4968828 9539985
-0.12990759 0.12001844 0.4983981 9408399
-0.18532552 0.11785477 0.48577431 7237230
-0.1841709 0.1176769 0.48504117 8421504
-0.18300711 0.11749144 0.48427674 8421504
-0.18182243 0.11729073 0.48344946 8421504
-0.18064179 0.1170907 0.48262498 8092285
-0.17946517 0.11689135 0.48180333 3222103
-0.17829256 0.11669269 0.48098448 852805
-0.1771239 0.1164947 0.48016837 721220
-0.17595923 0.11629738 0.47935507 655428
-0.17479847 0.11610072 0.47854447 655428
-0.17364167 0.11590473 0.47773665 655428
-0.17254828 0.11574934 0.47709617 720964
-0.17163162 0.11571154 0.47694036 720964
-0.17071556 0.11567377 0.47678465 720964
-0.16980983 0.11564264 0.47665638 720965
-0.1689121 0.11561668 0.47654936 720965
-0.16801478 0.11559073 0.4764424 720965
-0.16711786 0.11556479 0.4763355 720965
-0.16622134 0.11553887 0.47622862 720965
-0.16532522 0.11551294 0.47612178 720965
-0.16442952 0.11548705 0.47601503 720965
-0.16353419 0.11546116 0.47590831 720965
-0.16263928 0.11543527 0.47580162 720965
-0.16175881 0.11541941 0.47573626 720965
-0.16094731 0.11545287 0.47587416 720965
-0.16013534 0.11548635 0.47601214 720965
-0.1593229 0.11551984 0.47615021 720965
-0.15851 0.11555336 0.47628835 720965
-0.15769662 0.11558689 0.47642657 720965
-0.15688276 0.11562045 0.47656488 720965
-0.15607716 0.11566049 0.47672993 720965
-0.15527406 0.11570283 0.47690445 720965
-0.15447035 0.1157452 0.47707909 720965
-0.15366608 0.1157876 0.47725388 720965
-0.15286091 0.11582982 0.47742787 720966
-0.15205017 0.11586826 0.47758633 720966
-0.1512389 0.11590674 0.47774491 720967
-0.15042709 0.11594523 0.47790357 1115721
-0.14961474 0.11598375 0.47806236 2958936
-0.14881101 0.11602946 0.47825074 8421249
-0.14804077 0.11610195 0.47854954 8684676
-0.14731893 0.11621347 0.47900921 8816262
-0.14660627 0.11633358 0.47950429 8816262
-0.14589211 0.11645395 0.48000041 8816262
-0.14517649 0.11657456 0.48049754 8816262
-0.14445938 0.11669542 0.48099571 8816262
-0.14374079 0.11681654 0.48149493 8816262
-0.1430207 0.1169379 0.48199517 8816262
-0.14229912 0.11705952 0.48249647 8816262
-0.14157602 0.11718139 0.48299879 8750469
-0.14085142 0.11730351 0.48350215 8750469
-0.14012532 0.1174259 0.48400658 8750469
-0.1393977 0.11754853 0.48451206 8750469
-0.13866855 0.11767142 0.48501861 8750469
-0.13793789 0.11779457 0.4855262 8618882
-0.13720568 0.11791797 0.48603484 8289659
-0.13647194 0.11804164 0.48654458 8158073
-0.13573666 0.11816557 0.48705536 8158329
-0.13499983 0.11828975 0.48756725 8223865
-0.13426146 0.1184142 0.4880802 8158329
-0.13353105 0.11854737 0.4886291 8487038
-0.13283178 0.11871013 0.48929995 8684418
-0.13214688 0.11888799 0.49003306 9211020
-0.13145992 0.11906639 0.4907684 9211020
-0.13077089 0.11924532 0.49150592 9276813
-0.13064077 0.11993983 0.49436852 9539985
-0.1301427 0.12030374 0.4958685 9539985
-0.12964161 0.12066986 0.4973776 9408399
-0.13199419 0.12371581 0.5099324 7763573
-0.18557334 0.11888977 0.48642388 7237230
-0.1844168 0.1187101 0.48568878 8421504
-0.18326376 0.11853098 0.48495591 8421504
-0.18211418 0.11835238 0.48422521 8421504
-0.18095984 0.11816895 0.4834747 8421504
-0.1797806 0.11796742 0.48265016 5065565
-0.17860539 0.11776657 0.48182842 1643070
-0.17743416 0.1175664 0.48100945 984637
-0.17626692 0.11736692 0.48019329 787008
-0.17510363 0.11716811 0.47937989 721219
-0.17394428 0.11696997 0.47856924 720964
-0.17279871 0.11677918 0.47778863 720964
-0.17188065 0.11674099 0.47763237 720964
-0.17096317 0.11670282 0.47747621 720964
-0.1700463 0.11666468 0.47732016 720964
-0.16913003 0.11662655 0.47716418 720964
-0.16823104 0.11660004 0.47705567 720965
-0.16733292 0.11657383 0.47694847 720965
-0.1664352 0.11654764 0.47684133 720965
-0.16553788 0.11652147 0.47673422 720965
-0.16464098 0.11649531 0.4766272 720965
-0.16374445 0.11646915 0.47652018 720965
-0.16284835 0.11644302 0.47641325 720965
-0.16199094 0.11644442 0.47641897 720965
-0.16117834 0.11647821 0.47655725 720965
-0.16036528 0.11651204 0.47669566 720964
-0.15955174 0.11654589 0.47683412 720964
-0.15873773 0.11657974 0.47697264 721220
-0.15792324 0.11661362 0.47711125 721219
-0.15709925 0.11664081 0.4772225 787010
-0.15624912 0.11664879 0.47725517 787010
-0.15543981 0.1166875 0.47741354 852802
-0.15462995 0.11672623 0.47757199 853057
-0.15381956 0.11676499 0.47773054 918592
-0.15300862 0.11680377 0.47788921 918847
-0.15219715 0.11684258 0.478048 919102
-0.15138514 0.11688141 0.47820687 984637
-0.15057258 0.11692026 0.47836584 1050684
-0.14978787 0.11698131 0.47861561 2432585
-0.14901766 0.11705445 0.47891486 6644592
-0.14824648 0.11712769 0.47921449 8553090
-0.14747433 0.11720101 0.47951448 8684676
-0.14674659 0.1173107 0.47996327 8816262
-0.14603192 0.11743219 0.48046035 8816262
-0.14531575 0.11755393 0.48095843 8816262
-0.1445981 0.11767593 0.48145756 8816262
-0.14387895 0.11779818 0.48195773 8816262
-0.14315832 0.11792067 0.48245892 8816262
-0.14243618 0.11804344 0.48296118 8816262
-0.14171253 0.11816645 0.48346448 8816262
-0.14098738 0.11828972 0.48396882 8816262
-0.14026071 0.11841325 0.48447421 8816262
-0.13953252 0.11853703 0.48498067 8816262
-0.13880281 0.11866108 0.48548818 8816262
-0.13807157 0.11878539 0.48599678 8684676
-0.13733879 0.11890995 0.4865064 8421502
-0.13660449 0.11903477 0.48701712 8223865
-0.13586862 0.11915986 0.48752892 8223865
-0.13513888 0.11929198 0.48806944 8158072
-0.13441661 0.11943246 0.48864421 8158072
-0.13369262 0.11957327 0.48922032 8158072
-0.13296694 0.11971442 0.4897978 8158072
-0.13223954 0.1198559 0.49037665 8223609
-0.13151039 0.1199977 0.49095684 8684418
-0.13080704 0.12016511 0.49164176 8750467
-0.13037544 0.12058616 0.49336445 9539985
-0.12987758 0.12095129 0.49485832 9539985
-0.12937669 0.12131864 0.49636129 9408399
-0.13181587 0.12446725 0.50924349 9145227
-0.18582182 0.11992756 0.48707518 7237230
-0.18466336 0.11974607 0.48633811 8421504
-0.1835084 0.11956514 0.48560327 8421504
-0.18235692 0.11938475 0.48487064 8421504
-0.18120892 0.11920491 0.48414022 8355711
-0.18006438 0.1190256 0.483412 6184287
-0.17891933 0.11884423 0.48267534 2697264
-0.17774552 0.11864188 0.48185351 1380901
-0.17657569 0.11844021 0.48103446 1117227
-0.17540984 0.11823923 0.4802182 1051187
-0.17424795 0.11803893 0.47940472 984887
-0.17308998 0.11783931 0.47859398 853307
-0.17213039 0.11777343 0.47832638 853053
-0.17121151 0.11773486 0.47816977 853309
-0.17029323 0.11769633 0.47801328 853308
-0.16937554 0.11765782 0.47785684 853308
-0.16845845 0.11761933 0.47770053 853308
-0.16754854 0.11758548 0.47756305 853308
-0.16664961 0.11755902 0.47745562 918844
-0.16575108 0.11753259 0.47734824 919099
-0.16485296 0.11750616 0.47724092 919099
-0.16395526 0.11747976 0.47713366 984890
-0.16305795 0.11745335 0.47702643 984889
-0.16222374 0.11747237 0.47710365 985144
-0.16141003 0.11750651 0.47724232 1050935
-0.16059588 0.11754068 0.47738111 1050934
-0.15978123 0.11757487 0.47751996 1116725
-0.15896305 0.11760682 0.47764972 1116979
-0.15810664 0.11761066 0.47766533 1116978
-0.15725018 0.11761452 0.47768098 1117233
-0.15640007 0.11762319 0.47771621 1182767
-0.15559001 0.11766225 0.47787485 1183021
-0.15477942 0.11770134 0.4780336 1183275
-0.15396829 0.11774045 0.47819248 1183272
-0.15315662 0.1177796 0.47835144 1183526
-0.15234441 0.11781877 0.47851053 1249060
-0.15153547 0.11786091 0.47868171 1249314
-0.15076624 0.11793461 0.47898105 1381153
-0.14999603 0.1180084 0.47928074 2302256
-0.14922488 0.11808229 0.47958082 5197400
-0.14845276 0.11815628 0.47988129 8487297
-0.14767966 0.11823034 0.48018211 8618883
-0.1469056 0.11830451 0.48048332 8684676
-0.14617197 0.11841231 0.48092115 8816262
-0.14545526 0.11853518 0.48142019 8816262
-0.14473706 0.11865831 0.48192027 8816262
-0.14401737 0.1187817 0.4824214 8816262
-0.14329618 0.11890534 0.48292357 8816262
-0.14257349 0.11902925 0.48342678 8816262
-0.14184929 0.11915341 0.48393106 8816262
-0.14112359 0.11927783 0.48443639 8816262
-0.14039636 0.11940251 0.48494276 8816262
-0.13966762 0.11952745 0.48545021 8816262
-0.13893732 0.11965265 0.4859587 8816262
-0.13820551 0.11977812 0.48646826 8750468
-0.13747217 0.11990385 0.48697889 8421503
-0.13674302 0.12003488 0.48751107 8223865
-0.13602346 0.12017608 0.48808452 8158072
-0.13530222 0.1203176 0.48865932 8158072
-0.13457924 0.12045946 0.48923546 8158072
-0.13385458 0.12060165 0.48981297 8158072
-0.1331282 0.12074418 0.49039185 8223865
-0.13239264 0.12088024 0.49094442 8289658
-0.13164383 0.12100594 0.49145496 8223865
-0.13099772 0.12122839 0.49235842 8092279
-0.13038161 0.12148185 0.49338782 8092279
-0.12976293 0.12173636 0.49442151 8421501
-0.12914166 0.12199195 0.49545956 8882053
-0.13163805 0.12521668 0.50855649 9145227
-0.18607095 0.12096811 0.48772821 6118749
-0.18491057 0.12078481 0.48698917 8421504
-0.1837537 0.12060206 0.48625237 8421504
-0.18260032 0.12041987 0.4855178 8421504
-0.18145043 0.12023823 0.48478544 8355711
-0.18030398 0.12005713 0.48405525 5921370
-0.179161 0.11987658 0.4833273 2434342
-0.17802145 0.11969657 0.48260152 855311
-0.17688531 0.1195171 0.48187792 789262
-0.17571713 0.1193141 0.48105946 986899
-0.17455269 0.11911163 0.48024315 1183770
-0.17339218 0.11890984 0.47942954 1183523
-0.17238088 0.11880887 0.47902244 1183269
-0.17146057 0.11876991 0.47886536 1183269
-0.17054087 0.11873098 0.47870839 1183268
-0.16962177 0.11869208 0.47855154 1183524
-0.16870327 0.1186532 0.47839478 1183523
-0.16778538 0.11861434 0.47823811 1183523
-0.16686809 0.11857551 0.47808155 1183523
-0.16596484 0.11854631 0.47796384 1183522
-0.16506553 0.11851963 0.47785625 1183776
-0.1641666 0.11849295 0.47774869 1183775
-0.16327153 0.11846879 0.47765127 1183773
-0.1624572 0.11850327 0.47779027 1184027
-0.16164242 0.11853777 0.47792938 1249560
-0.16082714 0.11857229 0.47806856 1249813
-0.1599731 0.11857845 0.47809339 1315604
-0.15911593 0.11858232 0.47810903 1250067
-0.15825868 0.1185862 0.47812468 1184274
-0.15740138 0.11859009 0.47814032 1118481
-0.15655129 0.11859946 0.47817811 1052688
-0.1557405 0.11863888 0.47833705 986895
-0.15492918 0.11867834 0.47849613 855309
-0.15411732 0.11871782 0.47865531 789516
-0.1533049 0.11875732 0.4788146 723723
-0.15251529 0.11881503 0.47904724 592138
-0.15174608 0.11888938 0.47934702 460552
-0.15097591 0.11896382 0.47964719 723724
-0.15020478 0.11903837 0.47994772 1578780
-0.14943267 0.119113 0.48024863 3684162
-0.1486596 0.11918773 0.48054993 8026747
-0.14788556 0.11926255 0.48085159 8618883
-0.14711054 0.11933746 0.48115364 8618883
-0.14633456 0.11941247 0.48145607 8684676
-0.14559504 0.11951832 0.48188284 8816262
-0.1448763 0.11964259 0.48238388 8816262
-0.14415607 0.11976712 0.48288599 8816262
-0.14343432 0.11989191 0.48338911 8816262
-0.14271107 0.12001696 0.48389331 8816262
-0.14198633 0.12014227 0.48439854 8816262
-0.14126006 0.12026785 0.48490486 8816262
-0.14053227 0.12039369 0.48541221 8816262
-0.13980295 0.12051978 0.48592061 8816262
-0.13907211 0.12064615 0.48643011 8816261
-0.13834351 0.12077608 0.48695397 8684676
-0.13762665 0.12091798 0.48752612 8618626
-0.13690811 0.12106022 0.4880996 8421502
-0.13618787 0.1212028 0.48867443 8289402
-0.13546592 0.1213457 0.4892506 8223864
-0.13473092 0.12147871 0.48978686 8289657
-0.13398631 0.12160473 0.49029499 8355450
-0.13324013 0.12173102 0.49080417 8355450
-0.13249241 0.12185757 0.49131441 8158328
-0.13185596 0.12208886 0.49224693 8026742
-0.1312418 0.12234405 0.49327585 8026743
-0.13062507 0.12260032 0.4943091 8092279
-0.12999423 0.12284679 0.4953028 8289658
-0.1292628 0.12300093 0.49592429 8816260
-0.1314607 0.12596408 0.50787133 9145227
-0.13160113 0.12698354 0.51198167 6316128
-0.18519211 0.12184849 0.48773065 8421504
-0.1840234 0.12165747 0.48696604 8421504
-0.18285833 0.12146705 0.48620382 8421504
-0.18169691 0.12127721 0.48544398 8289918
-0.18054423 0.1210914 0.48470023 5658198
-0.17939936 0.12090906 0.48397034 2171169
-0.17825794 0.12072726 0.48324263 460551
-0.17711993 0.120546 0.48251709 65793
-0.17598535 0.12036529 0.48179376 1
-0.17485416 0.12018511 0.48107257 65794
-0.17369543 0.11998413 0.48026806 394760
-0.17263208 0.11984733 0.4797205 591882
-0.17171034 0.11980797 0.47956297 526346
-0.17078923 0.11976865 0.47940555 526346
-0.16986871 0.11972935 0.47924823 526345
-0.1689488 0.11969007 0.47909102 526089
-0.16802949 0.11965082 0.4789339 526089
-0.16711077 0.11961159 0.47877687 460553
-0.16619267 0.11957239 0.47861996 460552
-0.16527861 0.11953571 0.47847316 460551
-0.16437849 0.11950877 0.47836533 394759
-0.16350678 0.11950232 0.47833949 328966
-0.16269135 0.11953715 0.47847891 262916
-0.16184291 0.11954796 0.47852218 131586
-0.16098502 0.11955187 0.47853786 65793
-0.16012707 0.11955579 0.47855353 0
-0.15926906 0.11955971 0.47856921 0
-0.15841101 0.11956362 0.47858489 0
-0.1575529 0.11956754 0.47860056 0
-0.1567028 0.11957762 0.47864091 0
-0.15589128 0.11961741 0.47880018 0
-0.15507923 0.11965723 0.47895956 0
-0.15426663 0.11969707 0.47911903 0
-0.15349661 0.11977059 0.47941333 0
-0.15272744 0.11984561 0.47971359 0
-0.15195729 0.11992071 0.4800142 0
-0.15118618 0.11999591 0.48031521 197380
-0.15041409 0.1200712 0.48061657 855310
-0.14964105 0.12014658 0.48091832 2697010
-0.14886703 0.12022206 0.48122045 6513255
-0.14809205 0.12029764 0.48152298 8553090
-0.14731607 0.12037331 0.48182586 8618883
-0.14653912 0.12044907 0.48212913 8618883
-0.14576121 0.12052494 0.48243278 8684676
-0.14501581 0.12062876 0.48284838 8816262
-0.14429502 0.12075444 0.48335144 8816262
-0.14357273 0.12088038 0.48385555 8816262
-0.14284894 0.12100659 0.48436072 8816262
-0.14212362 0.12113306 0.48486695 8816262
-0.14139679 0.12125979 0.48537421 8816262
-0.14066844 0.12138678 0.48588255 8816262
-0.13994034 0.12151559 0.48639816 8750469
-0.13922618 0.12165821 0.48696899 8750469
-0.13851033 0.12180115 0.48754117 8816262
-0.13779281 0.12194443 0.48811468 8750469
-0.13705821 0.12207436 0.48863477 8750469
-0.13631774 0.12220071 0.48914048 8487038
-0.13557576 0.12232731 0.48964727 8355450
-0.13483222 0.12245418 0.4901551 8355449
-0.13408715 0.12258132 0.49066401 8355450
-0.13334052 0.12270872 0.49117395 8158328
-0.13271384 0.12294894 0.49213549 8026742
-0.13210161 0.12320587 0.49316394 8026743
-0.13148682 0.12346388 0.49419671 8158072
-0.13079751 0.12365498 0.49496159 8420987
-0.13006757 0.12381002 0.49558222 8421501
-0.13143033 0.12597302 0.50424016 8881796
-0.13128382 0.12670948 0.50718802 9145227
-0.13143587 0.12774645 0.51133877 7697524
-0.18554659 0.12296318 0.48866424 7237230
-0.18436567 0.12276378 0.4878718 8421504
-0.18319379 0.1225685 0.48709577 8421504
-0.18202971 0.1223766 0.48633313 8421504
-0.18086928 0.1221853 0.4855729 7105644
-0.17971247 0.1219946 0.48481503 3026478
-0.17855927 0.1218045 0.48405954 592137
-0.17740966 0.12161498 0.48330638 65793
-0.17626362 0.12142605 0.48255557 257
-0.17512113 0.1212377 0.48180708 514
-0.17398219 0.12104995 0.48106092 514
-0.17288727 0.1208911 0.48042965 0
-0.17196377 0.12085111 0.48027071 0
-0.17104086 0.12081113 0.48011187 0
-0.17011857 0.12077119 0.47995314 0
-0.16919689 0.12073129 0.47979453 1
-0.1682758 0.12069139 0.47963598 257
-0.16735534 0.12065153 0.47947758 257
-0.1664355 0.1206117 0.47931927 257
-0.16551624 0.12057188 0.47916105 257
-0.1645976 0.1205321 0.47900295 257
-0.16371606 0.12051921 0.47895175 257
-0.16285747 0.12052317 0.47896746 0
-0.16199882 0.12052712 0.47898316 0
-0.1611401 0.12053107 0.47899887 0
-0.16028135 0.12053502 0.47901458 0
-0.15942252 0.12053897 0.47903028 0
-0.15856363 0.12054293 0.47904599 0
-0.1577047 0.12054688 0.47906169 257
-0.15685461 0.12055768 0.47910461 257
-0.15604235 0.12059783 0.47926417 257
-0.15524761 0.12065205 0.47947964 257
-0.15447943 0.12072763 0.47977999 257
-0.15371028 0.12080329 0.48008069 0
-0.15294015 0.12087905 0.48038176 0
-0.15216908 0.1209549 0.48068321 0
-0.15139702 0.12103085 0.48098505 65793
-0.15062401 0.12110691 0.48128727 592138
-0.14985001 0.12118305 0.48158988 1973541
-0.14907505 0.12125929 0.48189285 5000019
-0.1482991 0.12133563 0.48219621 8487297
-0.14752217 0.12141205 0.48249996 8618883
-0.14674427 0.12148858 0.48280406 8618883
-0.14596538 0.1215652 0.48310858 8618883
-0.14518552 0.12164192 0.48341346 8684676
-0.14443424 0.12174367 0.48381782 8816262
-0.1437114 0.12187076 0.48432291 8816262
-0.14298704 0.12199812 0.48482904 8816262
-0.14226118 0.12212575 0.48533624 8816262
-0.14153379 0.12225364 0.48584449 8750469
-0.14082204 0.12239673 0.48641312 8816262
-0.14010888 0.12254038 0.48698398 8816262
-0.13937458 0.12266722 0.48748806 8882055
-0.13863824 0.12279388 0.48799142 8947848
-0.1379004 0.1229208 0.48849583 8882055
-0.13716102 0.12304799 0.48900127 8816262
-0.1364201 0.12317543 0.48950776 8487038
-0.13567767 0.12330315 0.4900153 8355450
-0.13493367 0.12343113 0.4905239 8355450
-0.13418813 0.12355937 0.49103355 8158328
-0.13357131 0.12380862 0.49202409 8026743
-0.13296102 0.1240673 0.4930521 8026743
-0.13232625 0.12430647 0.49400258 8289402
-0.13159965 0.12446205 0.49462083 8486781
-0.13087124 0.12461801 0.49524063 8421245
-0.13014099 0.12477436 0.49586198 8487037
-0.13128103 0.12673843 0.50366735 9211020
-0.13110743 0.12745287 0.50650656 9079434
-0.13127105 0.12850745 0.51069754 9013641
-0.18472053 0.12388179 0.48881084 8421504
-0.1835406 0.12368084 0.48801792 8421504
-0.18236449 0.12348054 0.48722759 8421504
-0.18120065 0.12328665 0.48646253 8158332
-0.18004122 0.12309387 0.48570189 4276545
-0.1788854 0.1229017 0.48494363 1250067
-0.17773318 0.12271013 0.48418772 263172
-0.17658454 0.12251914 0.48343414 257
-0.17543948 0.12232877 0.48268294 2828
-0.17429797 0.12213898 0.48193407 2056
-0.17315999 0.12194977 0.48118749 1542
-0.17222971 0.12190566 0.48101348 1285
-0.1713053 0.12186529 0.48085415 1285
-0.17038149 0.12182494 0.48069492 1285
-0.1694583 0.12178461 0.48053581 1285
-0.16853571 0.1217443 0.48037678 1285
-0.16761374 0.12170403 0.48021787 1285
-0.16669238 0.12166379 0.48005909 1285
-0.16577163 0.12162357 0.47990039 1286
-0.16485317 0.12158462 0.47974673 1799
-0.1639356 0.12154592 0.47959399 1542
-0.16305944 0.12153768 0.47956148 1543
-0.16219087 0.12153503 0.47955102 1543
-0.16132234 0.12153238 0.47954059 1799
-0.16045386 0.12152974 0.47953016 1542
-0.1595854 0.1215271 0.47951972 1799
-0.15871698 0.12152445 0.47950926 3084
-0.15785679 0.12152811 0.47952372 4370
-0.15700671 0.12153964 0.4795692 5912
-0.15623192 0.12160989 0.47984642 8740
-0.15546376 0.12168612 0.48014718 5912
-0.15469463 0.12176245 0.48044837 1799
-0.15392455 0.12183887 0.48074991 257
-0.15315348 0.12191538 0.4810518 0
-0.15238146 0.12199199 0.48135412 0
-0.15160847 0.1220687 0.48165679 0
-0.15083449 0.12214551 0.48195985 394759
-0.15005955 0.12222242 0.4822633 1381400
-0.14928363 0.12229942 0.48256713 3486527
-0.14850673 0.12237651 0.48287132 7829368
-0.14772885 0.1224537 0.48317593 8618883
-0.14694999 0.122531 0.4834809 8618883
-0.14617014 0.12260839 0.48378626 8618883
-0.1453893 0.12268587 0.484092 8618883
-0.1446075 0.12276346 0.48439816 8618883
-0.14385034 0.12286306 0.48479116 8750469
-0.14312543 0.12299158 0.48529828 8816262
-0.14241083 0.12313059 0.48584676 8882055
-0.14168009 0.12325729 0.48634672 8882055
-0.14094786 0.12338427 0.48684773 8947848
-0.14021413 0.12351151 0.48734978 8947848
-0.13947888 0.123639 0.48785284 8947848
-0.13874209 0.12376676 0.48835695 8947848
-0.1380038 0.12389479 0.48886213 8882055
-0.13726397 0.12402307 0.48936832 8816262
-0.13652262 0.12415163 0.48987558 8487038
-0.13577972 0.12428046 0.49038389 8355194
-0.13503528 0.12440954 0.49089324 8158072
-0.1344284 0.12466792 0.49191275 8026486
-0.13382003 0.12492833 0.49294028 8157816
-0.1331258 0.12511154 0.49366316 8420731
-0.13240071 0.12526801 0.49428055 8486781
-0.1316738 0.12542486 0.49489948 8486781
-0.13094506 0.12558211 0.49551997 8486781
-0.1302145 0.12573977 0.49614203 8881797
-0.13113207 0.12750211 0.50309587 9276813
-0.1309315 0.12819426 0.50582689 9079434
-0.13110663 0.12926653 0.51005787 9013641
-0.18389398 0.12480095 0.48895752 8421504
-0.18271503 0.12459844 0.48816413 8421504
-0.18153992 0.1243966 0.48737332 8421504
-0.18037117 0.12419718 0.48659199 5526612
-0.1792127 0.12400293 0.48583093 2171169
-0.17805786 0.12380928 0.48507226 460551
-0.17690665 0.12361624 0.48431596 0
-0.17575899 0.1234238 0.48356199 3599
-0.17461489 0.12323196 0.48281038 17223
-0.17347437 0.12304072 0.48206112 20564
-0.17249648 0.12296349 0.48175853 20051
-0.17157054 0.1229227 0.48159871 20564
-0.17064522 0.12288193 0.48143899 20822
-0.16972052 0.12284119 0.48127937 21079
-0.16879642 0.12280048 0.48111987 21593
-0.16787292 0.12275979 0.48096046 21850
-0.16695024 0.12271927 0.4808017 22107
-0.16602997 0.12268011 0.48064831 22878
-0.1651103 0.12264099 0.48049501 23649
-0.16419122 0.12260188 0.48034179 24677
-0.16327615 0.12256539 0.48019883 25705
-0.16240643 0.12256272 0.48018837 27249
-0.16153675 0.12256005 0.48017791 28533
-0.16066709 0.12255737 0.48016742 29561
-0.15979747 0.1225547 0.48015696 28534
-0.1589279 0.12255204 0.4801465 27762
-0.15805838 0.12254936 0.48013604 26734
-0.15722156 0.12257218 0.48022541 24935
-0.15641244 0.12261695 0.48040086 24421
-0.15563519 0.12268735 0.48067665 15680
-0.15486632 0.12276518 0.48098156 2828
-0.15409647 0.12284311 0.48128688 0
-0.15332565 0.12292112 0.48159257 0
-0.15255384 0.12299926 0.48189867 0
-0.15178105 0.12307747 0.48220512 0
-0.15100729 0.1231558 0.482512 197379
-0.15023254 0.12323423 0.48281926 855310
-0.1494568 0.12331275 0.48312691 2762804
-0.14868006 0.12339137 0.48343495 6842220
-0.14790234 0.1234701 0.48374337 8750469
-0.14712362 0.12354892 0.48405218 8750469
-0.14634392 0.12362784 0.48436141 8750469
-0.14556322 0.12370687 0.48467103 8750469
-0.14478156 0.12378605 0.48498124 8684676
-0.14401366 0.12387802 0.48534155 8684676
-0.14324668 0.1239719 0.4857094 8816262
-0.14251703 0.12409945 0.48620909 8947848
-0.14178586 0.12422725 0.4867098 8947848
-0.1410532 0.12435531 0.48721156 8947848
-0.14031902 0.12448364 0.48771435 8947848
-0.13958332 0.12461224 0.48821819 8947848
-0.13884611 0.12474111 0.48872307 8947848
-0.13810736 0.12487023 0.48922896 8882055
-0.13736708 0.12499963 0.48973593 8816262
-0.13662528 0.1251293 0.49024397 8487038
-0.13588902 0.12526578 0.49077868 8223864
-0.13528511 0.12552683 0.49180147 8026486
-0.13464604 0.12575853 0.49270919 8289659
-0.13392425 0.1259155 0.49332419 8486781
-0.13320066 0.12607285 0.49394074 8486781
-0.13247524 0.12623061 0.49455881 8486781
-0.13174802 0.12638877 0.49517846 8486781
-0.13101897 0.12654734 0.49579966 8486781
-0.13135959 0.12774834 0.50050509 8881797
-0.13098346 0.12826407 0.50252569 9276813
-0.13075605 0.12893367 0.50514907 9145227
-0.13094261 0.13002372 0.5094198 9013641
-0.1307313 0.1307313 0.51219201 8158332
-0.18424873 0.12592539 0.48990077 7237230
-0.18306693 0.12572066 0.4891043 8421504
-0.18188897 0.12551661 0.48831043 8421504
-0.18071485 0.12531321 0.48751915 8092539
-0.17954449 0.12511046 0.4867304 3289650
-0.17838375 0.12491246 0.48596004 657930
-0.17722991 0.12471734 0.48520097 65793
-0.17607966 0.12452284 0.48444426 257
-0.17493299 0.12432893 0.4836899 3599
-0.17378989 0.12413564 0.4829379 11054
-0.17276408 0.12402459 0.48250589 15166
-0.17183661 0.12398338 0.48234558 14909
-0.17090978 0.1239422 0.48218536 14652
-0.16998355 0.12390105 0.48202527 14395
-0.16905792 0.12385992 0.48186526 14138
-0.16813359 0.12381931 0.48170727 13624
-0.16721122 0.12377973 0.48155329 12853
-0.16628942 0.12374017 0.48139939 12339
-0.16536823 0.12370064 0.48124561 11568
-0.16444762 0.12366114 0.48109192 11053
-0.16352759 0.12362166 0.48093832 10283
-0.16262256 0.12359314 0.48082739 9769
-0.16175172 0.12359045 0.4808169 8997
-0.16088089 0.12358775 0.48080641 8483
-0.16001013 0.12358505 0.48079592 8225
-0.15913939 0.12358236 0.48078543 7712
-0.15826869 0.12357967 0.48077494 7454
-0.15745778 0.12362388 0.48094696 6684
-0.15664753 0.12366911 0.48112291 5912
-0.1558367 0.12371437 0.48129901 4627
-0.15502526 0.12375966 0.4814752 771
-0.15424788 0.1238328 0.48175976 257
-0.15347639 0.12391153 0.48206604 0
-0.15270393 0.12399036 0.48237273 0
-0.15193047 0.1240693 0.48267981 0
-0.15115604 0.12414833 0.48298728 65793
-0.15038061 0.12422746 0.48329514 657931
-0.1496042 0.12430669 0.48360339 2302507
-0.14882679 0.12438603 0.48391205 5855327
-0.1480484 0.12446547 0.48422107 8750469
-0.14726901 0.12454501 0.48453051 8750469
-0.14649519 0.12463024 0.48486212 8684676
-0.14572904 0.12472305 0.48522317 8684676
-0.14496143 0.12481573 0.48558375 8684676
-0.14419219 0.12490813 0.4859432 8684676
-0.1434218 0.12500066 0.48630318 8684676
-0.14265029 0.12509333 0.48666373 8684676
-0.14189181 0.12519865 0.48707345 8816262
-0.1411587 0.12532781 0.48757595 8947848
-0.14042407 0.12545724 0.48807949 8947848
-0.13968794 0.12558694 0.48858407 8947848
-0.13895027 0.12571691 0.4890897 8947848
-0.13821107 0.12584715 0.48959637 8882055
-0.13747035 0.12597765 0.49010411 8816261
-0.13674343 0.12612258 0.49066791 8421244
-0.13614142 0.12638536 0.49169022 8223867
-0.13544191 0.12656048 0.49237153 8421244
-0.13472161 0.12671834 0.4929857 8486780
-0.1339995 0.12687661 0.49360138 8486781
-0.13327558 0.12703526 0.49421862 8486781
-0.13254987 0.12719432 0.4948374 8421245
-0.13182232 0.12735377 0.49545774 8421501
-0.13109295 0.12751362 0.49607962 8487037
-0.13121149 0.12850609 0.49994075 9276813
-0.13083516 0.1290243 0.50195676 9276813
-0.13058107 0.1296711 0.50447309 9145227
-0.130779 0.130779 0.50878328 9145227
-0.13035239 0.13127361 0.5107075 9605778
-0.1834202 0.12684722 0.49004811 8421504
-0.18223938 0.12664093 0.48925117 8421504
-0.18106242 0.12643531 0.48845682 8421504
-0.17988928 0.12623037 0.48766506 7105644
-0.17871992 0.12602608 0.48687583 2236962
-0.17755437 0.12582247 0.48608923 328965
-0.17640151 0.12562588 0.48532975 0
-0.17525224 0.12542991 0.48457265 257
-0.17410657 0.12523454 0.48381791 1028
-0.17303251 0.12508899 0.48325557 3084
-0.17210351 0.12504737 0.48309475 2571
-0.17117515 0.12500577 0.48293406 2571
-0.17024739 0.1249642 0.48277345 2570
-0.16932139 0.1249235 0.48261622 2314
-0.16839691 0.12488349 0.48246166 2057
-0.167473 0.12484351 0.4823072 1799
-0.16654968 0.12480355 0.48215282 1542
-0.16562696 0.12476361 0.48199853 1285
-0.16470483 0.1247237 0.48184437 1028
-0.16378328 0.12468382 0.48169029 771
-0.16286233 0.12464397 0.48153633 514
-0.16196725 0.1246236 0.48145762 258
-0.16109526 0.12462087 0.48144707 257
-0.16022334 0.12461814 0.48143655 257
-0.15935142 0.12461542 0.48142603 257
-0.1585055 0.1246331 0.48149431 514
-0.15769471 0.12467874 0.48167065 514
-0.15688333 0.12472443 0.48184714 257
-0.15607136 0.12477014 0.48202378 257
-0.15525879 0.12481589 0.4822005 257
-0.15444562 0.12486167 0.48237738 0
-0.15363187 0.1249075 0.48255441 0
-0.15285429 0.12498343 0.48284775 0
-0.15208018 0.12506308 0.48315543 0
-0.15130508 0.12514281 0.4834635 0
-0.15052897 0.12522265 0.48377195 526344
-0.14975189 0.1253026 0.48408082 1907747
-0.14897382 0.12538266 0.48439008 4868178
-0.14820798 0.12547402 0.48474303 8553090
-0.14744329 0.12556744 0.48510394 8684676
-0.14667745 0.12566099 0.48546535 8684676
-0.14591014 0.12575439 0.48582619 8684676
-0.14514121 0.12584752 0.486186 8684676
-0.14437117 0.1259408 0.48654637 8684676
-0.14359996 0.12603422 0.48690724 8684676
-0.14282762 0.12612776 0.48726866 8684676
-0.14205413 0.12622146 0.48763064 8684676
-0.14127947 0.1263153 0.48799312 8816262
-0.14052927 0.1264323 0.48844516 8947848
-0.1397927 0.1265631 0.48895052 8947848
-0.1390546 0.12669419 0.48945689 8947848
-0.13831495 0.12682553 0.48996434 8882055
-0.13759744 0.12697898 0.49055716 8750469
-0.13695373 0.12720299 0.49142253 8684675
-0.1362367 0.12736134 0.49203435 8421244
-0.13551788 0.1275201 0.49264765 8421244
-0.13479726 0.12767924 0.4932625 8486780
-0.13407484 0.12783881 0.4938789 8486781
-0.13335061 0.12799875 0.49449682 8486781
-0.13262458 0.12815911 0.49511632 8487036
-0.13189672 0.12831986 0.49573734 8487037
-0.13116702 0.12848102 0.49635994 8881797
-0.13106371 0.12926215 0.4993777 9276813
-0.13068721 0.1297828 0.50138915 9276813
-0.13040654 0.13040654 0.50379884 9145227
-0.13061582 0.13153242 0.50814843 9276813
-0.12997566 0.13181277 0.50923151 9605778
-0.12931423 0.1320754 0.5102461 8158332
-0.18374272 0.12795578 0.49090981 8421504
-0.18257202 0.12775621 0.49014419 8421504
-0.18140498 0.12755728 0.48938096 8421504
-0.18023537 0.12735458 0.48860329 8421504
-0.17906322 0.12714808 0.48781106 5329233
-0.17789485 0.12694225 0.48702136 1184274
-0.17673026 0.12673709 0.48623425 131586
-0.17557266 0.12653491 0.48545861 0
-0.17442439 0.12633747 0.4847011 257
-0.17330177 0.1261567 0.4840076 257
-0.17237125 0.12611467 0.48384628 257
-0.17144135 0.12607265 0.48368508 257
-0.17051369 0.12603186 0.48352861 257
-0.16958706 0.12599142 0.48337346 257
-0.16866104 0.12595101 0.48321843 257
-0.16773559 0.12591062 0.48306346 257
-0.16681075 0.12587026 0.48290861 257
-0.16588649 0.12582992 0.48275384 257
-0.16496284 0.12578961 0.4825992 257
-0.16403978 0.12574932 0.48244464 257
-0.16311729 0.12570906 0.48229018 257
-0.16219541 0.12566884 0.48213583 257
-0.16131021 0.12565674 0.48208946 0
-0.16043712 0.125654 0.48207894 0
-0.15956405 0.12565126 0.48206839 0
-0.15874429 0.12569068 0.48221967 0
-0.15793237 0.12573679 0.48239654 0
-0.15711986 0.12578292 0.48257357 0
-0.15630674 0.1258291 0.48275071 0
-0.15549304 0.12587531 0.48292801 0
-0.15467873 0.12592156 0.48310542 0
-0.15386382 0.12596783 0.48328295 0
-0.15304832 0.12601414 0.48346063 0
-0.15223221 0.12606049 0.48363844 0
-0.1514544 0.12613925 0.48394066 0
-0.15068203 0.12622349 0.48426384 394759
-0.14991994 0.12631738 0.48462403 1447193
-0.1491567 0.12641139 0.48498473 3486528
-0.14839233 0.12650555 0.48534599 7829112
-0.14762683 0.12659986 0.48570779 8684676
-0.14685981 0.12669398 0.48606887 8684676
-0.14609121 0.12678787 0.48642907 8684676
-0.14532146 0.12688188 0.48678976 8684676
-0.14455058 0.12697604 0.48715103 8684676
-0.14377855 0.12707034 0.4875128 8684676
-0.14300537 0.12716478 0.48787513 8684676
-0.14223105 0.12725936 0.48823798 8684676
-0.14145558 0.12735409 0.48860139 8684676
-0.14067894 0.12744895 0.48896533 8684676
-0.13990115 0.12754394 0.48932981 8816262
-0.13915907 0.12767293 0.48982465 8947848
-0.13845107 0.12783501 0.49044651 8947848
-0.13774596 0.12800187 0.49108666 9013641
-0.13703039 0.12816112 0.49169761 8684417
-0.13631305 0.12832075 0.49231008 8421244
-0.13559392 0.12848079 0.49292409 8420987
-0.13487299 0.12864123 0.49353963 8420987
-0.13415027 0.12880208 0.49415672 8420988
-0.13342573 0.12896332 0.49477535 8420987
-0.13269937 0.12912498 0.49539554 8420987
-0.13197118 0.12928702 0.49601725 8420988
-0.13128991 0.12949756 0.49682498 8553088
-0.13091627 0.13001649 0.49881589 9276813
-0.1305396 0.1305396 0.50082278 9276813
-0.1302325 0.13114004 0.50312644 9145227
-0.13025875 0.13208695 0.50675929 9342606
-0.12960111 0.13234884 0.50776404 9605778
-0.12894085 0.13261177 0.50877279 9605778
-0.18591036 0.13036124 0.49670115 7237230
-0.18287106 0.12885103 0.49094698 8421504
-0.18170162 0.12865005 0.49018121 8421504
-0.18053584 0.12844971 0.48941785 8421504
-0.17937368 0.12824997 0.48865685 7895160
-0.17821513 0.12805088 0.48789823 2960685
-0.17706019 0.1278524 0.48714197 592137
-0.17590567 0.12765224 0.48637938 0
-0.17474583 0.1274462 0.48559433 0
-0.1735961 0.1272455 0.4848296 0
-0.17263988 0.12718533 0.48460031 0
-0.17171051 0.12714443 0.48444447 0
-0.17078175 0.12710355 0.48428875 0
-0.16985358 0.12706271 0.48413309 0
-0.168926 0.12702188 0.48397756 0
-0.16799903 0.12698108 0.48382211 0
-0.16707265 0.12694031 0.48366678 0
-0.16614686 0.12689957 0.48351154 0
-0.16522166 0.12685885 0.48335639 0
-0.16429707 0.12681817 0.48320135 0
-0.16337307 0.1267775 0.48304641 0
-0.16244964 0.12673685 0.48289156 0
-0.16152683 0.12669624 0.48273683 0
-0.16065146 0.12669262 0.482723 0
-0.15979625 0.12670493 0.48276991 0
-0.15898378 0.12675145 0.4829472 0
-0.15817073 0.12679802 0.48312461 0
-0.15735708 0.12684463 0.48330218 0
-0.15654282 0.12689126 0.48347986 0
-0.15572798 0.12693793 0.48365769 0
-0.15491253 0.12698463 0.48383564 0
-0.15409335 0.12702881 0.48400393 0
-0.15327081 0.12707067 0.48416346 0
-0.15244772 0.12711257 0.48432308 0
-0.15163104 0.12716033 0.48450506 0
-0.15086928 0.12725495 0.48486561 263172
-0.15010636 0.12734972 0.48522666 921103
-0.14934233 0.12744462 0.48558828 2697010
-0.14857714 0.12753966 0.48595044 6513255
-0.14781041 0.12763451 0.48631179 8684676
-0.14704214 0.12772913 0.48667234 8684676
-0.14627272 0.1278239 0.48703343 8684676
-0.14550215 0.12791881 0.48739502 8684676
-0.14473045 0.12801385 0.48775718 8684676
-0.14395759 0.12810905 0.48811987 8684676
-0.14318359 0.12820438 0.4884831 8684676
-0.14240843 0.12829985 0.48884687 8684676
-0.14163211 0.12839547 0.48921117 8684676
-0.14085463 0.12849122 0.48957601 8684676
-0.14007303 0.1285844 0.48993105 8750469
-0.1392834 0.12867133 0.4902623 8750469
-0.13855788 0.12881899 0.49082488 8882055
-0.13784641 0.12898169 0.49144483 8816005
-0.13713315 0.12914482 0.49206635 8552832
-0.13641809 0.12930836 0.49268946 8289658
-0.13570121 0.1294723 0.49331412 8355194
-0.13498251 0.12963666 0.49394038 8289658
-0.13426198 0.12980145 0.49456823 8289658
-0.13353962 0.12996665 0.49519768 8223865
-0.13282116 0.13013791 0.49585021 8158073
-0.13212052 0.13032906 0.49657851 8158073
-0.13141781 0.13052076 0.49730894 8158073
-0.13076915 0.13076915 0.49825534 8684675
-0.13039231 0.13129468 0.50025773 9276813
-0.13005891 0.13187158 0.50245583 9145227
-0.12988521 0.13261963 0.50530607 9605778
-0.12922871 0.13288182 0.50630504 9605778
-0.1285696 0.13314503 0.50730795 9605778
-0.1279079 0.13340932 0.50831491 8158332
-0.18317106 0.12994944 0.49175239 8421504
-0.18199925 0.12974642 0.49098411 8421504
-0.18083109 0.12954403 0.49021825 8421504
-0.17966658 0.12934229 0.48945478 8289918
-0.17850569 0.12914115 0.48869365 4408131
-0.17734841 0.12894064 0.48793492 789516
-0.1761947 0.12874077 0.48717853 65793
-0.17504518 0.12854195 0.48642617 0
-0.17391935 0.12835862 0.48573241 0
-0.17289905 0.1282517 0.48532781 0
-0.17197017 0.12821187 0.48517707 0
-0.17104188 0.12817204 0.48502639 0
-0.17011416 0.12813225 0.48487583 0
-0.16918701 0.1280925 0.48472536 0
-0.16826044 0.12805276 0.48457497 0
-0.16733447 0.12801304 0.48442471 0
-0.16640803 0.12797259 0.48427159 0
-0.1654813 0.12793146 0.48411596 0
-0.16455516 0.12789035 0.48396042 0
-0.16362964 0.12784928 0.483805 0
-0.16270468 0.12780824 0.48364967 0
-0.16178033 0.12776722 0.48349443 0
-0.16086639 0.12773402 0.48336881 0
-0.16003761 0.12776844 0.48349911 0
-0.15922402 0.12781544 0.48367694 0
-0.15840434 0.12785804 0.48383814 0
-0.15758348 0.12790017 0.48399755 0
-0.15676209 0.12794232 0.48415709 0
-0.15594016 0.12798451 0.48431671 0
-0.15511769 0.12802671 0.48447642 0
-0.15429468 0.12806895 0.48463628 0
-0.15347111 0.12811121 0.4847962 0
-0.15264702 0.12815352 0.48495626 0
-0.15182236 0.12819582 0.48511639 0
-0.15105698 0.12828897 0.48546886 65793
-0.15029326 0.12838463 0.48583084 657930
-0.14952841 0.12848042 0.48619336 2105127
-0.14876197 0.12857598 0.48655498 5197398
-0.14799403 0.12867136 0.48691589 8618883
-0.14722492 0.12876686 0.4872773 8684676
-0.14645468 0.12886252 0.48763928 8684676
-0.14568329 0.12895831 0.48800179 8684676
-0.14491075 0.12905426 0.48836485 8684676
-0.14413707 0.12915035 0.48872843 8684676
-0.14336222 0.12924656 0.48909256 8684676
-0.14257652 0.12933411 0.48942387 8750469
-0.14178939 0.12942147 0.48975444 8750469
-0.14100121 0.12950896 0.49008548 8750469
-0.14021195 0.12959655 0.49041694 8750469
-0.13942164 0.12968425 0.49074885 8750469
-0.13868262 0.12982111 0.49126676 8882055
-0.13797067 0.12998523 0.49188781 8816262
-0.13725692 0.13014977 0.49251047 8618882
-0.13654137 0.13031472 0.49313468 8355451
-0.13582399 0.1304801 0.4937605 8289658
-0.13510481 0.1306459 0.49438789 8223865
-0.13439134 0.13081948 0.49504477 8158072
-0.13369414 0.13101131 0.49577069 8158072
-0.13299489 0.13120371 0.49649876 8092536
-0.13229358 0.13139668 0.49722898 8092536
-0.1315902 0.1315902 0.49796131 8158072
-0.13088475 0.1317843 0.49869585 8158072
-0.13024536 0.13204807 0.49969396 8684675
-0.12988579 0.13260117 0.50178701 9145227
-0.12951379 0.13314925 0.50386107 9605778
-0.12885845 0.13341175 0.50485438 9605778
-0.1282005 0.13367526 0.50585157 9605778
-0.12753996 0.13393982 0.50685269 9605778
-0.18419829 0.13157021 0.49451014 8355711
-0.18229784 0.13084638 0.49178964 8421504
-0.18112731 0.13064195 0.49102128 8421504
-0.17996041 0.13043815 0.49025527 8421504
-0.17879996 0.13023701 0.4894993 5987163
-0.17766164 0.13005009 0.48879674 1710618
-0.17652658 0.12986369 0.48809618 263172
-0.17539476 0.12967783 0.48739761 257
-0.17426619 0.12949251 0.48670107 514
-0.17314082 0.1293077 0.4860065 258
-0.17220661 0.1292645 0.48584411 514
-0.17127696 0.1292243 0.48569301 515
-0.17034788 0.12918413 0.48554203 771
-0.16941939 0.12914398 0.48539114 1286
-0.1684915 0.12910387 0.48524037 2057
-0.16756415 0.12906377 0.48508966 2828
-0.16663739 0.1290237 0.48493907 3599
-0.16571121 0.12898366 0.48478854 4370
-0.16478559 0.12894364 0.48463812 5141
-0.16386056 0.12890364 0.4844878 5656
-0.16293609 0.12886368 0.48433757 6427
-0.16201632 0.12882699 0.4841997 7198
-0.16110487 0.12879658 0.48408541 7712
-0.16026345 0.12882212 0.4841814 9254
-0.1594374 0.12886037 0.48432517 11053
-0.15861121 0.12889892 0.48447004 12852
-0.15778935 0.12894145 0.48462987 14652
-0.15696697 0.128984 0.48478982 16451
-0.15614402 0.12902658 0.48494986 10539
-0.15532054 0.12906918 0.48510998 2056
-0.15449652 0.12911183 0.48527026 0
-0.15367195 0.12915449 0.4854306 0
-0.15284684 0.12919718 0.48559108 0
-0.15202118 0.1292399 0.48575166 0
-0.15124515 0.12932557 0.48607361 0
-0.15048063 0.12942211 0.48643649 460551
-0.1497145 0.1295184 0.48679841 1578780
-0.14894685 0.12961452 0.48715964 4012870
-0.14817807 0.12971078 0.48752144 8487041
-0.14740816 0.12980717 0.48788378 8684676
-0.14663708 0.12990373 0.48824665 8684676
-0.14585838 0.12999463 0.4885883 8750469
-0.14507481 0.13008228 0.48891774 8750469
-0.14429019 0.13017005 0.48924762 8750469
-0.14350452 0.13025795 0.48957798 8750469
-0.14271776 0.13034596 0.48990875 8750469
-0.14192995 0.13043408 0.49023998 8750469
-0.14114109 0.13052233 0.49057168 8750469
-0.14035115 0.13061069 0.49090379 8750469
-0.13956015 0.13069919 0.49123639 8750469
-0.13880758 0.13082504 0.49170941 8882055
-0.13809516 0.13099058 0.49233162 8816262
-0.13738091 0.13115655 0.49295539 8684676
-0.13666487 0.13132292 0.49358073 8420988
-0.13595642 0.13149884 0.49424192 8158073
-0.13526264 0.13169135 0.49496549 8158072
-0.13456683 0.13188444 0.49569121 8158072
-0.13386898 0.13207808 0.49641904 8158072
-0.13316907 0.1322723 0.49714902 8158072
-0.13246709 0.13246709 0.49788114 8158072
-0.13176306 0.13266246 0.49861541 8158072
-0.13105693 0.1328584 0.49935186 8158072
-0.13034871 0.13305491 0.50009048 8158073
-0.12971854 0.1333344 0.50114089 8947847
-0.12914449 0.13367587 0.50242436 9408399
-0.12857296 0.13402481 0.50373584 9013641
-0.12803893 0.1344181 0.50521404 9013641
-0.12750179 0.13481373 0.50670099 8947848
-0.12707448 0.13533202 0.50864905 6381921
-0.18461438 0.13276143 0.49562722 8355711
-0.18260249 0.13195363 0.4926115 8092539
-0.18145144 0.13176303 0.49189997 8421504
-0.18030372 0.13157299 0.49119049 8421504
-0.17915931 0.13138349 0.49048308 7566195
-0.17801818 0.13119455 0.48977768 2697513
-0.17688033 0.13100612 0.48907429 460551
-0.17574574 0.13081826 0.48837295 0
-0.17461441 0.13063094 0.48767361 1285
-0.17348631 0.13044414 0.48697627 18508
-0.17244369 0.13032003 0.48651296 23649
-0.17151269 0.13027945 0.48636147 24420
-0.17058226 0.13023891 0.48621008 24163
-0.16965243 0.13019837 0.48605877 23906
-0.16872317 0.13015787 0.48590758 23649
-0.16779448 0.13011739 0.48575646 23392
-0.16686638 0.13007694 0.48560545 23135
-0.16593885 0.13003652 0.48545453 22878
-0.1650119 0.12999612 0.4853037 22621
-0.16409315 0.12996177 0.48517549 22364
-0.16317938 0.12993103 0.48506075 22107
-0.16226606 0.12990032 0.48494607 21850
-0.16135316 0.12986961 0.48483145 21593
-0.16049689 0.12988441 0.48488668 21593
-0.15966973 0.12992305 0.48503089 20822
-0.15884206 0.12996168 0.48517516 20307
-0.15801391 0.13000037 0.48531955 19536
-0.15718526 0.13003905 0.48546401 18508
-0.15635613 0.13007778 0.48560858 14138
-0.15552649 0.13011652 0.48575321 2571
-0.15469889 0.13015743 0.48590592 0
-0.15387331 0.13020049 0.48606667 0
-0.15304717 0.13024358 0.48622757 0
-0.1522205 0.13028671 0.48638856 0
-0.1514338 0.13036475 0.48667988 0
-0.15066795 0.13046175 0.48704204 263172
-0.14990065 0.13055862 0.48740366 1118226
-0.14912905 0.13065289 0.48775557 2960184
-0.14834903 0.13074084 0.4880839 7302770
-0.14756794 0.1308289 0.48841265 8750469
-0.14678583 0.13091709 0.48874187 8750469
-0.14600264 0.13100539 0.48907152 8750469
-0.14521839 0.1310938 0.48940161 8750469
-0.1444331 0.13118236 0.48973218 8750469
-0.14364673 0.131271 0.49006316 8750469
-0.1428593 0.13135979 0.49039459 8750469
-0.14207081 0.1314487 0.4907265 8750469
-0.14128125 0.13153772 0.49105883 8750469
-0.14049062 0.13162686 0.49139163 8750469
-0.13969892 0.13171612 0.49172485 8750469
-0.13893278 0.13183078 0.4921529 8816262
-0.13821986 0.13199775 0.49277622 8750469
-0.13751645 0.13217601 0.4934417 8618883
-0.13682607 0.13236919 0.49416292 8487039
-0.13613367 0.13256297 0.49488628 8355452
-0.13543925 0.13275729 0.49561176 8223609
-0.13474278 0.13295218 0.49633935 8158072
-0.13404427 0.13314766 0.49706909 8223865
-0.13333718 0.13333718 0.49777663 8289401
-0.13262768 0.13352685 0.4984847 8289401
-0.13191617 0.13371706 0.4991948 8289401
-0.13120259 0.13390781 0.4999069 8355195
-0.13048673 0.13409881 0.50061995 8420731
-0.12979883 0.13432144 0.50145108 8618624
-0.12927082 0.1347138 0.50291586 8816262
-0.12873973 0.13510849 0.50438929 8816262
-0.12820551 0.13550547 0.5058713 8882055
-0.12760229 0.13583469 0.5071004 9079434
-0.1273642 0.13656019 0.50980878 7500402
-0.18526839 0.13412893 0.497383 7105644
-0.18403566 0.13388482 0.49647778 8092539
-0.18252125 0.13343242 0.49480015 7829367
-0.18100688 0.13297556 0.49310607 7434609
-0.17952009 0.13253458 0.49147078 6974058
-0.17837615 0.13234361 0.49076256 4079166
-0.17723551 0.13215315 0.49005637 723723
-0.17609814 0.13196327 0.4893522 65793
-0.17496403 0.13177392 0.48865002 771
-0.17383318 0.13158511 0.48794991 6426
