# .PCD v0.7 - Point Cloud Data file format
VERSION 0.7
FIELDS x y z rgb
SIZE 4 4 4 4
TYPE F F F U
COUNT 1 1 1 1
WIDTH 1112
HEIGHT 1
VIEWPOINT 0 0 0 1 0 0 0
POINTS 1112
DATA ascii
-0.010230797 0.029934555 0.42013165 720966
-0.0094755935 0.029942876 0.42024842 720966
-0.0087199686 0.029951194 0.42036518 720966
-0.0079639005 0.029959435 0.42048082 720966
-0.0072074165 0.029967679 0.42059654 720966
-0.0064505162 0.029975928 0.42071232 720966
-0.0056931991 0.029984182 0.42082816 720966
-0.0049354648 0.029992441 0.42094406 720966
-0.0041773128 0.030000703 0.42106003 720966
-0.0034187434 0.03000897 0.42117605 720966
-0.0026597555 0.030017242 0.42129216 720966
-0.0019003492 0.030025518 0.4214083 720966
-0.0011405241 0.030033799 0.42152452 852551
-0.00038027955 0.030042084 0.42164081 1839695
0.00038038447 0.030050375 0.42175716 6183793
0.0011414685 0.030058671 0.4218736 8618883
0.0019032554 0.030071434 0.42205274 8750469
0.002666082 0.030088641 0.42229423 8750469
0.0034300338 0.030108074 0.42256698 8618883
0.0041957069 0.030132804 0.42291406 8553090
0.0049626385 0.030157574 0.4232617 8553090
0.0057308325 0.030182386 0.42360994 8553090
0.0065002916 0.030207237 0.42395875 8553090
0.0072710188 0.030232131 0.42430812 8553090
0.0080430172 0.030257065 0.42465806 8553090
0.0088162897 0.030282039 0.42500859 8553090
0.0095908409 0.030307056 0.4253597 8553090
0.010366672 0.030332115 0.42571139 8553090
0.011143787 0.030357214 0.42606366 8553090
0.01192219 0.030382356 0.42641652 8553090
0.012701882 0.030407537 0.42676994 8487297
0.01348287 0.030432763 0.42712399 8355454
0.014265153 0.030458027 0.42747858 8026487
0.015048736 0.030483337 0.4278338 7960693
0.015833622 0.030508686 0.42818958 7895158
0.016619816 0.030534081 0.42854598 7960694
0.017407319 0.030559516 0.42890295 8223609
0.018198241 0.030588532 0.4293102 8289402
0.01900107 0.030634379 0.42995366 9211020
0.019803567 0.030676113 0.43053943 9211020
0.020608256 0.030717965 0.4311268 9211020
0.02141514 0.030759929 0.43171576 9211020
0.022224233 0.030802006 0.43230632 7829367
-0.042986549 0.031368565 0.42938739 4418160
-0.042117186 0.031298093 0.42842275 8421504
-0.041251719 0.031227937 0.42746243 8421504
-0.040390123 0.031158095 0.4265064 8421504
-0.039578397 0.031124759 0.4260501 8421504
-0.038785812 0.031105453 0.42578581 8421504
-0.037994206 0.031086167 0.42552182 8421504
-0.03720358 0.031066906 0.42525816 8421504
-0.036413934 0.03104767 0.42499486 8421504
-0.035622604 0.03102614 0.42470014 8421504
-0.03483082 0.031003255 0.42438689 7894908
-0.034040198 0.030980404 0.42407408 4801636
-0.033250742 0.030957587 0.42376176 1971534
-0.032462448 0.030934805 0.4234499 655428
-0.031675313 0.030912053 0.42313847 655428
-0.030888263 0.030888263 0.42281282 720964
-0.030100428 0.030862464 0.42245966 720964
-0.029313907 0.030836707 0.4221071 720964
-0.028522216 0.030803993 0.42165929 655428
-0.027753018 0.030794444 0.42152858 655428
-0.026986921 0.030787895 0.42143893 655428
-0.026221149 0.030781347 0.42134932 655428
-0.025455702 0.030774804 0.42125973 655428
-0.02469058 0.03076826 0.42117018 655428
-0.023925738 0.030761665 0.42107987 655428
-0.023160903 0.030754641 0.42098373 655428
-0.022396101 0.030747188 0.42088172 655428
-0.02162624 0.030732024 0.42067415 720965
-0.020857137 0.030716876 0.42046678 720965
-0.020092499 0.030707402 0.42033711 720965
-0.019331956 0.030703694 0.42028636 720965
-0.018571597 0.030699987 0.4202356 720965
-0.017811423 0.03069628 0.42018488 720965
-0.01705143 0.030692575 0.42013416 720965
-0.016291622 0.030688871 0.42008343 720965
-0.015531998 0.030685166 0.42003274 720965
-0.014772558 0.030681465 0.41998208 720965
-0.014013299 0.030677762 0.41993138 720965
-0.013255393 0.030676767 0.41991776 720966
-0.01249787 0.03067659 0.41991535 720966
-0.011740357 0.030676417 0.41991296 720966
-0.010983597 0.030678323 0.41993904 720966
-0.010228949 0.030686846 0.42005572 720966
-0.009473877 0.03069536 0.42017227 720966
-0.008718363 0.030703802 0.42028782 720966
-0.0079624346 0.030712247 0.42040342 720966
-0.0072060893 0.030720696 0.42051908 720966
-0.0064493278 0.03072915 0.42063481 720966
-0.00569215 0.030737611 0.42075062 720966
-0.0049345549 0.030746073 0.42086646 720966
-0.0041765426 0.030754542 0.42098239 720966
-0.0034181129 0.030763017 0.42109838 720966
-0.002659265 0.030771494 0.42121443 720966
-0.0018999985 0.030779976 0.42133054 720966
-0.0011403136 0.030788466 0.42144674 720966
-0.00038020933 0.030796956 0.42156297 1115977
0.00038031425 0.030805454 0.42167929 3221849
0.0011412576 0.030813957 0.42179567 8026494
0.001902621 0.03082246 0.42191207 8684676
0.0026654573 0.030843148 0.42219526 8684676
0.0034298289 0.030868459 0.42254174 8618883
0.0041954559 0.030893814 0.42288879 8618883
0.0049623419 0.030919207 0.4232364 8684676
0.0057304897 0.030944644 0.42358458 8684676
0.006499887 0.03097005 0.42393234 8684676
0.0072704265 0.030994976 0.42427355 8684676
0.008042207 0.031019941 0.42461529 8684676
0.0088152327 0.031044949 0.4249576 8750469
0.0095895045 0.031069996 0.42530045 8750469
0.010365028 0.031095082 0.42564386 8750469
0.011141804 0.031120213 0.42598784 8750469
0.011919837 0.031145381 0.42633235 8750469
0.012699129 0.03117059 0.42667744 8750469
0.013479684 0.031195842 0.42702308 8684676
0.014261505 0.031221131 0.42736927 8487296
0.015044594 0.031246465 0.42771605 8223866
0.015828954 0.031271838 0.42806336 8224122
0.01661459 0.031297252 0.42841125 8224122
0.017401503 0.031322706 0.42875969 8289658
0.018190106 0.031348906 0.42911834 8223865
0.018981924 0.031378284 0.42952043 8223608
0.019775225 0.03140771 0.42992327 8684418
0.020577326 0.031448364 0.43047976 9211020
0.021382956 0.031491265 0.43106696 9211020
0.022190787 0.031534277 0.43165573 7829367
-0.042162232 0.032105185 0.42888096 4418160
-0.041295741 0.032033145 0.42791858 8421504
-0.040433127 0.031961426 0.42696053 8421504
-0.039597224 0.031908441 0.42625275 8421504
-0.038804248 0.031888638 0.4259882 8421504
-0.038012255 0.03186886 0.42572397 8421504
-0.037221242 0.031849105 0.42546007 8421504
-0.036429476 0.03182786 0.42517626 8421504
-0.035636205 0.031804357 0.4248623 8421504
-0.034844108 0.031780887 0.4245488 8224126
-0.034053177 0.031757459 0.42423579 5130598
-0.033263411 0.03173406 0.42392322 1576778
-0.032473106 0.031709034 0.4235889 787013
-0.031682499 0.031682499 0.42323446 720964
-0.030893214 0.031656008 0.42288059 720964
-0.03010525 0.031629566 0.42252734 720964
-0.02931311 0.031597249 0.42209563 720965
-0.028526414 0.031569231 0.42172137 655428
-0.027759803 0.031562515 0.42163163 655428
-0.026993515 0.031555802 0.42154193 655428
-0.026227554 0.031549089 0.42145225 655428
-0.02546192 0.031542379 0.42136264 655428
-0.024696527 0.031535566 0.42127162 655428
-0.023931166 0.031528361 0.42117539 655428
-0.023166154 0.03152116 0.42107919 655428
-0.022397546 0.031508412 0.4209089 720965
-0.021627635 0.03149287 0.4207013 720965
-0.020858483 0.031477347 0.4204939 720965
-0.020093903 0.03146781 0.4203665 720965
-0.019333307 0.031464007 0.42031571 720965
-0.018572895 0.031460207 0.42026496 720965
-0.017812667 0.031456411 0.42021424 720965
-0.017052623 0.031452615 0.42016351 720965
-0.01629276 0.031448819 0.42011279 720965
-0.015533083 0.031445023 0.42006209 720965
-0.014773589 0.031441227 0.4200114 720965
-0.014014278 0.031437434 0.41996071 720965
-0.013255149 0.031433642 0.41991004 720965
-0.012496204 0.03142985 0.41985938 720965
-0.011738448 0.031428747 0.41984469 720966
-0.010981613 0.031430133 0.41986319 720966
-0.010227093 0.031438842 0.41997951 720966
-0.0094721336 0.031447485 0.42009497 720966
-0.0087167583 0.031456128 0.42021045 720966
-0.0079609687 0.031464782 0.42032602 720966
-0.0072047617 0.031473435 0.42044163 720966
-0.0064481399 0.031482093 0.42055732 720966
-0.0056911008 0.031490758 0.42067307 720966
-0.0049336459 0.031499431 0.42078891 720965
-0.0041757822 0.031508174 0.42090571 720965
-0.0034175222 0.031517148 0.4210256 720965
-0.0026588303 0.03152613 0.42114559 720965
-0.0018997059 0.031535119 0.42126563 720965
-0.0011401485 0.031544108 0.42138574 720965
-0.00038015787 0.031553105 0.4215059 720966
0.00038026631 0.031562105 0.42162615 1444939
0.0011411035 0.031570528 0.42173868 5196649
0.0019022819 0.031577881 0.42183688 8618883
0.0026645018 0.031593379 0.42204392 8684676
0.0034283248 0.031616773 0.42235646 8816262
0.0041935346 0.031642128 0.42269513 8816262
0.004959973 0.031667519 0.42303434 8816262
0.0057276418 0.031692952 0.42337409 8816262
0.0064965454 0.031718425 0.4237144 8816262
0.0072666854 0.031743944 0.42405525 8816262
0.0080380663 0.031769499 0.42439666 8816262
0.0088106897 0.031795099 0.42473862 8816262
0.0095845591 0.031820737 0.4250811 8816262
0.010359677 0.031846415 0.42542416 8816262
0.011136048 0.031872138 0.42576778 8816262
0.011913674 0.031897902 0.42611194 8816262
0.012692559 0.031923708 0.42645666 8816262
0.013472704 0.031949554 0.42680195 8816262
0.014254114 0.031975444 0.42714781 8684676
0.015036791 0.032001376 0.4274942 8355709
0.015820738 0.032027349 0.42784116 8223865
0.016605958 0.032053363 0.42818868 8224121
0.017392797 0.032080047 0.42854515 8158329
0.018182809 0.032110065 0.42894614 8158328
0.018974299 0.032140139 0.4293479 8158072
0.019767275 0.03217027 0.42975041 8223608
0.02056174 0.032200459 0.4301537 8223608
0.021357697 0.032230705 0.43055773 8486781
0.022157442 0.032264344 0.43100712 8684418
-0.040476225 0.032766469 0.42741561 8421504
-0.039616462 0.032693196 0.42645982 8421504
-0.038822703 0.032672573 0.42619079 8421504
-0.038030319 0.032652296 0.4259263 8421504
-0.037238162 0.032631379 0.42565346 8421504
-0.036443405 0.032607257 0.4253388 8421504
-0.035649821 0.03258317 0.4250246 8421504
-0.034857407 0.032559119 0.42471087 8421504
-0.034063779 0.032532822 0.42436785 7434104
-0.033270385 0.032505549 0.42401209 4209247
-0.032478321 0.032478321 0.42365694 1444938
-0.031687584 0.032451142 0.42330238 852806
-0.030898169 0.032424007 0.42294842 720964
-0.030105645 0.032392148 0.42253289 720965
-0.029311009 0.032356311 0.42206538 720965
-0.028533392 0.032337844 0.42182451 655428
-0.027766589 0.03233096 0.42173472 655428
-0.027000114 0.032324083 0.42164499 655428
-0.026233964 0.032317203 0.42155525 655428
-0.025468018 0.032310173 0.42146355 655428
-0.024702132 0.032302789 0.42136723 655428
-0.023936596 0.032295406 0.42127094 655428
-0.023169715 0.032285668 0.42114392 655428
-0.022398993 0.032269739 0.42093611 720965
-0.021629032 0.03225382 0.42072847 720965
-0.02085983 0.032237917 0.42052105 720965
-0.020095307 0.032228321 0.42039588 720965
-0.019334657 0.032224428 0.4203451 720965
-0.018574193 0.032220539 0.42029434 720965
-0.017813912 0.03221665 0.42024359 720965
-0.017053815 0.03221276 0.42019287 720965
-0.0162939 0.032208871 0.42014214 720965
-0.015534168 0.032204982 0.42009142 720965
-0.014774621 0.032201096 0.42004073 720965
-0.014015255 0.032197211 0.41999003 720965
-0.013256075 0.032193325 0.41993937 720965
-0.012497078 0.03218944 0.41988871 720965
-0.011738263 0.032185558 0.41983807 720965
-0.01097998 0.032182701 0.41980076 720965
-0.010225532 0.032191489 0.41991541 720965
-0.0094707757 0.032200638 0.42003474 720965
-0.0087155905 0.032209788 0.42015412 720965
-0.0079599759 0.032218948 0.4202736 720965
-0.007203931 0.032228112 0.42039314 720965
-0.0064474568 0.032237284 0.42051277 720965
-0.0056905509 0.032246456 0.42063242 720965
-0.0049332147 0.032255635 0.42075217 720965
-0.0041754474 0.032264821 0.42087197 720965
-0.0034172484 0.032274012 0.42099187 720965
-0.0026586172 0.032283209 0.42111182 720965
-0.0018995535 0.032292407 0.42123184 720965
-0.001140057 0.032301612 0.42135191 720965
-0.00038012653 0.032310754 0.42147115 720966
0.00038019661 0.032316711 0.42154884 1049929
0.0011408001 0.032322668 0.42162654 2497876
0.0019020638 0.032335084 0.42178851 7434361
0.0026641961 0.03235095 0.42199549 8618883
0.0034270769 0.032366838 0.42220271 8684676
0.0041913851 0.032387979 0.42247847 8816262
0.0049574282 0.032413956 0.42281732 8816262
0.0057247016 0.032439973 0.42315674 8816262
0.0064932075 0.032466035 0.42349669 8816262
0.0072629494 0.032492142 0.42383721 8816262
0.0080339294 0.032518286 0.42417824 8816262
0.0088061513 0.032544471 0.42451984 8816262
0.0095796185 0.032570705 0.424862 8816262
0.010354334 0.032596976 0.42520469 8816262
0.011130299 0.032623291 0.42554796 8816262
0.011907519 0.032649647 0.42589179 8816262
0.012685996 0.032676049 0.42623615 8816262
0.013465731 0.032702491 0.42658105 8816262
0.014246731 0.032728978 0.42692655 8750469
0.015028995 0.032755505 0.42727259 8553089
0.015812529 0.032782074 0.42761919 8223866
0.016597614 0.032809235 0.42797348 8158072
0.017385826 0.032839894 0.4283734 8158072
0.018175514 0.032870613 0.42877409 8158072
0.018966682 0.032901388 0.42917553 8158072
0.019759331 0.032932218 0.42957771 8158072
0.020553468 0.032963108 0.42998067 8223608
0.021349097 0.032994058 0.43038437 8223865
0.022144606 0.033022657 0.43075743 8289658
0.022951229 0.03306533 0.43131405 8092279
-0.041488562 0.034376238 0.43810555 4418160
-0.039658636 0.033498071 0.42691383 8421504
-0.038841173 0.033457249 0.42639357 8421504
-0.038048405 0.033436477 0.42612883 8421504
-0.037252411 0.033411957 0.42581636 8421504
-0.036457341 0.033387247 0.42550147 8421504
-0.035660312 0.033359647 0.42514968 8421504
-0.034864116 0.033331629 0.42479262 8421504
-0.034069259 0.033303659 0.42443615 8421504
-0.033275735 0.033275735 0.42408028 7829115
-0.03248354 0.033247858 0.42372501 4669795
-0.031692673 0.033220027 0.42337033 1510730
-0.030899823 0.033188697 0.42297104 984391
-0.030103482 0.033151936 0.42250255 720965
-0.02930891 0.03311526 0.42203513 655428
-0.028540371 0.03310683 0.42192769 655428
-0.02777338 0.033099782 0.42183787 655428
-0.027006716 0.033092737 0.42174807 655428
-0.026240213 0.033085484 0.42165565 655428
-0.0254738 0.033077918 0.42155921 655428
-0.024707738 0.033070359 0.42146286 655428
-0.023942027 0.033062801 0.42136654 655428
-0.023171214 0.033047467 0.42117116 720965
-0.022400441 0.033031158 0.42096329 720965
-0.021630429 0.033014864 0.42075562 720965
-0.020861175 0.032998584 0.42054817 720965
-0.020096712 0.032988943 0.42042527 720965
-0.019336009 0.032984957 0.42037448 720965
-0.01857549 0.032980971 0.4203237 720965
-0.017815156 0.032976989 0.42027295 720965
-0.017055005 0.03297301 0.42022222 720965
-0.016295038 0.032969031 0.4201715 720965
-0.015535253 0.032965049 0.42012078 720965
-0.014775652 0.032961071 0.42007005 720965
-0.014016235 0.032957096 0.42001939 720965
-0.013257001 0.032953117 0.41996869 720965
-0.01249795 0.032949142 0.41991803 720965
-0.011738961 0.032944825 0.41986302 720965
-0.010980059 0.032940179 0.4198038 720965
-0.010225267 0.032948084 0.41990456 720965
-0.0094702179 0.032956358 0.42001 720965
-0.0087148929 0.032965031 0.42012051 720965
-0.0079593388 0.032974403 0.42023998 720965
-0.0072033545 0.03298378 0.42035949 720965
-0.0064469404 0.032993164 0.42047909 720965
-0.0056900955 0.033002555 0.42059875 720965
-0.0049328199 0.033011947 0.42071846 720965
-0.0041751126 0.033021346 0.42083824 720965
-0.0034169743 0.033030752 0.4209581 720965
-0.0026584037 0.033040162 0.42107803 720965
-0.0018994011 0.03304958 0.42119804 720965
-0.0011398665 0.033056129 0.42128152 720967
-0.00038002551 0.03306222 0.42135915 720966
0.00038009553 0.03306831 0.42143679 787011
0.0011405481 0.033075895 0.42153344 1445190
0.0019018458 0.033092119 0.42174017 4341085
0.0026638906 0.033108354 0.42194712 8487298
0.0034266836 0.033124607 0.42215425 8618883
0.0041902261 0.033140879 0.42236161 8618883
0.0049548866 0.033159625 0.42260054 8684676
0.0057217637 0.033186231 0.4229396 8816262
0.0064898729 0.033212878 0.42327923 8816262
0.0072592162 0.03323957 0.42361936 8816262
0.0080297971 0.033266302 0.42396006 8816262
0.0088016186 0.03329308 0.42430133 8816262
0.0095746834 0.033319898 0.4246431 8816262
0.010348995 0.033346761 0.42498547 8816262
0.011124556 0.033373669 0.42532837 8816262
0.011901368 0.033400618 0.42567182 8816262
0.012679438 0.033427607 0.42601582 8816262
0.013458766 0.033454645 0.4263604 8816262
0.014239355 0.033481728 0.42670554 8816262
0.01502121 0.033508852 0.42705122 8750469
0.015804548 0.033536479 0.4274033 8421502
0.01659097 0.033567775 0.42780218 8158073
0.017378861 0.033599131 0.42820179 8158072
0.018168226 0.033630546 0.42860216 8223608
0.01895907 0.033662021 0.4290033 8223608
0.019751394 0.033693556 0.42940515 8223864
0.020544043 0.033723239 0.42978346 8289657
0.021336015 0.033749696 0.43012065 8355451
0.022129232 0.033776194 0.43045837 8158072
0.022944346 0.033833187 0.43118471 8026742
0.023762485 0.033890758 0.43191838 8092278
0.02458341 0.033948518 0.43265453 5921368
-0.040355884 0.034870617 0.43441951 6387064
-0.038859662 0.034242671 0.42659652 8421504
-0.038063094 0.034218337 0.42629337 8421504
-0.037262738 0.034189522 0.42593437 8421504
-0.036463726 0.034160756 0.425576 8421504
-0.03566606 0.034132037 0.42521822 8421504
-0.034869734 0.034103367 0.42486104 8421504
-0.034074742 0.034074742 0.42450446 8421504
-0.033281088 0.034046169 0.4241485 8421504
-0.03248876 0.034017645 0.42379311 8026493
-0.031695645 0.0339869 0.42341009 4735844
-0.030897601 0.033949215 0.42294064 1905486
-0.030101324 0.033911619 0.42247224 720965
-0.029314861 0.033883411 0.42212084 655428
-0.028547354 0.033876196 0.42203093 655428
-0.027780173 0.03386898 0.42194104 655428
-0.02701311 0.033861503 0.42184791 655428
-0.026246171 0.033853758 0.42175141 655428
-0.025479583 0.033846013 0.42165494 655428
-0.024713347 0.033838276 0.42155853 655428
-0.023944294 0.033826068 0.42140645 720965
-0.02317271 0.033809364 0.42119837 720965
-0.022401888 0.033792678 0.4209905 720965
-0.021631826 0.033776008 0.4207828 720965
-0.020862522 0.033759352 0.42057532 720965
-0.020098116 0.033749666 0.42045465 720965
-0.019337362 0.033745591 0.42040387 720965
-0.01857679 0.033741515 0.42035308 720965
-0.017816402 0.03373744 0.42030233 720965
-0.017056197 0.033733368 0.42025158 720965
-0.016296176 0.033729296 0.42020085 720965
-0.015536339 0.033725224 0.42015013 720965
-0.014776684 0.033721153 0.42009941 720965
-0.014017214 0.033717081 0.42004871 720965
-0.013257926 0.033713013 0.41999802 720965
-0.012498654 0.03370849 0.41994169 720965
-0.011739504 0.033703737 0.41988245 720965
-0.010980567 0.03369898 0.4198232 720965
-0.010225228 0.033705384 0.41990295 720965
-0.0094701815 0.033713847 0.42000839 720965
-0.0087147551 0.033722315 0.42011389 720965
-0.0079589495 0.033730786 0.42021945 720965
-0.007202778 0.033739328 0.42032585 720965
-0.0064464239 0.033748925 0.42044541 720965
-0.0056896396 0.033758529 0.42056504 720965
-0.0049324245 0.033768136 0.42068475 720965
-0.0041747782 0.033777751 0.42080453 720965
-0.0034167005 0.03378737 0.42092437 720965
-0.0026580032 0.033794612 0.42101458 720966
-0.0018989233 0.033800833 0.42109209 721222
-0.0011395637 0.033807058 0.42116964 787011
-0.00037992452 0.033813283 0.42124718 918592
0.00037999451 0.033819512 0.42132479 1116727
0.0011404175 0.033832386 0.42148516 1512237
0.0019016279 0.033848975 0.42169183 2433591
0.0026635851 0.033865582 0.42189872 6447210
0.0034262904 0.033882204 0.42210582 8618883
0.0041897451 0.033898845 0.42231312 8618883
0.0049539497 0.033915501 0.42252064 8618883
0.0057189059 0.033932175 0.42272836 8684676
0.0064865416 0.033958953 0.42306194 8816262
0.0072554871 0.033986229 0.42340174 8816262
0.0080256695 0.034013551 0.42374212 8816262
0.0087970896 0.034040913 0.42408299 8816262
0.009569753 0.03406832 0.42442444 8816262
0.010343662 0.034095772 0.42476645 8816262
0.011118818 0.034123268 0.425109 8816262
0.011895225 0.034150809 0.42545208 8816262
0.012672888 0.034178395 0.42579576 8816262
0.013451807 0.034206022 0.42613995 8816262
0.014231987 0.034233697 0.42648473 8816262
0.015013592 0.034261789 0.42683467 8750469
0.015798232 0.034293722 0.4272325 8618883
0.016584333 0.034325711 0.42763105 8487039
0.017371902 0.034357764 0.42803034 8289402
0.018160945 0.034389876 0.42843038 8223609
0.018950701 0.034420662 0.4288139 8289657
0.019739637 0.034447603 0.42914957 8355450
0.02052981 0.034474589 0.42948574 8355450
0.021321222 0.034501616 0.42982244 8289914
0.022122361 0.034541931 0.4303247 8026742
0.022937469 0.034600589 0.43105546 8026742
0.023755349 0.034659445 0.43178868 8026486
0.024576016 0.034718499 0.43252438 8092279
0.025399484 0.034777757 0.43326262 8092279
-0.039242107 0.035356749 0.43079495 8421504
-0.038069248 0.034992944 0.42636228 8421504
-0.037268758 0.034963474 0.42600319 8421504
-0.036469612 0.034934051 0.4256447 8421504
-0.035671812 0.034904677 0.4252868 8421504
-0.034875352 0.034875352 0.4249295 8421504
-0.03408023 0.034846075 0.4245728 8421504
-0.033286441 0.03481685 0.42421672 8421504
-0.032493126 0.034786757 0.42385006 8487297
-0.031693369 0.034748152 0.42337966 6841717
-0.030895382 0.034709629 0.42291027 2761301
-0.030099165 0.034671187 0.42244193 1181769
-0.029322037 0.034653317 0.42222416 655428
-0.028554341 0.034645934 0.42213422 655428
-0.027786713 0.034638233 0.42204037 655428
-0.027019249 0.034630306 0.42194378 655428
-0.026252134 0.034622379 0.42184722 655428
-0.025485372 0.034614459 0.42175072 655428
-0.024718242 0.03460554 0.42164204 655428
-0.023945844 0.034588441 0.42143372 720965
-0.02317421 0.034571361 0.42122561 720965
-0.022403335 0.034554295 0.42101768 720965
-0.021633223 0.034537248 0.42080998 720965
-0.020863868 0.03452022 0.42060247 720965
-0.020099521 0.034510497 0.42048404 720965
-0.019338712 0.034506332 0.42043325 720965
-0.018578088 0.034502164 0.42038247 720965
-0.017817646 0.034497999 0.42033172 720965
-0.017057389 0.03449383 0.42028096 720965
-0.016297314 0.034489665 0.42023021 720965
-0.015537424 0.034485504 0.42017949 720965
-0.014777717 0.034481339 0.42012876 720965
-0.014018193 0.034477178 0.42007804 720965
-0.013258633 0.034472447 0.4200204 720965
-0.012499233 0.034467582 0.41996112 720965
-0.011740047 0.03446272 0.41990188 720965
-0.010981075 0.034457855 0.41984263 720965
-0.010225189 0.034462675 0.41990134 720965
-0.0094701452 0.034471329 0.42000678 720965
-0.0087147225 0.034479987 0.42011228 720965
-0.0079589197 0.034488652 0.42021784 720965
-0.0072027366 0.034497317 0.42032343 720965
-0.0064461734 0.034505989 0.42042908 720965
-0.0056892303 0.034514666 0.42053479 720965
-0.0049320292 0.034524206 0.42065105 720965
-0.0041742171 0.03453216 0.42074797 720966
-0.0034158968 0.034538511 0.42082536 721222
-0.0026572975 0.03454487 0.42090282 787267
-0.001898419 0.034551226 0.42098027 918848
-0.0011392612 0.034557588 0.42105779 1116726
-0.00037982361 0.034563951 0.42113531 1314857
0.00037990941 0.034571759 0.42123044 1446944
0.0011402868 0.034588702 0.42143688 1512986
0.0019014099 0.03460566 0.42164353 1973536
0.0026632797 0.034622636 0.42185035 3683910
0.0034258976 0.03463963 0.42205742 8026747
0.004189264 0.03465664 0.42226467 8618883
0.0049533811 0.034673668 0.42247212 8618883
0.0057182489 0.034690712 0.42267978 8618883
0.0064838692 0.03470777 0.42288765 8684676
0.0072517619 0.034732122 0.42318437 8816262
0.0080215456 0.034760028 0.42352438 8816262
0.0087925661 0.034787979 0.42386493 8816262
0.0095648281 0.034815975 0.42420602 8816262
0.010338333 0.034844011 0.42454764 8816262
0.011113087 0.0348721 0.42488986 8816262
0.011889089 0.034900226 0.42523259 8816262
0.012666345 0.034928404 0.42557591 8816262
0.013444857 0.034956627 0.42591977 8816262
0.01422474 0.03498517 0.42626756 8750469
0.0150076 0.035017736 0.42666432 8750469
0.015791919 0.035050355 0.4270618 8684676
0.016577702 0.035083041 0.42746004 8684419
0.01736453 0.03511494 0.4278487 8618626
0.018150453 0.035142366 0.42818284 8355451
0.018937601 0.035169829 0.42851749 8355194
0.019725984 0.035197344 0.42885271 8355450
0.020515598 0.035224892 0.4291884 8355450
0.021306451 0.035252493 0.42952466 8158328
0.022115741 0.035307586 0.43019596 8026743
0.022930594 0.035367526 0.43092626 8026743
0.023748217 0.035427667 0.43165904 8026743
0.024568625 0.035488013 0.43239433 8026743
0.025391042 0.035547458 0.43311861 8224122
0.026198743 0.035583369 0.43355614 6118747
-0.038097981 0.035789013 0.42668408 8421504
-0.037274778 0.035737675 0.426072 8421504
-0.036475498 0.035707593 0.42571339 8421504
-0.035677563 0.035677563 0.42535537 8421504
-0.034880973 0.035647586 0.42499799 8421504
-0.034085717 0.035617657 0.42464116 8421504
-0.033291794 0.03558778 0.42428496 8487297
-0.032490786 0.035548743 0.42381954 8553090
-0.031691089 0.035509292 0.4233492 8553090
-0.030893164 0.035469931 0.4228799 4933222
-0.030097429 0.03543115 0.42241758 1839950
-0.029329216 0.035423599 0.42232755 655428
-0.028561022 0.035415668 0.42223299 655428
-0.027793029 0.035407558 0.42213631 655428
-0.027025389 0.035399452 0.42203966 655428
-0.026258098 0.035391349 0.42194307 655428
-0.025491161 0.035383254 0.42184654 655428
-0.024719842 0.03536839 0.42166933 720965
-0.023947394 0.035350915 0.42146099 720965
-0.023175707 0.035333455 0.42125282 720965
-0.022404782 0.035316013 0.42104489 720965
-0.02163462 0.03529859 0.42083716 720965
-0.020865215 0.035281181 0.42062962 720965
-0.020100927 0.03527144 0.42051345 720965
-0.019340064 0.035267174 0.42046264 720965
-0.018579386 0.035262916 0.42041185 720965
-0.017818891 0.035258658 0.42036107 720965
-0.017058581 0.0352544 0.42031032 720965
-0.016298452 0.035250142 0.42025957 720965
-0.01553851 0.035245888 0.42020884 720965
-0.01477875 0.035241634 0.42015812 720965
-0.014018897 0.035236686 0.42009914 720965
-0.013259247 0.035231713 0.42003983 720965
-0.012499811 0.03522674 0.41998056 720965
-0.01174059 0.03522177 0.41992131 720965
-0.010981583 0.035216801 0.41986206 720965
-0.01022515 0.03521996 0.41989973 720965
-0.0094701089 0.035228804 0.42000517 720965
-0.0087146889 0.035237655 0.42011067 720965
-0.007958889 0.035246506 0.42021623 720965
-0.0072027091 0.035255365 0.42032182 720965
-0.0064461487 0.035264228 0.42042747 720965
-0.0056892084 0.035273094 0.42053318 720965
-0.0049311533 0.035276711 0.42057633 721221
-0.0041731098 0.035281744 0.42063633 787266
-0.0034149904 0.035288233 0.42071369 918847
-0.0026565923 0.035294726 0.42079109 1116982
-0.0018979152 0.035301223 0.42086855 1314857
-0.0011389587 0.03530772 0.420946 1446944
-0.00037972277 0.035314217 0.42102349 1381398
0.00037986593 0.035327531 0.42118222 986895
0.0011401562 0.035344843 0.4213886 723723
0.0019011921 0.035362173 0.42159522 986895
0.0026629746 0.035379518 0.42180201 2105124
0.0034255048 0.035396881 0.42200902 5394525
0.0041887835 0.03541426 0.42221621 8618883
0.0049528126 0.035431657 0.42242363 8618883
0.0057175923 0.035449073 0.42263123 8618883
0.0064831246 0.035466503 0.42283908 8618883
0.0072494098 0.035483953 0.4230471 8618883
0.0080174254 0.035505742 0.42330685 8750469
0.0087880464 0.035534274 0.42364705 8816262
0.009559908 0.035562858 0.42398781 8816262
0.010333011 0.035591483 0.4243291 8816262
0.01110736 0.035620157 0.42467093 8816262
0.011882958 0.035648875 0.42501333 8816262
0.012659808 0.035677638 0.42535627 8816262
0.013437981 0.035706636 0.42570195 8750469
0.014219069 0.035739824 0.42609763 8750469
0.015001612 0.035773072 0.42649406 8750469
0.015785486 0.035806101 0.42688781 8816262
0.016568409 0.035834003 0.42722046 8947847
0.017352555 0.035861947 0.42755362 8816262
0.018137924 0.035889935 0.42788732 8487038
0.018924521 0.035917968 0.42822152 8355450
0.019712348 0.035946045 0.42855626 8355450
0.020501405 0.035974164 0.42889151 8355450
0.021297285 0.036011774 0.42933989 8158329
0.022109127 0.036072783 0.43006727 8026743
0.022923723 0.036134005 0.43079713 8026743
0.023741089 0.036195431 0.43152949 8026743
0.024560876 0.036256533 0.43225795 8289658
0.025366135 0.036293086 0.43269375 8487037
0.026173018 0.036329713 0.43313041 7302764
-0.038136113 0.036595259 0.42711115 6387064
-0.037310969 0.036541671 0.42648569 8421504
-0.036488239 0.036488239 0.42586207 8421504
-0.035683323 0.036450703 0.42542401 8421504
-0.034886595 0.03642007 0.42506647 8421504
-0.034091204 0.036389489 0.42470956 8487297
-0.033289865 0.036351003 0.42426038 8553090
-0.03248845 0.036310621 0.42378905 8553090
-0.031688809 0.036270328 0.42331877 8553090
-0.030890945 0.036230121 0.42284954 7368313
-0.030104801 0.036201976 0.42252105 3090519
-0.029336039 0.036193814 0.42242578 1182024
-0.028567517 0.036185522 0.42232901 655428
-0.027799349 0.036177237 0.4222323 655428
-0.027031533 0.036168952 0.42213562 655428
-0.026264066 0.03616067 0.42203897 655428
-0.025494706 0.036149208 0.42190519 720965
-0.024721442 0.036131337 0.4216966 720965
-0.023948941 0.036113482 0.42148823 720965
-0.023177205 0.036095645 0.42128006 720965
-0.02240623 0.036077827 0.4210721 720965
-0.021636017 0.036060028 0.42086434 720965
-0.020866562 0.036042243 0.42065677 720965
-0.020102333 0.036032483 0.42054287 720965
-0.019341417 0.036028132 0.42049205 720965
-0.018580684 0.036023777 0.42044124 720965
-0.017820137 0.036019426 0.42039046 720965
-0.017059773 0.036015078 0.4203397 720965
-0.016299592 0.036010727 0.42028895 720965
-0.01553956 0.036006298 0.42023724 720965
-0.014779446 0.036001213 0.42017791 720965
-0.014019546 0.035996132 0.4201186 720965
-0.013259861 0.03599105 0.42005929 720965
-0.012500389 0.035985969 0.41999999 720965
-0.011741132 0.035980891 0.41994071 720965
-0.010982091 0.035975814 0.41988146 720965
-0.010225111 0.035977241 0.41989812 720965
-0.0094700726 0.035986274 0.42000356 720965
-0.0087146554 0.035995316 0.42010906 720965
-0.0079588583 0.036004361 0.42021462 720965
-0.0072026812 0.036013406 0.42032021 720965
-0.0064461241 0.036022458 0.42042586 720965
-0.0056890664 0.036030754 0.42052269 787010
-0.0049302625 0.03602884 0.42050034 918847
-0.0041720029 0.036030933 0.42052478 1116981
-0.0034140844 0.036037557 0.42060208 1315113
-0.0026558875 0.036044188 0.42067945 1446944
-0.0018974114 0.036050819 0.42075685 1315862
-0.0011386564 0.036057454 0.42083427 921102
-0.00037963653 0.03606547 0.42092785 460551
0.00037982248 0.036083136 0.42113402 131586
0.0011400257 0.036100812 0.42134035 0
0.0019009743 0.036118511 0.42154691 263172
0.0026626694 0.036136229 0.42175367 1447448
0.0034251118 0.036153957 0.42196062 2960184
0.0041883029 0.036171708 0.42216778 7237234
0.004952244 0.036189474 0.42237514 8618883
0.0057169357 0.036207259 0.42258272 8618883
0.006482379 0.036225062 0.42279047 8618883
0.0072485763 0.03624288 0.42299846 8618883
0.0080155274 0.036260717 0.42320663 8618883
0.0087835323 0.036279809 0.42342943 8684676
0.0095549924 0.03630897 0.4237698 8816262
0.010327694 0.036338184 0.42411074 8816262
0.011101641 0.036367442 0.42445225 8816262
0.011876834 0.036396749 0.42479429 8816262
0.012653306 0.036426183 0.42513782 8750469
0.01343263 0.036459997 0.42553246 8750469
0.014213404 0.036493875 0.42592785 8816262
0.014993464 0.036522537 0.42626241 8947848
0.015774624 0.036550958 0.42659408 8947848
0.016557001 0.036579419 0.42692626 8947848
0.017340597 0.036607925 0.42725897 8882055
0.018125415 0.036636475 0.42759219 8618882
0.018911459 0.036665071 0.42792594 8355450
0.01969873 0.036693711 0.42826021 8355450
0.020487232 0.036722399 0.42859501 8158328
0.021290926 0.036775239 0.42921171 8026743
0.022102514 0.036837526 0.42993867 8026743
0.022916857 0.036900025 0.43066812 8092023
0.023733966 0.036962733 0.4314 8289401
0.024536833 0.036999986 0.43183479 8486781
0.025341278 0.03703725 0.43226972 8487037
0.026147343 0.037074592 0.43270552 7302764
-0.037348296 0.037348296 0.42691237 8421504
-0.036524691 0.037293632 0.4262875 8421504
-0.035703488 0.037239123 0.42566445 8421504
-0.034892216 0.037192803 0.42513499 8421504
-0.034090612 0.037154935 0.42470214 8487297
-0.033287466 0.037113614 0.4242298 8487297
-0.032486111 0.037072383 0.42375854 8487297
-0.031688932 0.037034057 0.42332041 8487297
-0.030894712 0.03699737 0.42290109 8421504
-0.030111762 0.036972672 0.42261875 5722987
-0.029342713 0.036964197 0.42252189 1905741
-0.028574016 0.036955729 0.42242509 786757
-0.027805671 0.036947262 0.42232832 655428
-0.027037678 0.036938798 0.42223158 655428
-0.026270038 0.036930341 0.42213491 655428
-0.025496356 0.036912635 0.42193252 720965
-0.024723042 0.036894385 0.4217239 720965
-0.023950491 0.036876153 0.42151549 720965
-0.023178704 0.036857937 0.4213073 720965
-0.022407679 0.036839742 0.42109931 720965
-0.021637414 0.036821563 0.42089152 720965
-0.020867908 0.036803402 0.42068392 720965
-0.020103738 0.036793634 0.42057225 720965
-0.019342769 0.036789186 0.42052144 720965
-0.018581985 0.036784746 0.42047065 720965
-0.017821383 0.036780301 0.42041984 720965
-0.017060965 0.036775861 0.42036909 720965
-0.016300645 0.036771223 0.42031607 720965
-0.015540279 0.036766026 0.4202567 720965
-0.01478013 0.036760837 0.42019737 720965
-0.014020194 0.036755644 0.42013803 720965
-0.013260474 0.036750458 0.42007872 720965
-0.012500968 0.036745269 0.42001942 720965
-0.011741676 0.036740083 0.41996014 720965
-0.010982599 0.036734901 0.41990089 720965
-0.010225072 0.036734518 0.41989651 720965
-0.0094700363 0.036743741 0.42000195 720965
-0.0087146219 0.036752969 0.42010745 720965
-0.0079588275 0.036762204 0.42021301 720965
-0.0072026537 0.036771443 0.4203186 787010
-0.0064460994 0.036780685 0.42042425 853055
-0.0056880387 0.036782652 0.42044672 1050936
-0.0049293716 0.036780696 0.42042437 1314858
-0.0041708965 0.036779724 0.42041326 1446943
-0.0034131792 0.036786485 0.42049056 1315862
-0.002655183 0.036793251 0.42056787 921102
-0.001896908 0.036800016 0.42064521 460551
-0.0011383542 0.036806788 0.4207226 131586
-0.00037959311 0.036820531 0.42087972 0
0.00037977897 0.036838561 0.4210858 0
0.0011398952 0.03685661 0.42129213 0
0.0019007565 0.036874678 0.42149863 65793
0.0026623642 0.036892761 0.42170534 526344
0.003424719 0.036910862 0.42191222 1842208
0.0041878223 0.036928982 0.42211935 4341585
0.0049516754 0.036947116 0.42232665 8355712
0.0057162796 0.036965273 0.4225342 8618883
0.0064816349 0.036983445 0.42274192 8618883
0.0072477427 0.037001636 0.42294982 8618883
0.0080146054 0.037019841 0.42315796 8618883
0.0087822229 0.037038069 0.42336631 8618883
0.0095505966 0.037056312 0.42357484 8684676
0.010322383 0.037084118 0.42389265 8816262
0.011095926 0.037113961 0.42423376 8816262
0.011870717 0.037143853 0.42457548 8750469
0.012648276 0.037178263 0.42496881 8816262
0.013425565 0.037207995 0.42530864 8882055
0.014203759 0.037236881 0.42563882 8947848
0.014983161 0.037265811 0.42596951 8947848
0.015763776 0.037294786 0.42630073 8947848
0.016545607 0.03732381 0.42663246 8947848
0.017328653 0.037352879 0.42696473 8882055
0.018112922 0.037381988 0.4272975 8750469
0.018898414 0.037411146 0.42763078 8421245
0.019685131 0.037440348 0.42796457 8355194
0.020475978 0.037474904 0.42835957 8223608
0.021284573 0.037538249 0.42908362 8092023
0.022095909 0.03760181 0.42981017 8092023
0.022909993 0.037665583 0.43053913 8289402
0.023710815 0.037704084 0.43097922 8486781
0.024512835 0.037741981 0.43141243 8486781
0.025316468 0.037779961 0.43184653 8486781
0.026121719 0.037818011 0.43228146 8487037
-0.037385698 0.038156535 0.42733988 8421504
-0.036561213 0.03810063 0.42671376 8421504
-0.035739139 0.038044892 0.4260895 8421504
-0.034922086 0.037992157 0.4254989 8421504
-0.034120563 0.037954334 0.42507529 8421504
-0.033320632 0.037916582 0.42465249 8421504
-0.032522295 0.037878908 0.42423055 8421504
-0.031725157 0.037840851 0.42380431 8421504
-0.030918822 0.037789673 0.42323112 8421504
-0.030118616 0.037743583 0.42271495 8092284
-0.029349392 0.037734933 0.42261806 3946077
-0.028580518 0.037726283 0.4225212 1444938
-0.027811999 0.03771764 0.42242441 655428
-0.027043829 0.037709001 0.42232764 655428
-0.026272139 0.037694808 0.42216867 720965
-0.025498008 0.037676163 0.42195985 720965
-0.024724642 0.037657533 0.4217512 720965
-0.023952041 0.037638921 0.42154276 720965
-0.023180202 0.037620328 0.42133453 720965
-0.022409126 0.037601754 0.42112651 720965
-0.021638811 0.037583198 0.4209187 720965
-0.020869257 0.037564661 0.4207111 720965
-0.020105144 0.03755489 0.42060167 720965
-0.019344121 0.037550353 0.42055085 720965
-0.018583283 0.037545819 0.42050004 720965
-0.017822629 0.037541281 0.42044926 720965
-0.017062014 0.037536427 0.4203949 720965
-0.016301399 0.03753113 0.42033553 720965
-0.015540999 0.037525829 0.42027617 720965
-0.014780815 0.037520528 0.42021683 720965
-0.014020844 0.03751523 0.42015749 720965
-0.013261087 0.037509933 0.42009816 720965
-0.012501547 0.037504639 0.42003888 720965
-0.011742219 0.037499346 0.41997957 720965
-0.010983107 0.037494056 0.41992033 720965
-0.010225032 0.037491787 0.4198949 720965
-0.0094699999 0.037501201 0.42000034 720965
-0.0087145884 0.037510619 0.42010584 786755
-0.0079587977 0.037520044 0.4202114 852800
-0.0072026262 0.037529472 0.42031699 984891
-0.0064456225 0.037536271 0.42039314 1183023
-0.0056870114 0.037534278 0.42037079 1380899
-0.0049284818 0.037532285 0.42034847 1381400
-0.0041700318 0.037530288 0.42032611 921102
-0.0034122742 0.037535015 0.42037907 460551
-0.0026544789 0.037541915 0.42045635 131586
-0.001896405 0.037548818 0.42053366 0
-0.0011380921 0.037557043 0.42062575 0
-0.00037954972 0.03757542 0.42083159 0
0.00037973555 0.037593819 0.42103764 0
0.0011397647 0.037612233 0.42124388 0
0.0019005388 0.03763067 0.42145035 0
0.0026620589 0.037649121 0.421657 197379
0.0034243264 0.037667591 0.42186385 1118482
0.0041873422 0.03768608 0.42207092 2433836
0.0049511073 0.037704587 0.4222782 6184038
0.005715623 0.037723113 0.42248568 8618883
0.0064808899 0.037741654 0.42269334 8618883
0.0072469097 0.037760213 0.42290121 8618883
0.0080136843 0.037778795 0.42310932 8618883
0.0087812124 0.037797395 0.42331761 8618883
0.0095494967 0.037816007 0.42352608 8618883
0.010318539 0.037834644 0.42373478 8684676
0.011090218 0.037859708 0.42401552 8816262
0.011864667 0.03789039 0.42435911 8882055
0.012639913 0.037919737 0.42468783 8947848
0.013416361 0.037949134 0.42501706 8947848
0.014194014 0.037978575 0.42534679 8947848
0.014972874 0.038008064 0.42567706 8947848
0.015752945 0.038037598 0.42600781 8947848
0.016534228 0.038067177 0.42633909 8947848
0.017316729 0.0380968 0.42667088 8947848
0.018100446 0.038126472 0.42700318 8882055
0.018885387 0.038156189 0.42733601 8553088
0.019671552 0.038185954 0.42766935 8289658
0.02046988 0.03823619 0.42823198 8092022
0.021278223 0.038300801 0.42895561 8092023
0.022089304 0.038365636 0.42968172 8289402
0.022888066 0.0384054 0.43012705 8486781
0.023687672 0.038443927 0.43055856 8486781
0.024488883 0.038482532 0.4309909 8486781
0.025291706 0.038521215 0.43142414 8486781
0.026096145 0.038559973 0.43185824 8487037
-0.037423175 0.038966399 0.42776826 6387064
-0.036597807 0.038909249 0.42714089 8421504
-0.035774861 0.038852267 0.42651534 8421504
-0.034962635 0.03880468 0.42599297 8421504
-0.034160141 0.038766004 0.42556837 8421504
-0.033359244 0.038727399 0.42514458 8421504
-0.032557711 0.038686223 0.42469254 8421504
-0.031748559 0.03863379 0.42411694 8421504
-0.0309416 0.038581502 0.42354292 8421504
-0.030136822 0.038529355 0.42297044 8421504
-0.029356072 0.038506016 0.42271426 6578545
-0.028587023 0.038497191 0.42261738 2432081
-0.027818326 0.038488369 0.42252052 984390
-0.027048791 0.038477857 0.42240512 655428
-0.026273841 0.038458809 0.42219603 720965
-0.025499659 0.038439784 0.42198718 720965
-0.024726242 0.038420778 0.4217785 720965
-0.023953591 0.038401786 0.42157003 720965
-0.023181701 0.038382817 0.42136177 720965
-0.022410573 0.038363863 0.42115372 720965
-0.021640209 0.038344931 0.42094588 720965
-0.020870604 0.038326018 0.42073825 720965
-0.02010655 0.038316254 0.42063108 720965
-0.019345475 0.038311627 0.42058027 720965
-0.018584583 0.038306996 0.42052945 720965
-0.017823668 0.038301926 0.42047378 720965
-0.017062804 0.038296517 0.42041439 720965
-0.016302153 0.038291104 0.42035499 720965
-0.015541719 0.038285699 0.42029563 720965
-0.014781498 0.03828029 0.42023626 720965
-0.014021493 0.038274884 0.42017692 720965
-0.013261702 0.038269483 0.42011762 720965
-0.012502125 0.038264081 0.42005831 720965
-0.011742762 0.038258679 0.419999 720965
-0.010983615 0.038253281 0.41993976 720965
-0.010224994 0.038249053 0.41989332 721219
-0.0094699645 0.038258657 0.41999876 787264
-0.0087145548 0.038268264 0.42010424 919100
-0.007958767 0.038277879 0.4202098 1182769
-0.0072025987 0.038287498 0.42031538 1315110
-0.0064444584 0.038287662 0.4203172 1447196
-0.0056859846 0.038285632 0.42029488 1118481
-0.0049275919 0.038283598 0.42027256 592137
-0.0041692788 0.03828156 0.42025021 131586
-0.0034113696 0.038283151 0.42026764 0
-0.0026537753 0.038290184 0.42034489 0
-0.0018959021 0.038297221 0.42042214 0
-0.001137962 0.038311388 0.42057765 0
-0.00037950629 0.038330138 0.42078346 0
0.00037969209 0.038348902 0.42098945 0
0.0011396343 0.038367685 0.42119569 0
0.0019003211 0.038386486 0.42140207 0
0.0026617539 0.038405307 0.42160869 0
0.0034239341 0.038424149 0.42181551 263172
0.0041868621 0.038443007 0.42202252 1644571
0.0049505392 0.038461879 0.42222974 3486530
0.0057149664 0.038480774 0.42243716 7895162
0.0064801457 0.038499691 0.42264479 8618883
0.0072460775 0.038518623 0.42285264 8618883
0.0080127623 0.038537569 0.42306066 8618883
0.0087799393 0.038555384 0.42325622 8684676
0.0095475996 0.038572304 0.42344195 8684676
0.010315935 0.038589239 0.42362785 8684676
0.011086217 0.038610619 0.42386258 8684676
0.01185738 0.03863211 0.42409849 8816262
0.01263126 0.038659312 0.42439711 8947848
0.01340717 0.038689259 0.42472589 8947848
0.014184282 0.038719255 0.42505518 8947848
0.014962601 0.038749296 0.42538497 8947848
0.015742127 0.038779385 0.42571527 8947848
0.016522866 0.038809523 0.4260461 8947848
0.017304819 0.038839705 0.42637745 8947848
0.018087989 0.038869932 0.42670929 8882055
0.018872378 0.038900208 0.42704165 8750468
0.019658413 0.038931366 0.42738369 8224121
0.020463783 0.038997024 0.42810446 8026486
0.021271877 0.039062902 0.42882767 8223865
0.022068564 0.039103948 0.42927825 8486781
0.022865769 0.039143097 0.42970803 8486781
0.023664573 0.039182328 0.43013871 8486781
0.02446498 0.039221633 0.43057021 8486781
0.025266994 0.039261021 0.43100259 8486781
0.026070621 0.039300486 0.43143585 8486781
-0.036634475 0.039719485 0.42756885 8421504
-0.035810653 0.039661262 0.42694208 8421504
-0.035003278 0.039619096 0.42648819 8421504
-0.034199812 0.039579559 0.42606258 8355711
-0.033393763 0.039535146 0.4255845 8421504
-0.03258178 0.03948145 0.42500648 8421504
-0.031771999 0.039427903 0.42443004 8421504
-0.030964412 0.039374501 0.42385519 8421504
-0.030159008 0.03932124 0.42328185 8421504
-0.029362757 0.039277457 0.42281052 8421504
-0.028593531 0.039268449 0.42271358 4801636
-0.027824655 0.039259445 0.42261666 1642572
-0.027050542 0.039242335 0.42243248 720965
-0.026275543 0.039222911 0.42222339 720965
-0.025501311 0.039203506 0.4220145 720965
-0.024727842 0.03918412 0.4218058 720965
-0.023955138 0.039164752 0.4215973 720965
-0.023183201 0.039145406 0.42138904 720965
-0.022412024 0.039126076 0.42118096 720965
-0.021641608 0.039106764 0.42097309 720965
-0.020871952 0.039087474 0.42076543 720965
-0.020107957 0.039077729 0.42066053 720965
-0.019346828 0.039073005 0.42060968 720965
-0.018585611 0.039067712 0.4205527 720965
-0.017824495 0.039062191 0.42049327 720965
-0.017063593 0.03905667 0.42043385 720965
-0.016302908 0.039051153 0.42037445 720965
-0.015542438 0.039045639 0.42031509 720965
-0.014782183 0.039040122 0.42025572 720965
-0.014022142 0.039034612 0.42019638 720965
-0.013262316 0.039029099 0.42013705 720965
-0.012502704 0.039023589 0.42007774 720965
-0.011743307 0.039018083 0.42001846 720965
-0.010984124 0.039012577 0.41995919 787009
-0.010225154 0.039007071 0.41989991 853309
-0.0094699282 0.039016105 0.41999716 1116979
-0.0087145213 0.039025903 0.42010263 1315111
-0.0079587363 0.039035708 0.42020819 1381406
-0.0072017121 0.03904086 0.42026365 1315860
-0.0064432947 0.039038785 0.42024133 789516
-0.0056849583 0.039036714 0.420219 263172
-0.0049267015 0.039034635 0.42019665 0
-0.0041685263 0.039032564 0.42017433 0
-0.0034104658 0.039030883 0.42015627 0
-0.0026530717 0.039038055 0.42023346 0
-0.0018954597 0.03904647 0.42032403 0
-0.0011378321 0.039065566 0.4205296 0
-0.0003794629 0.03908468 0.42073536 0
0.00037964864 0.03910381 0.42094129 0
0.0011395038 0.039122961 0.42114747 0
0.0019001035 0.039142132 0.42135382 0
0.0026614489 0.039161321 0.42156038 0
0.0034235413 0.039180528 0.42176715 131586
0.0041863816 0.039199755 0.42197412 723723
0.0049499618 0.039218929 0.4221805 2039331
0.0057139941 0.039236095 0.42236528 5196891
0.0064786957 0.039253276 0.42255023 8750469
0.0072440673 0.039270472 0.42273533 8750469
0.008010109 0.039287679 0.42292058 8750469
0.0087768231 0.039304905 0.42310601 8750469
0.0095442105 0.039322149 0.42329162 8684676
0.010313471 0.039343979 0.42352664 8684676
0.011083603 0.039365903 0.42376262 8684676
0.011854582 0.039387804 0.42399842 8684676
0.01262642 0.039409734 0.42423448 8684676
0.013399118 0.039431687 0.42447081 8816262
0.014174564 0.039458919 0.42476395 8947848
0.014952341 0.039489515 0.42509329 8947848
0.015731325 0.039520156 0.42542315 8947848
0.01651152 0.039550848 0.42575353 8947848
0.017292926 0.039581586 0.4260844 8947848
0.018075548 0.039612371 0.4264158 8947848
0.018859388 0.039643206 0.42674771 8881798
0.019652572 0.039690487 0.4272567 8289917
0.020457692 0.039757404 0.42797703 8289659
0.021252288 0.039799739 0.42843276 8421244
0.022047106 0.03983951 0.42886087 8486780
0.022843516 0.039879359 0.42928985 8486781
0.023641519 0.039919287 0.42971966 8486781
0.024441121 0.039959293 0.43015033 8486781
0.025242329 0.039999381 0.43058187 8421501
0.026045147 0.040039554 0.4310143 8421501
0.026849577 0.040079802 0.43144757 6118747
-0.036671218 0.040531348 0.42799768 8355711
-0.035850067 0.040475883 0.427412 8421504
-0.035044018 0.040435404 0.42698455 8421504
-0.034233335 0.040387642 0.4264802 8421504
-0.033418503 0.040332675 0.42589977 8421504
-0.032605883 0.040277857 0.42532089 8421504
-0.031795472 0.040223189 0.42474362 8421504
-0.030987255 0.040168665 0.42416787 8421504
-0.030181231 0.040114295 0.42359373 8421504
-0.029377382 0.040060066 0.42302111 8421504
-0.028600041 0.040040057 0.42280981 7368568
-0.027828118 0.040026743 0.42266923 3024727
-0.027052296 0.040006917 0.42245987 1247561
-0.026277246 0.039987113 0.42225075 720965
-0.025502963 0.039967328 0.42204183 720965
-0.024729444 0.039947562 0.4218331 720965
-0.02395669 0.039927818 0.4216246 720965
-0.0231847 0.039908089 0.42141628 720965
-0.022413472 0.039888382 0.42120817 720965
-0.021643005 0.039868694 0.42100027 720965
-0.020873299 0.039849024 0.42079258 720965
-0.020109363 0.039839305 0.42068994 720965
-0.019347837 0.03983378 0.42063162 720965
-0.018586472 0.039828155 0.42057219 720965
-0.01782532 0.039822523 0.42051274 720965
-0.017064385 0.039816897 0.42045334 720965
-0.016303664 0.039811272 0.42039394 720965
-0.015543158 0.039805651 0.42033455 720965
-0.014782867 0.039800026 0.42027518 720965
-0.014022792 0.039794408 0.42021585 720965
-0.013262929 0.03978879 0.42015651 720965
-0.012503283 0.039783172 0.4200972 721220
-0.01174385 0.039777555 0.4200379 852799
-0.010984632 0.039771944 0.41997862 985144
-0.010225628 0.03976633 0.41991934 1249065
-0.0094698919 0.039773546 0.41999555 1381151
-0.0087144887 0.039783534 0.42010102 1315862
-0.0079587065 0.039793529 0.42020658 921102
-0.007200412 0.039791748 0.42018777 460551
-0.0064421315 0.039789636 0.42016545 65793
-0.0056839315 0.039787523 0.42014313 0
-0.0049258126 0.039785407 0.42012081 0
-0.0041677738 0.039783295 0.42009851 0
-0.0034098157 0.039781183 0.42007619 257
-0.0026523687 0.03978553 0.42012212 257
-0.0018952432 0.039800107 0.42027602 514
-0.0011377019 0.039819568 0.42048153 1542
-0.00037941954 0.039839052 0.42068726 771
0.00037960525 0.03985855 0.42089316 0
0.0011393734 0.03987807 0.42109928 0
0.001899834 0.039896514 0.42129406 0
0.0026609292 0.039913941 0.42147806 0
0.0034226899 0.039931383 0.42166224 0
0.0041851164 0.039948836 0.42184657 263172
0.00494821 0.039966311 0.42203107 1447448
0.0057119704 0.039983794 0.4222157 2960185
0.0064764004 0.040001299 0.42240053 7303028
0.0072414996 0.040018812 0.42258549 8750469
0.0080072694 0.040036347 0.42277065 8750469
0.0087737096 0.040053893 0.42295593 8684676
0.0095419288 0.040076099 0.42319041 8684676
0.010311051 0.040098529 0.42342728 8684676
