# .PCD v0.7 - Point Cloud Data file format
VERSION 0.7
FIELDS x y z rgb
SIZE 4 4 4 4
TYPE F F F U
COUNT 1 1 1 1
WIDTH 1139
HEIGHT 1
VIEWPOINT 0 0 0 1 0 0 0
POINTS 1139
DATA ascii
-0.12182172 0.093738206 0.42078415 720966
-0.12109513 0.093763307 0.42089683 720966
-0.12036814 0.093788423 0.42100957 720966
-0.11964077 0.093813553 0.42112237 720966
-0.11891287 0.093838587 0.42123476 720966
-0.1181844 0.093863495 0.42134655 720966
-0.11745553 0.093888402 0.42145836 720966
-0.11672628 0.093913324 0.42157024 1247306
-0.11599664 0.093938261 0.42168218 3880031
-0.11526662 0.093963221 0.42179421 8289921
-0.1145362 0.09398818 0.42190626 8618883
-0.11383013 0.094033584 0.42211008 8750469
-0.11312722 0.094082229 0.42232844 8750469
-0.11242357 0.094130926 0.42254701 8750469
-0.1117192 0.094179668 0.42276582 8750469
-0.1110141 0.094228461 0.42298487 8750469
-0.11030827 0.094277307 0.42320412 8750469
-0.10960169 0.094326198 0.42342359 8750469
-0.1088944 0.094375148 0.42364332 8750469
-0.10818636 0.094424143 0.42386326 8750469
-0.1074776 0.094473191 0.42408344 8618883
-0.10678741 0.094539396 0.42438063 8553090
-0.10609992 0.094608955 0.42469287 8553090
-0.10541142 0.094678618 0.42500558 8553090
-0.1047219 0.094748385 0.42531875 8553090
-0.10403136 0.094818249 0.42563239 8553090
-0.10333981 0.094888218 0.42594647 8487297
-0.10264723 0.094958298 0.42626104 8487296
-0.10195594 0.095030628 0.42658573 8355451
-0.10128341 0.095121674 0.42699444 8420986
-0.10060958 0.095212899 0.42740393 8420986
-0.099934466 0.095304295 0.42781422 8420987
-0.09925805 0.095395871 0.42822528 8420988
-0.098580338 0.095487624 0.42863715 8421244
-0.097901322 0.09557955 0.42904979 8420988
-0.097220987 0.095671654 0.42946324 8420988
-0.096539348 0.095763937 0.42987749 8420988
-0.095873341 0.095873341 0.4303686 8355195
-0.095270023 0.096047737 0.43115145 8355194
-0.094622843 0.096180424 0.43174708 9211020
-0.093941286 0.096280076 0.43219441 9211020
-0.093258321 0.096379943 0.4326427 9211020
-0.092573933 0.096480004 0.43309188 9211020
-0.092864022 0.097606011 0.43814644 8553090
-0.15852752 0.096511871 0.42975512 6387322
-0.15715711 0.096147716 0.42813358 8421504
-0.15578297 0.095777683 0.42648587 8421504
-0.15467776 0.095570132 0.42556167 8421504
-0.15380105 0.095502399 0.42526007 8421504
-0.15292558 0.095434763 0.42495888 8421504
-0.15205134 0.095367216 0.42465812 8421504
-0.15117835 0.095299765 0.42435777 8421504
-0.15030658 0.095232412 0.42405787 8421504
-0.14943606 0.095165156 0.42375839 8421504
-0.14856675 0.095097996 0.42345932 8421504
-0.14769693 0.095029801 0.42315567 8421504
-0.14680865 0.094948977 0.42279574 8289919
-0.14592189 0.09486828 0.42243642 6907764
-0.14503662 0.094787717 0.42207769 4735843
-0.14415288 0.094707295 0.42171958 2234704
-0.14327061 0.094627008 0.42136207 655428
-0.14243476 0.094576687 0.42113799 720964
-0.14164056 0.094553612 0.42103526 720964
-0.14084674 0.094530568 0.42093262 720964
-0.14005332 0.094507523 0.42083001 720964
-0.13926028 0.094484493 0.42072746 720964
-0.13846761 0.094461471 0.42062494 720964
-0.13767534 0.094438456 0.42052248 720964
-0.13688347 0.094415464 0.42042008 720964
-0.13609196 0.094392478 0.42031774 720964
-0.13530086 0.094369501 0.42021543 720964
-0.13451645 0.094350971 0.42013291 720965
-0.13376583 0.09435606 0.42015558 720966
-0.13300516 0.094354086 0.42014676 720966
-0.1322469 0.094353803 0.42014551 720966
-0.13148895 0.094353743 0.42014524 720966
-0.130731 0.094353683 0.42014498 720966
-0.12997305 0.094353624 0.42014471 720966
-0.12921512 0.094353557 0.42014444 720966
-0.12845717 0.094353497 0.42014417 720966
-0.12769923 0.094353437 0.4201439 720966
-0.12694129 0.094353378 0.42014363 720966
-0.12618336 0.094353318 0.42014337 720966
-0.12542723 0.094354622 0.42014918 720966
-0.12470269 0.09437985 0.4202615 720966
-0.12397777 0.094405092 0.42037392 720966
-0.12325247 0.094430357 0.42048639 720966
-0.12252677 0.094455622 0.42059892 720966
-0.12180068 0.094480902 0.42071149 720966
-0.12107421 0.094506204 0.42082414 720966
-0.12034735 0.094531514 0.42093685 720966
-0.11961992 0.094556704 0.421049 720966
-0.11889195 0.094581775 0.42116067 720966
-0.1181636 0.094606869 0.4212724 720966
-0.11743486 0.094631977 0.42138419 720966
-0.11670573 0.094657093 0.42149603 852807
-0.11597622 0.094682224 0.42160794 1708366
-0.11524632 0.09470737 0.42171991 5920622
-0.11451603 0.09473253 0.42183194 8618883
-0.11379364 0.094764605 0.42197478 8684676
-0.11309093 0.094813615 0.42219299 8750469
-0.1123875 0.09486267 0.42241144 8750469
-0.11168333 0.094911776 0.4226301 8750469
-0.11097844 0.094960935 0.422849 8750469
-0.11027281 0.095010139 0.42306811 8750469
-0.10956647 0.09505941 0.42328748 8750469
-0.10885937 0.09510871 0.42350703 8750469
-0.10815357 0.095159858 0.42373478 8618883
-0.10746813 0.095229767 0.42404607 8553090
-0.10678168 0.09529978 0.42435783 8553090
-0.10609422 0.09536989 0.42467004 8553090
-0.10540575 0.095440112 0.42498273 8553090
-0.10471626 0.095510438 0.42529586 8553090
-0.10402576 0.095580861 0.42560947 8553090
-0.10333423 0.095651396 0.42592353 8553090
-0.10264169 0.095722027 0.42623806 8487297
-0.10194813 0.095792763 0.42655304 8355710
-0.10125353 0.095863611 0.4268685 8092279
-0.10055791 0.095934555 0.4271844 8026486
-0.099864244 0.09600848 0.4275136 8158072
-0.099188238 0.096100673 0.4279241 8420988
-0.098510936 0.09619303 0.42833537 8420988
-0.09783233 0.096285574 0.42874745 8420987
-0.097152412 0.096378289 0.4291603 8420988
-0.09647119 0.09647119 0.42957398 8420988
-0.095796369 0.096572049 0.43002307 8355195
-0.095193394 0.09674757 0.43080467 8750211
-0.094515763 0.096849486 0.43125847 9211020
-0.093834862 0.096949719 0.43170479 9211020
-0.09315256 0.097050153 0.43215203 9211020
-0.092468835 0.097150803 0.4326002 9211020
-0.092551373 0.098065078 0.43667135 8553090
-0.15744479 0.097097397 0.42891729 8421504
-0.15606704 0.096723035 0.42726356 8421504
-0.1547617 0.096390046 0.42579263 8421504
-0.15388447 0.096321695 0.42549071 8421504
-0.15300846 0.09625344 0.4251892 8421504
-0.15213369 0.096185282 0.4248881 8421504
-0.15126017 0.096117221 0.42458746 8421504
-0.15038788 0.096049257 0.42428723 8421504
-0.14951682 0.095981389 0.42398742 8421504
-0.148647 0.095913611 0.42368802 8421504
-0.14776164 0.095835075 0.4233411 8421504
-0.14687292 0.095753521 0.42298084 7039349
-0.14598572 0.095672108 0.42262122 4999013
-0.14510003 0.09559083 0.42226219 2366545
-0.14421582 0.095509693 0.42190376 655428
-0.14333314 0.09542869 0.42154595 655428
-0.14245592 0.095350496 0.42120054 720964
-0.1416616 0.095327243 0.42109782 720964
-0.14086767 0.095304005 0.42099515 720964
-0.14007412 0.095280766 0.42089251 720964
-0.13928095 0.095257543 0.42078993 720964
-0.13848817 0.095234327 0.42068738 720964
-0.13769577 0.095211126 0.42058489 720964
-0.13690419 0.095188238 0.42048377 655428
-0.13611583 0.095167339 0.42039147 655428
-0.13532783 0.095146462 0.42029923 655428
-0.13452348 0.095113792 0.4201549 720965
-0.13374802 0.095101289 0.42009968 720965
-0.13298321 0.095096253 0.42007744 720965
-0.13222538 0.095096193 0.42007717 720966
-0.13146755 0.095096126 0.42007688 720966
-0.13070974 0.095096067 0.42007661 720966
-0.12995191 0.095096007 0.42007634 720966
-0.1291941 0.09509594 0.42007607 720966
-0.12843627 0.09509588 0.4200758 720966
-0.12767845 0.095095821 0.42007554 720966
-0.12692064 0.095095761 0.42007527 720966
-0.12616283 0.095095702 0.420075 720966
-0.12540561 0.095096096 0.42007676 720966
-0.1246812 0.095121518 0.42018905 720966
-0.1239564 0.095146962 0.42030144 720966
-0.12323121 0.095172413 0.42041385 720966
-0.12250563 0.095197871 0.42052633 720966
-0.12177967 0.095223352 0.42063889 720966
-0.12105331 0.095248841 0.42075148 720966
-0.12032635 0.095274173 0.42086339 720966
-0.11959889 0.095299438 0.42097497 720966
-0.11887105 0.09532471 0.42108661 720966
-0.11814281 0.09534999 0.42119828 720966
-0.1174142 0.095375285 0.42131004 720966
-0.1166852 0.095400602 0.42142186 720966
-0.1159558 0.095425919 0.4215337 1115977
-0.11522602 0.095451258 0.42164564 3090264
-0.11449585 0.095476605 0.42175761 7894910
-0.1137653 0.095501974 0.42186967 8618883
-0.11305469 0.095544532 0.42205766 8750469
-0.11235145 0.095593952 0.42227596 8750469
-0.11164749 0.095643416 0.42249447 8750469
-0.11094281 0.09569294 0.42271325 8750469
-0.11023739 0.095742509 0.42293221 8750469
-0.10953125 0.095792137 0.42315143 8750469
-0.10883217 0.095848687 0.42340124 8618883
-0.10814777 0.09591905 0.42371204 8553090
-0.10746237 0.095989518 0.42402333 8553090
-0.10677595 0.096060075 0.42433503 8553090
-0.10608851 0.096130751 0.42464721 8553090
-0.10540008 0.096201524 0.42495987 8553090
-0.10471062 0.096272409 0.42527297 8553090
-0.10402016 0.096343391 0.42558655 8553090
-0.10332867 0.096414484 0.42590058 8553090
-0.10263615 0.096485674 0.42621505 8553090
-0.10194262 0.096556969 0.42653 8487297
-0.10124806 0.096628375 0.42684543 8289917
-0.10055248 0.096699893 0.42716134 8026486
-0.099855855 0.096771508 0.42747769 7960693
-0.099158205 0.096843228 0.42779452 7960693
-0.098459519 0.096915051 0.42811179 8092023
-0.097763434 0.0969906 0.42844552 8223608
-0.097083934 0.097083934 0.4288578 8420988
-0.096403122 0.097177446 0.42927089 8420988
-0.095720999 0.097271137 0.42968476 8420731
-0.095087737 0.097416416 0.43032652 9211020
-0.094408914 0.097517021 0.43077093 9211020
-0.093728676 0.097617835 0.43121624 9211020
-0.09304703 0.09771885 0.43166247 9211020
-0.092363983 0.097820081 0.43210965 9211020
-0.092240833 0.098521061 0.43520615 8684676
-0.093374737 0.10058823 0.44433767 7237230
-0.15773353 0.098050572 0.42970389 4418932
-0.15635215 0.097671837 0.42804408 8421504
-0.1549814 0.097296022 0.42639709 8421504
-0.15396798 0.097141892 0.42572162 8421504
-0.15309143 0.097073019 0.42541978 8421504
-0.15221614 0.097004235 0.42511836 8421504
-0.15134208 0.096935563 0.42481738 8421504
-0.15046926 0.09686698 0.42451683 8421504
-0.14959767 0.096798494 0.42421669 8421504
-0.14871711 0.096723467 0.42388788 8421504
-0.14782643 0.096641049 0.4235267 7105398
-0.14693727 0.096558772 0.42316613 5196647
-0.14604962 0.096476637 0.42280617 2563922
-0.14516348 0.096394651 0.42244685 655428
-0.14427884 0.096312791 0.42208812 655428
-0.14339571 0.096231073 0.42172998 655428
-0.14251408 0.096149497 0.42137247 655428
-0.14168265 0.096101105 0.4211604 720964
-0.14088859 0.096077666 0.42105767 720964
-0.14009671 0.096055463 0.4209604 655428
-0.13930675 0.096034355 0.42086789 655428
-0.13851716 0.096013255 0.42077541 655428
-0.1377279 0.09599217 0.420683 655428
-0.13693899 0.095971093 0.42059064 655428
-0.13615042 0.095950022 0.42049828 655428
-0.13536038 0.095927663 0.42040029 655428
-0.13453239 0.09587802 0.42018273 720965
-0.13375723 0.095865667 0.42012861 720965
-0.13298358 0.095854267 0.42007864 720965
-0.13221012 0.095842868 0.42002869 720965
-0.13144617 0.095838271 0.42000854 720966
-0.13068847 0.095838211 0.42000827 720966
-0.12993076 0.095838144 0.420008 720966
-0.12917307 0.095838085 0.42000774 720966
-0.12841538 0.095838025 0.42000747 720966
-0.12765768 0.095837966 0.4200072 720966
-0.12689999 0.095837906 0.42000693 720966
-0.12614229 0.095837839 0.42000666 720966
-0.12538461 0.095837779 0.42000639 720966
-0.12465971 0.095862933 0.42011663 720966
-0.12393502 0.095888563 0.42022896 720966
-0.12320995 0.095914207 0.42034134 720966
-0.1224845 0.095939867 0.42045379 720966
-0.12175865 0.095965542 0.42056629 720966
-0.12103216 0.095991023 0.42067796 720966
-0.1203052 0.096016452 0.42078942 720966
-0.11957787 0.09604191 0.42090097 720966
-0.11885014 0.096067369 0.42101255 720966
-0.11812203 0.096092843 0.42112419 720966
-0.11739354 0.096118338 0.42123592 720966
-0.11666466 0.096143834 0.42134768 720966
-0.11593539 0.096169353 0.4214595 721222
-0.11520573 0.096194886 0.4215714 1379147
-0.11447569 0.096220426 0.42168334 4999015
-0.11374526 0.096245982 0.42179534 8618883
-0.11301845 0.096274979 0.42192242 8684676
-0.11231543 0.096324757 0.42214057 8750469
-0.11161169 0.096374594 0.42235896 8750469
-0.1109072 0.096424475 0.42257756 8750469
-0.11020199 0.096474409 0.4227964 8684676
-0.10950971 0.096536435 0.42306823 8618883
-0.10882635 0.096607246 0.42337856 8553090
-0.10814197 0.09667816 0.42368934 8553090
-0.10745659 0.096749179 0.42400056 8553090
-0.10677022 0.096820302 0.42431226 8553090
-0.10608282 0.09689153 0.42462441 8553090
-0.10539441 0.096962854 0.42493701 8553090
-0.10470499 0.097034298 0.42525008 8553090
-0.10401455 0.097105831 0.4255636 8553090
-0.10332309 0.097177483 0.4258776 8553090
-0.10263062 0.09724924 0.42619208 8553090
-0.10193712 0.097321101 0.426507 8553090
-0.10124259 0.097393058 0.42682236 8487296
-0.10054704 0.097465135 0.42713824 8224124
-0.099850453 0.097537316 0.42745456 7960951
-0.099152841 0.097609602 0.42777136 7960693
-0.098454185 0.097681992 0.42808861 7895157
-0.097754493 0.097754493 0.42840633 7960694
-0.097053766 0.097827107 0.42872456 8092279
-0.096351996 0.097899824 0.42904323 8158072
-0.095653445 0.097977012 0.42938152 8487038
-0.094980478 0.098081879 0.4298411 9211020
-0.094302304 0.098183058 0.4302845 9211020
-0.093622729 0.098284446 0.43072882 9211020
-0.092941746 0.098386034 0.43117404 9211020
-0.092259355 0.098487832 0.43162018 9211020
-0.091932364 0.098973989 0.43375075 8684676
-0.093053296 0.10104071 0.44280806 8947848
-0.15663831 0.098624118 0.42882749 6387322
-0.15526396 0.098243937 0.42717445 8421504
-0.15405157 0.097962968 0.42595276 8421504
-0.1531745 0.097893476 0.4256506 8421504
-0.15229867 0.097824089 0.42534888 8421504
-0.15142408 0.097754784 0.42504755 8421504
-0.15055074 0.09768559 0.42474669 8421504
-0.14967504 0.097614162 0.42443609 8421504
-0.14878239 0.097530872 0.42407396 7697530
-0.14789127 0.097447731 0.42371246 5723243
-0.14700167 0.097364739 0.42335159 2761300
-0.14611356 0.097281881 0.42299131 655428
-0.14522699 0.097199164 0.42263165 655428
-0.14434192 0.09711659 0.42227262 655428
-0.14345834 0.097034149 0.42191416 655428
-0.14256504 0.096944228 0.42152318 720964
-0.14171371 0.09688203 0.42125273 655428
-0.14092286 0.096860722 0.42116007 655428
-0.14013235 0.096839435 0.42106751 655428
-0.13934219 0.096818142 0.42097494 655428
-0.13855238 0.09679687 0.42088243 655428
-0.13776292 0.096775606 0.42078999 655428
-0.13697381 0.09675435 0.42069757 655428
-0.13618302 0.09673167 0.42059895 655428
-0.13537091 0.096693508 0.42043301 720965
-0.1345413 0.096642345 0.42021054 720965
-0.13376646 0.096630156 0.42015755 720965
-0.13299274 0.09661866 0.42010757 720965
-0.13221923 0.096607171 0.42005762 720965
-0.1314459 0.09659569 0.42000768 720965
-0.13067274 0.096584201 0.41995773 720965
-0.12990963 0.096580051 0.4199397 720966
-0.12915206 0.096579991 0.41993943 720966
-0.1283945 0.096579932 0.41993916 720966
-0.12763692 0.096579865 0.41993889 720966
-0.12687935 0.096579805 0.41993862 720966
-0.12612179 0.096579745 0.41993836 720966
-0.12536421 0.096579678 0.41993809 720966
-0.12463821 0.096604086 0.42004421 720966
-0.12391365 0.096629918 0.42015651 720966
-0.12318871 0.096655756 0.42026886 720966
-0.12246336 0.096681602 0.42038125 720966
-0.12173734 0.096707232 0.42049268 720966
-0.12101089 0.096732847 0.42060405 720966
-0.12028406 0.09675847 0.42071548 720966
-0.11955684 0.096784115 0.42082697 720966
-0.11882924 0.096809767 0.42093852 720966
-0.11810125 0.096835434 0.42105013 720966
-0.11737289 0.096861117 0.4211618 720966
-0.11664413 0.096886814 0.42127353 720966
-0.11591498 0.096912526 0.42138532 720966
-0.11518545 0.096938245 0.42149717 984392
-0.11445553 0.096963987 0.42160907 2300755
-0.11372522 0.096989736 0.42172104 7105143
-0.11299452 0.0970155 0.42183307 8618883
-0.11227943 0.0970551 0.42200527 8750469
-0.11157589 0.097105294 0.42222351 8750469
-0.11087161 0.097155534 0.42244196 8618883
-0.11018618 0.097223103 0.42273575 8553090
-0.10950385 0.09729436 0.42304558 8553090
-0.10882051 0.097365722 0.42335588 8553090
-0.10813618 0.097437195 0.42366663 8553090
-0.10745084 0.097508766 0.42397782 8553090
-0.10676448 0.097580433 0.42428946 8553090
-0.10607712 0.097652219 0.42460158 8553090
-0.10538874 0.097724102 0.42491415 8553090
-0.10469935 0.097796097 0.4252272 8553090
-0.10400895 0.097868197 0.42554069 8618883
-0.10331753 0.097940408 0.42585465 8618883
-0.10262509 0.098012723 0.4261691 8618883
-0.10193162 0.098085135 0.42648396 8684676
-0.10123444 0.098155074 0.42678803 8618883
-0.10053501 0.098223858 0.42708713 8684676
-0.099834584 0.098292738 0.42738661 8355710
-0.099133179 0.098361716 0.42768654 8158073
-0.09843079 0.09843079 0.42798689 8224122
-0.09772741 0.098499961 0.42828766 8224122
-0.097023055 0.098569237 0.42858887 8224122
-0.096317694 0.098638602 0.42889047 8223865
-0.095618822 0.098715782 0.42922607 8158328
-0.094920866 0.09879519 0.42957133 8223608
-0.094221793 0.098874725 0.42991716 8486781
-0.093521602 0.098954387 0.43026355 8684418
-0.0928367 0.099051706 0.43068671 8947847
-0.092154972 0.099154085 0.43113184 9211020
-0.091625951 0.0994239 0.43230504 8684676
-0.092031203 0.10072085 0.43794426 9474192
-0.091875061 0.10142052 0.44098654 9474192
-0.091716737 0.10212999 0.44407138 6579300
-0.15554753 0.099195324 0.42795464 6387322
-0.15418017 0.098813727 0.42630833 8421504
-0.15325765 0.098714828 0.42588168 8421504
-0.1523813 0.098644823 0.42557964 8421504
-0.15150617 0.098574899 0.42527798 8421504
-0.15063228 0.09850508 0.42497677 8421504
-0.14974083 0.098423004 0.42462265 8421504
-0.14884773 0.098338991 0.4242602 7631738
-0.14795616 0.098255128 0.4238984 4143454
-0.14706612 0.098171405 0.42353719 918598
-0.14617757 0.098087825 0.42317662 655428
-0.14529055 0.098004386 0.42281663 655428
-0.14438899 0.09791021 0.42241034 720964
-0.143489 0.09781611 0.42200437 720964
-0.14256048 0.097701445 0.42150968 655428
-0.1417498 0.097666748 0.42135999 655428
-0.14095873 0.097645268 0.4212673 655428
-0.14016803 0.097623795 0.42117468 655428
-0.13937765 0.097602338 0.42108208 655428
-0.13858762 0.09758088 0.42098951 655428
-0.13779797 0.097559437 0.42089701 655428
-0.13700645 0.097536437 0.4207978 655428
-0.13621043 0.097509973 0.42068359 655428
-0.13537988 0.097458348 0.42046088 720965
-0.13455021 0.097406775 0.42023838 720965
-0.13377567 0.09739475 0.42018649 720965
-0.13300191 0.097383164 0.42013651 720965
-0.13222833 0.097371578 0.42008653 720965
-0.13145494 0.09736 0.42003658 720965
-0.13068174 0.097348422 0.41998664 720965
-0.12990871 0.097336851 0.41993672 720965
-0.12913588 0.09732528 0.4198868 720965
-0.12837361 0.097321585 0.41987085 720966
-0.12761617 0.097321525 0.41987059 720966
-0.12685871 0.097321458 0.41987032 720966
-0.12610127 0.097321399 0.41987005 720966
-0.12534383 0.097321339 0.41986978 720966
-0.12461673 0.097344987 0.41997182 720966
-0.1238923 0.097371012 0.42008409 720966
-0.12316746 0.097397037 0.42019635 720966
-0.1224419 0.097422816 0.42030758 720966
-0.12171596 0.09744861 0.42041886 720966
-0.12098964 0.097474411 0.42053017 720966
-0.12026293 0.097500227 0.42064157 720966
-0.11953584 0.097526066 0.42075303 720966
-0.11880837 0.097551912 0.42086455 720966
-0.11808049 0.097577773 0.4209761 720966
-0.11735225 0.097603649 0.42108774 720966
-0.11662361 0.09762954 0.42119944 720966
-0.11589459 0.097655438 0.42131117 720966
-0.11516517 0.097681351 0.42142299 720966
-0.11443538 0.097707286 0.42153487 1247562
-0.1137052 0.097733222 0.42164677 4077664
-0.11297462 0.097759187 0.42175877 8421250
-0.11224366 0.097785152 0.4218708 8684676
-0.1115419 0.09783709 0.42209488 8618883
-0.11086159 0.097908691 0.42240378 8618883
-0.11018029 0.097980395 0.42271313 8618883
-0.10949799 0.098052204 0.42302293 8618883
-0.10881469 0.098124117 0.4233332 8684676
-0.10812757 0.098193593 0.42363292 8684676
-0.10743809 0.098261893 0.42392758 8750469
-0.10674767 0.098330289 0.42422268 8750469
-0.10605627 0.098398782 0.42451817 8750469
-0.10536392 0.098467372 0.42481408 8816262
-0.1046706 0.098536059 0.4251104 8816262
-0.10397631 0.098604836 0.42540714 8816262
-0.10328105 0.098673716 0.4257043 8816262
-0.10258482 0.098742694 0.42600188 8816262
-0.10188761 0.098811753 0.42629984 8816262
-0.10118943 0.098880924 0.42659825 8816262
-0.10049027 0.098950192 0.42689708 8816261
-0.099790134 0.09901955 0.42719632 8618883
-0.099089004 0.099089004 0.42749596 8289916
-0.098386899 0.099158555 0.42779604 8223865
-0.097683802 0.099228211 0.42809653 8224121
-0.096979722 0.099297963 0.42839748 8158328
-0.096282683 0.099376097 0.42873457 8158328
-0.095586069 0.099455945 0.42907906 8158072
-0.094888337 0.099535927 0.42942411 8158072
-0.09418948 0.099616028 0.42976969 8223608
-0.093489498 0.099696264 0.43011585 8223608
-0.092788383 0.099776633 0.43046257 8223608
-0.092086144 0.099857122 0.43080983 8223865
-0.091384575 0.099939726 0.4311662 8816004
-0.090994537 0.10036737 0.43301114 8816004
-0.090832248 0.10105579 0.43598118 9539985
-0.090667702 0.10175371 0.4389922 9474192
-0.090500876 0.10246135 0.44204512 9408399
-0.15446119 0.099764213 0.42708537 8421504
-0.15334091 0.099537075 0.42611301 8421504
-0.152464 0.099466443 0.42581064 8421504
-0.15158835 0.099395901 0.42550865 8421504
-0.15070175 0.099317439 0.42517275 8421504
-0.14980668 0.099232554 0.42480937 8421504
-0.14891313 0.099147819 0.42444661 8421504
-0.14802112 0.099063225 0.42408448 4538465
-0.147126 0.098975673 0.42370966 1576779
-0.14622062 0.098880261 0.42330122 720964
-0.14531699 0.098785035 0.42289355 720964
-0.14441508 0.098689988 0.42248666 720964
-0.14349495 0.098581403 0.42202184 720965
-0.14257751 0.098473534 0.42156005 655428
-0.1417859 0.098451875 0.4214673 655428
-0.14099462 0.098430209 0.42137456 655428
-0.1402037 0.098408565 0.4212819 655428
-0.13941313 0.098386921 0.42118925 655428
-0.13862284 0.098365247 0.42109647 655428
-0.13783063 0.098341972 0.42099681 655428
-0.13703881 0.098318703 0.42089722 655428
-0.13621946 0.098275319 0.42071149 720965
-0.13538885 0.098223284 0.42048874 720965
-0.13455912 0.098171301 0.42026621 720965
-0.13378488 0.09815944 0.42021543 720965
-0.13301107 0.098147765 0.42016545 720965
-0.13223743 0.09813609 0.42011547 720965
-0.13146399 0.098124415 0.42006549 720965
-0.13069072 0.098112747 0.42001554 720965
-0.12991767 0.098101087 0.41996562 720965
-0.12914477 0.098089427 0.41991571 720965
-0.12837206 0.098077767 0.41986579 720965
-0.12759954 0.098066106 0.41981587 720965
-0.12683809 0.09806288 0.41980204 720966
-0.12608077 0.098062813 0.41980177 720966
-0.12532344 0.098062754 0.4198015 720966
-0.12459527 0.098085634 0.41989946 720966
-0.12387089 0.098111801 0.42001149 720966
-0.12314584 0.098137766 0.42012262 720966
-0.12242041 0.098163731 0.42023379 720966
-0.12169459 0.098189719 0.42034504 720966
-0.12096839 0.098215714 0.42045632 720966
-0.12024181 0.098241732 0.42056769 720966
-0.11951483 0.098267749 0.42067909 720966
-0.11878748 0.098293796 0.42079058 720966
-0.11805974 0.098319843 0.4209021 720966
-0.11733161 0.098345906 0.42101368 720966
-0.1166031 0.098371997 0.42112535 720966
-0.11587419 0.098398089 0.42123705 720966
-0.11514521 0.09842445 0.42134991 720965
-0.11441676 0.098451629 0.42146626 852807
-0.1136879 0.098478824 0.42158267 1839694
-0.11295865 0.098506026 0.42169914 6052207
-0.11222235 0.098527417 0.42179072 8618883
-0.11151153 0.098571628 0.42197996 8684676
-0.11082709 0.09863992 0.42227232 8816262
-0.11014171 0.098708317 0.42256513 8816262
-0.10945538 0.098776802 0.42285833 8816262
-0.10876809 0.098845385 0.42315191 8816262
-0.10807985 0.098914064 0.42344594 8816262
-0.10739065 0.098982841 0.42374036 8816262
-0.10670049 0.099051706 0.42403516 8816262
-0.10600937 0.099120677 0.42433041 8816262
-0.10531729 0.099189736 0.42462605 8816262
-0.10462423 0.099258892 0.42492211 8816262
-0.10393022 0.099328145 0.42521858 8816262
-0.10323524 0.099397495 0.42551547 8816262
-0.10253929 0.099466942 0.42581278 8816262
-0.10184236 0.099536493 0.42611051 8816262
-0.10114446 0.099606134 0.42640865 8816262
-0.10044558 0.099675879 0.42670721 8816262
-0.099745713 0.099745713 0.42700616 8750469
-0.099044867 0.099815644 0.42730555 8487296
-0.098343045 0.09988568 0.42760536 8223866
-0.097640231 0.099955812 0.42790559 8158072
-0.096945032 0.10003491 0.42824423 8158072
-0.096249752 0.1001152 0.42858794 8158072
-0.095553353 0.10019562 0.42893219 8158072
-0.094855823 0.10027616 0.42927697 8158072
-0.094157182 0.10035683 0.42962235 8223608
-0.093457416 0.10043764 0.42996827 8223865
-0.092753567 0.10051537 0.43030104 8289402
-0.092039362 0.1005831 0.43059099 8355451
-0.091363177 0.10069388 0.43106523 8092023
-0.090706997 0.1008288 0.43164283 8092278
-0.090049051 0.10096409 0.43222198 8421501
-0.089502253 0.10122744 0.43334937 8816004
-0.089329585 0.1019223 0.43632403 9539985
-0.15342425 0.10036022 0.4263446 8421504
-0.15254681 0.10028896 0.42604187 8421504
-0.15166517 0.10021419 0.42572427 8421504
-0.1507681 0.10012844 0.42535996 8421504
-0.14987259 0.10004282 0.42499626 8421504
-0.14896907 0.099950969 0.42460606 8421504
-0.14805999 0.09985441 0.42419586 7829115
-0.14715266 0.099758044 0.42378646 4011870
-0.1462471 0.099661857 0.42337787 1510730
-0.14534327 0.099565864 0.42297006 720964
-0.14443167 0.0994635 0.42253521 720965
-0.14348188 0.099333614 0.42198342 720965
-0.14261386 0.099259242 0.42166749 655428
-0.14182201 0.09923739 0.42157465 655428
-0.14103054 0.099215552 0.42148191 655428
-0.1402394 0.099193722 0.42138916 655428
-0.13944839 0.099171743 0.42129579 655428
-0.13865562 0.099148266 0.42119604 655428
-0.13786322 0.099124797 0.42109635 655428
-0.13706005 0.099093273 0.42096242 655428
-0.13622849 0.099040769 0.42073938 720965
-0.13539782 0.098988324 0.42051661 720965
-0.13456814 0.098936014 0.42029437 720965
-0.13379408 0.098924242 0.42024437 720965
-0.13302022 0.098912477 0.42019439 720965
-0.13224655 0.098900713 0.42014441 720965
-0.13147305 0.098888949 0.42009443 720965
-0.13069974 0.098877192 0.42004448 720965
-0.12992661 0.098865435 0.41999453 720965
-0.12915365 0.098853685 0.41994461 720965
-0.12838089 0.098841928 0.4198947 720965
-0.12760831 0.098830178 0.41984478 720965
-0.12683593 0.098818436 0.41979489 720965
-0.1260637 0.098806694 0.419745 720965
-0.12530306 0.09880393 0.41973326 720966
-0.12457371 0.098825946 0.41982681 720966
-0.12384917 0.098852091 0.41993785 720966
-0.12312424 0.098878235 0.42004892 720966
-0.12239893 0.098904394 0.42016006 720965
-0.12167374 0.098930985 0.42027301 720965
-0.12094895 0.098958232 0.42038876 720965
-0.12022376 0.098985493 0.42050457 720965
-0.11949817 0.09901277 0.42062044 720965
-0.11877219 0.099040069 0.4207364 720965
-0.1180458 0.099067375 0.42085242 720965
-0.117319 0.099094696 0.42096847 720965
-0.11659182 0.099122033 0.42108461 720965
-0.11586422 0.099149384 0.42120081 720965
-0.11513624 0.099176757 0.4213171 720965
-0.11440784 0.099204145 0.42143342 720965
-0.11367407 0.099227205 0.42153138 1181770
-0.11293405 0.099245071 0.42160729 3419483
-0.11220937 0.099276766 0.42174193 8026494
-0.11149961 0.099322177 0.42193484 8618883
-0.11078919 0.099367626 0.42212793 8684676
-0.11009322 0.099426746 0.42237908 8816262
-0.10940715 0.099495701 0.422672 8816262
-0.10872013 0.099564753 0.42296535 8816262
-0.10803217 0.099633902 0.42325911 8816262
-0.10734323 0.099703148 0.42355326 8816262
-0.10665335 0.099772483 0.42384782 8816262
-0.1059625 0.099841923 0.42414281 8816262
-0.1052707 0.099911459 0.42443821 8816262
-0.10457792 0.099981084 0.424734 8816262
-0.10388418 0.10005081 0.4250302 8816262
-0.10318947 0.10012063 0.42532682 8816262
-0.10249379 0.10019056 0.42562386 8816262
-0.10179714 0.10026058 0.42592132 8816262
-0.10109951 0.1003307 0.4262192 8816262
-0.10040092 0.10040092 0.42651749 8816262
-0.099701338 0.10047123 0.4268162 8816262
-0.099000774 0.10054164 0.42711532 8684676
-0.098299235 0.10061216 0.42741486 8420988
-0.097605869 0.10069222 0.427755 8158073
-0.096911907 0.10077294 0.4280979 8158072
-0.096216835 0.10085379 0.42844138 8158072
-0.095520645 0.10093477 0.42878538 8223608
-0.094823338 0.10101588 0.42912996 8158072
-0.094123513 0.10109562 0.42946872 8223865
-0.093411617 0.10116362 0.42975757 8355450
-0.09269876 0.1012317 0.4300468 8355450
-0.091996074 0.10131214 0.43038848 8158328
-0.091341779 0.10144768 0.43096429 8026742
-0.090685725 0.10158359 0.43154162 8026742
-0.090027913 0.10171985 0.4321205 8092022
-0.089368328 0.10185648 0.43270093 8092279
-0.088706978 0.10199349 0.43328294 8092279
-0.088043839 0.10213085 0.4338665 7434608
-0.1526297 0.10111237 0.42627338 8421504
-0.15173203 0.10102664 0.42591196 8421504
-0.15081996 0.1009304 0.42550623 8421504
-0.14990716 0.10083269 0.42509431 8421504
-0.14899613 0.10073517 0.42468318 8421504
-0.14808686 0.10063784 0.42427284 8421504
-0.14717935 0.1005407 0.42386329 7631738
-0.14627358 0.10044374 0.42345455 3814236
-0.14536956 0.10034697 0.42304656 1576780
-0.14441852 0.10021655 0.42249674 852550
-0.14346883 0.10008568 0.42194504 655429
-0.1426502 0.10004534 0.42177495 655428
-0.14185816 0.10002331 0.42168209 655428
-0.14106648 0.1000013 0.42158929 655428
-0.14027472 0.099979006 0.42149529 655428
-0.13948138 0.09995532 0.42139545 655428
-0.13868842 0.09993165 0.42129567 655428
-0.13789582 0.099907994 0.42119592 655428
-0.13706914 0.09985923 0.42099035 720965
-0.13623752 0.099806316 0.42076728 720965
-0.13540679 0.099753469 0.42054448 720965
-0.13457742 0.099701017 0.42032334 720965
-0.13380331 0.099689148 0.4202733 720965
-0.13302939 0.099677294 0.42022333 720965
-0.13225566 0.099665433 0.42017335 720965
-0.13148211 0.099653579 0.42012337 720965
-0.13070872 0.099641725 0.42007339 720965
-0.12993555 0.099629879 0.42002344 720965
-0.12916255 0.09961804 0.41997352 720965
-0.12838973 0.099606194 0.41992357 720965
-0.12761709 0.099594347 0.41987365 720965
-0.12684464 0.099582516 0.41982377 720965
-0.12607238 0.099570684 0.41977388 720965
-0.12529923 0.099557996 0.41972038 720965
-0.12456093 0.099573024 0.41978374 720965
-0.1238361 0.099599063 0.41989353 720965
-0.12311256 0.099626474 0.42000908 720965
-0.12238862 0.099653892 0.42012468 720965
-0.12166429 0.099681325 0.42024034 720965
-0.12093955 0.099708788 0.42035609 720965
-0.12021441 0.099736251 0.42047188 720965
-0.11948888 0.099763736 0.42058775 720965
-0.11876295 0.099791229 0.42070368 720965
-0.11803661 0.099818744 0.42081967 720965
-0.11730988 0.099846274 0.42093572 720965
-0.11658274 0.099873811 0.42105183 720965
-0.11585521 0.099901378 0.42116803 720965
-0.11512401 0.099926122 0.42127234 720966
-0.1143847 0.0999441 0.42134815 720967
-0.11364512 0.0999621 0.42142403 852806
-0.11290643 0.099981107 0.42150417 1642569
-0.11219738 0.10002681 0.42169684 5262438
-0.11148769 0.10007256 0.42188972 8618883
-0.11077734 0.10011835 0.42208278 8618883
-0.11006635 0.10016419 0.42227602 8618883
-0.10935897 0.10021397 0.42248589 8684676
-0.10867222 0.10028349 0.42277896 8816262
-0.10798452 0.10035311 0.42307246 8816262
-0.10729586 0.10042281 0.42336634 8816262
-0.10660625 0.10049263 0.42366067 8816262
-0.10591568 0.10056254 0.42395538 8816262
-0.10522414 0.10063254 0.42425051 8816262
-0.10453164 0.10070264 0.42454603 8816262
-0.10383818 0.10077284 0.424842 8816262
-0.10314374 0.10084314 0.42513835 8816262
-0.10244834 0.10091353 0.42543513 8816262
-0.10175197 0.10098403 0.42573231 8816262
-0.10105462 0.10105462 0.42602992 8816262
-0.1003563 0.10112531 0.42632794 8816262
-0.099656999 0.1011961 0.42662638 8816262
-0.098956734 0.101267 0.4269253 8684676
-0.098265201 0.10134804 0.4272669 8553090
-0.097572565 0.10142919 0.42760903 8421503
-0.096878812 0.10151047 0.42795169 8289659
-0.096183948 0.10159189 0.42829493 8158072
-0.095487967 0.10167342 0.4286387 8223865
-0.094778575 0.1017419 0.42892736 8355450
-0.094068013 0.10181024 0.42921549 8355450
-0.093356498 0.10187867 0.42950398 8355450
-0.092644028 0.1019472 0.42979288 8158328
-0.091974571 0.10206461 0.43028787 8026742
-0.091320395 0.10220112 0.43086338 8026742
-0.090664461 0.102338 0.43144044 8026487
-0.090006776 0.10247525 0.43201905 8026743
-0.089347325 0.10261287 0.43259925 8026743
-0.088683262 0.10274757 0.4331671 8224122
-0.087974563 0.10283249 0.43352512 7302765
-0.1526787 0.10191399 0.42641023 6387322
-0.15176217 0.10181513 0.42599657 8421504
-0.15084741 0.10171644 0.42558369 8421504
-0.14993443 0.10161795 0.42517161 8421504
-0.14902319 0.10151965 0.42476031 8421504
-0.14811374 0.10142155 0.42434984 8421504
-0.14720604 0.10132363 0.42394015 8421504
-0.14630008 0.1012259 0.42353123 7368568
-0.14535743 0.10110163 0.42301127 2761301
-0.14440536 0.10096946 0.42245826 918343
-0.14347917 0.10085405 0.42197543 720965
-0.14268656 0.10083184 0.42188248 655428
-0.14189433 0.10080963 0.42178959 655428
-0.14110184 0.10078702 0.42169496 655428
-0.14030792 0.10076314 0.42159504 655428
-0.13951439 0.10073927 0.42149517 655428
-0.13872123 0.10071541 0.42139533 655428
-0.13791078 0.10067867 0.42124161 720965
-0.13707823 0.10062529 0.42101827 720965
-0.13624656 0.10057198 0.4207952 720965
-0.13541578 0.10051871 0.42057234 720965
-0.13458668 0.10046612 0.42035228 720965
-0.13381253 0.10045416 0.42030227 720965
-0.13303855 0.10044221 0.42025226 720965
-0.13226476 0.10043027 0.42020229 720965
-0.13149115 0.10041832 0.42015231 720965
-0.13071774 0.10040638 0.42010233 720965
-0.1299445 0.10039444 0.42005238 720965
-0.12917145 0.1003825 0.42000243 720965
-0.12839857 0.10037056 0.41995248 720965
-0.12762588 0.10035863 0.41990256 720965
-0.12685338 0.1003467 0.41985264 720965
-0.12607957 0.1003336 0.41979784 720965
-0.12530482 0.10031957 0.41973913 720965
-0.12456024 0.10032968 0.41978145 720965
-0.12383353 0.10035439 0.41988483 720965
-0.12310646 0.10037912 0.41998827 720965
-0.12237912 0.10040392 0.42009205 720965
-0.12165484 0.10043156 0.42020771 720965
-0.12093016 0.10045922 0.42032343 720965
-0.12020507 0.10048689 0.42043921 720965
-0.1194796 0.10051458 0.42055506 720965
-0.11875371 0.10054228 0.42067096 720965
-0.11802743 0.10056999 0.42078692 720965
-0.11730075 0.10059773 0.42090297 720965
-0.11657216 0.10062418 0.42101362 720966
-0.11583357 0.10064228 0.42108935 720967
-0.11509471 0.10066038 0.42116511 786757
-0.11435559 0.1006785 0.42124093 852802
-0.11361619 0.10069662 0.42131674 919102
-0.11289436 0.10073066 0.42145914 1446198
-0.11218539 0.10077671 0.42165181 2828098
-0.11147577 0.10082279 0.42184463 6973809
-0.11076549 0.10086892 0.42203763 8618883
-0.11005458 0.1009151 0.42223084 8618883
-0.10934301 0.10096131 0.4224242 8618883
-0.10863078 0.10100757 0.42261773 8684676
-0.10793692 0.10107167 0.42288595 8816262
-0.10724854 0.10114186 0.4231796 8816262
-0.10655919 0.10121214 0.42347366 8816262
-0.10586889 0.10128251 0.4237681 8816262
-0.10517763 0.10135298 0.42406297 8816262
-0.1044854 0.10142356 0.42435825 8816262
-0.10379221 0.10149422 0.42465392 8816262
-0.10309806 0.101565 0.42495003 8816262
-0.10240293 0.10163587 0.42524654 8816262
-0.10170684 0.10170684 0.42554349 8816262
-0.10100976 0.1017779 0.42584082 8816262
-0.10031172 0.10184906 0.42613858 8816262
-0.099613242 0.10192089 0.42643908 8750469
-0.098923028 0.10200235 0.4267799 8750469
-0.098231696 0.10208392 0.42712122 8684676
-0.097539276 0.10216565 0.42746314 8618883
-0.096845731 0.10224748 0.42780557 8618626
-0.096140251 0.10231794 0.42810035 8355708
-0.095431983 0.10238654 0.42838737 8355194
-0.094722755 0.10245522 0.42867476 8355450
-0.094012573 0.102524 0.42896253 8355450
-0.093301453 0.10259288 0.42925072 8289914
-0.092605375 0.1026796 0.42961356 8158328
-0.091953069 0.10281672 0.43018728 8026743
-0.09129902 0.10295421 0.43076253 8026743
-0.090643212 0.10309207 0.43133932 8026743
-0.089985654 0.1032303 0.43191767 8026743
-0.089319594 0.1033611 0.43246496 8224122
-0.088612564 0.10344639 0.43282181 8421501
-0.087904379 0.10353182 0.43317926 8487038
-0.15179871 0.10260824 0.42609915 8421504
-0.15087487 0.10250277 0.42566115 8421504
-0.14996168 0.1024035 0.42524892 8421504
-0.14905027 0.10230443 0.4248375 8421504
-0.14814061 0.10220554 0.42442685 8421504
-0.14723273 0.10210685 0.42401701 8421504
-0.14629865 0.10198887 0.42352709 8355456
-0.14534418 0.10185537 0.42297271 4538211
-0.14439222 0.10172223 0.42241979 1576524
-0.14351575 0.10164113 0.42208305 655428
-0.14272295 0.10161874 0.42199007 655428
-0.14192973 0.10159581 0.42189485 655428
-0.14113525 0.10157173 0.42179483 655428
-0.14034115 0.10154766 0.42169487 655428
-0.13954741 0.10152359 0.42159495 655428
-0.13875343 0.10149908 0.42149314 655428
-0.13791993 0.10144524 0.42126957 720965
-0.13708733 0.10139146 0.42104623 720965
-0.13625559 0.10133772 0.4208231 720965
-0.13542475 0.10128406 0.42060024 720965
-0.13459596 0.10123132 0.42038125 720965
-0.13382176 0.10121928 0.42033124 720965
-0.13304771 0.10120724 0.42028123 720965
-0.13227387 0.1011952 0.42023122 720965
-0.13150021 0.10118316 0.42018124 720965
-0.13072674 0.10117113 0.42013127 720965
-0.12995344 0.1011591 0.42008129 720965
-0.12918033 0.10114706 0.42003134 720965
-0.1284074 0.10113504 0.41998139 720965
-0.12763467 0.10112301 0.41993147 720965
-0.12686023 0.1011095 0.41987535 720965
-0.12608522 0.10109536 0.41981661 720965
-0.12531042 0.10108121 0.4197579 720965
-0.12455957 0.10108634 0.41977918 720965
-0.12383287 0.10111124 0.41988257 720965
-0.12310579 0.10113614 0.41998598 720965
-0.12237836 0.10116106 0.42008945 720965
-0.12165057 0.10118599 0.42019299 720965
-0.12092243 0.10121094 0.42029658 720965
-0.12019572 0.10123741 0.42040652 720965
-0.11947031 0.1012653 0.42052236 720965
-0.11874447 0.10129321 0.42063823 720965
-0.11801825 0.10132113 0.42075419 720966
-0.11728066 0.1013396 0.42083088 720967
-0.11654251 0.10135782 0.42090654 786757
-0.1158041 0.10137605 0.42098224 852802
-0.11506543 0.10139429 0.42105797 919101
-0.11432648 0.10141253 0.42113373 1183025
-0.11359056 0.10143372 0.4212217 1380901
-0.11288231 0.10148005 0.42141414 1512991
-0.1121734 0.10152644 0.42160675 2039589
-0.11146385 0.10157286 0.42179954 4209999
-0.11075366 0.10161933 0.42199251 8158333
-0.1100428 0.10166584 0.42218566 8618883
-0.1093313 0.1017124 0.42237899 8618883
-0.10861915 0.10175899 0.42257249 8618883
-0.10790634 0.10180563 0.42276615 8618883
-0.10720125 0.10186026 0.422993 8684676
-0.10651217 0.10193101 0.4232868 8816262
-0.10582215 0.10200185 0.423581 8816262
-0.10513116 0.1020728 0.4238756 8816262
-0.10443921 0.10214384 0.42417061 8816262
-0.10374629 0.10221498 0.42446604 8816262
-0.10305241 0.10228622 0.42476189 8816262
-0.10235756 0.10235756 0.42505813 8816262
-0.10166174 0.102429 0.42535481 8816262
-0.10096495 0.10250054 0.42565188 8816262
-0.10026826 0.10257328 0.42595395 8750469
-0.099579357 0.10265516 0.426294 8750469
-0.098889336 0.10273717 0.42663455 8750469
-0.09819822 0.10281932 0.42697567 8816262
-0.097496688 0.10289177 0.42727652 8882054
-0.096790694 0.10296062 0.42756245 8816262
-0.096083745 0.10302956 0.42784873 8487295
-0.095375851 0.10309859 0.4281354 8355450
-0.094667003 0.10316771 0.42842245 8355450
-0.093957208 0.10323694 0.42870989 8289914
-0.09324646 0.10330624 0.42899773 8158329
-0.092583768 0.1034304 0.42951331 8026743
-0.091931581 0.10356849 0.43008676 8026743
-0.091277659 0.10370696 0.43066174 8026743
-0.090621978 0.10384578 0.43123826 8092023
-0.08995387 0.10397265 0.43176511 8289402
-0.089248508 0.10405831 0.4321208 8486781
-0.088541992 0.1041441 0.43247709 8421501
-0.087834306 0.10423005 0.43283397 8487038
-0.15201439 0.10352372 0.42670456 8421504
-0.15092932 0.10330785 0.42581478 8421504
-0.14998896 0.10318934 0.42532629 8421504
-0.14907736 0.10308949 0.42491472 8421504
-0.14816752 0.10298982 0.42450392 8421504
-0.14724214 0.10287828 0.42404416 8487297
-0.14628528 0.10274345 0.42348841 8553090
-0.14533094 0.10260898 0.42293414 6578547
-0.14437906 0.10247485 0.42238131 2168912
-0.14355236 0.10242862 0.42219073 655428
-0.14275843 0.10240538 0.42209494 655428
-0.14196336 0.10238108 0.42199481 655428
-0.14116868 0.10235681 0.42189476 655428
-0.14037438 0.10233253 0.42179471 655428
-0.13958044 0.10230829 0.42169476 655428
-0.13876264 0.10226617 0.42152116 720965
-0.13792908 0.10221191 0.42129752 720965
-0.13709642 0.10215772 0.42107415 720965
-0.13626464 0.10210358 0.42085102 720965
-0.13543372 0.1020495 0.4206281 720965
-0.13460523 0.10199664 0.42041022 720965
-0.13383096 0.1019845 0.42036018 720965
-0.13305688 0.10197237 0.42031017 720965
-0.13228299 0.10196023 0.42026016 720965
-0.13150927 0.10194811 0.42021018 720965
-0.13073574 0.10193598 0.4201602 720965
-0.1299624 0.10192386 0.42011023 720965
-0.12918922 0.10191173 0.42006025 720965
-0.12841624 0.10189962 0.4200103 720965
-0.12764117 0.10188568 0.41995287 720965
-0.12686591 0.10187143 0.41989413 720965
-0.12609085 0.10185718 0.41983539 720965
-0.12531602 0.10184293 0.41977668 720965
-0.1245589 0.10184299 0.41977692 720965
-0.12383219 0.10186807 0.41988027 720965
-0.12310512 0.10189316 0.41998371 720965
-0.1223777 0.10191827 0.42008719 720965
-0.12164991 0.10194339 0.42019072 720965
-0.12092177 0.10196851 0.42029428 720965
-0.12019327 0.10199366 0.42039791 720965
-0.1194644 0.10201881 0.42050159 720965
-0.11872597 0.10203606 0.4205727 720966
-0.11798854 0.10205439 0.42064828 786757
-0.11725084 0.10207274 0.42072389 852802
-0.11651288 0.10209109 0.42079952 984637
-0.11577465 0.10210944 0.42087516 1248561
-0.11503615 0.10212781 0.42095086 1380902
-0.1142974 0.10214618 0.42102659 1447197
-0.11357845 0.10218261 0.42117676 1315860
-0.11287025 0.10222928 0.42136914 986895
-0.11216142 0.102276 0.42156172 1512984
-0.11145195 0.10232277 0.42175448 2368299
-0.11074181 0.10236958 0.42194739 5723489
-0.11003103 0.10241643 0.42214051 8618883
-0.1093196 0.10246332 0.42233378 8618883
-0.10860752 0.10251026 0.42252725 8618883
-0.10789479 0.10255723 0.42272088 8618883
-0.10718139 0.10260426 0.42291468 8618883
-0.10646736 0.10265133 0.4231087 8684676
-0.10577545 0.10272056 0.42339405 8816262
-0.10508472 0.10279197 0.42368841 8816262
-0.10439305 0.10286348 0.42398316 8816262
-0.10370041 0.10293509 0.42427832 8816262
-0.1030068 0.1030068 0.4245739 8816262
-0.10231223 0.10307861 0.42486989 8816262
-0.10161668 0.10315052 0.42516628 8816262
-0.10092179 0.10322419 0.42546993 8750469
-0.10023419 0.1033065 0.4258092 8750469
-0.099545486 0.10338894 0.42614901 8816262
-0.098847926 0.1034634 0.42645589 8882055
-0.098144181 0.10353249 0.42674068 8947848
-0.097439498 0.10360168 0.42702588 8947848
-0.096733876 0.10367096 0.42731145 8882055
-0.0960273 0.10374034 0.4275974 8618882
-0.095319785 0.10380981 0.42788374 8355451
-0.094611317 0.10387936 0.42817044 8355450
-0.093901902 0.10394903 0.42845756 8355450
-0.093212493 0.10404216 0.42884144 8026742
-0.092562161 0.10418084 0.42941308 8026743
-0.091910101 0.10431991 0.42998627 8092279
-0.091256306 0.10445935 0.43056101 8092023
-0.090586096 0.10458224 0.43106753 8420731
-0.089882396 0.10466824 0.43142205 8486781
-0.089177541 0.1047544 0.43177718 8486781
-0.088471524 0.1048407 0.4321329 8486780
-0.087764345 0.10492715 0.43248922 8487038
-0.089225084 0.10763026 0.4436309 7434608
-0.15223068 0.10444181 0.42731169 6387322
-0.15114361 0.10422371 0.42641938 8421504
-0.15006107 0.10400652 0.42553076 8421504
-0.14910445 0.10387482 0.42499194 8421504
-0.14818795 0.10376986 0.42456248 8487297
-0.14722869 0.10363369 0.42400539 8553090
-0.14627193 0.10349789 0.42344975 8553090
-0.14531767 0.10336244 0.42289558 8223871
-0.1443826 0.10323927 0.42239162 3880285
-0.14358789 0.10321569 0.42229518 1379402
-0.14279225 0.1031912 0.42219499 655428
-0.14199701 0.10316672 0.42209482 655428
-0.14120212 0.10314225 0.42199469 655428
-0.14040762 0.10311779 0.42189464 655428
-0.13960636 0.10308807 0.42177305 655428
-0.13877186 0.10303335 0.42154914 720965
-0.13793825 0.10297869 0.4213255 720965
-0.13710552 0.10292409 0.42110211 720965
-0.13627367 0.10286954 0.42087892 720965
-0.1354427 0.10281505 0.420656 720965
-0.13461451 0.10276206 0.42043918 720965
-0.13384019 0.10274983 0.42038915 720965
-0.13306606 0.10273761 0.42033914 720965
-0.13229211 0.10272539 0.42028913 720965
-0.13151833 0.10271316 0.42023912 720965
-0.13074474 0.10270095 0.42018914 720965
-0.12997134 0.10268873 0.42013916 720965
-0.12919812 0.10267651 0.42008919 720965
-0.12842241 0.10266216 0.42003044 720965
-0.12764689 0.1026478 0.41997167 720965
-0.12687159 0.10263343 0.4199129 720965
-0.1260965 0.10261907 0.41985416 720965
-0.12532164 0.10260472 0.41979545 720965
-0.12455823 0.10259963 0.41977462 720965
-0.12383152 0.1026249 0.41987801 720965
-0.12310445 0.10265017 0.41998142 720965
-0.12237703 0.10267547 0.42008489 720965
-0.12164925 0.10270077 0.42018843 720965
-0.12092112 0.10272609 0.42029202 720965
-0.12019262 0.10275142 0.42039564 720965
-0.11945726 0.10277116 0.42047644 721220
-0.1186958 0.10276857 0.42046583 852801
-0.11795855 0.10278704 0.42054138 984637
-0.11722104 0.10280551 0.42061695 1248560
-0.11648326 0.10282398 0.42069253 1380901
-0.11574522 0.10284247 0.42076817 1512732
-0.1150069 0.10286096 0.42084381 1250067
-0.11427379 0.10288437 0.42093962 723723
-0.11356632 0.10293135 0.42113182 394758
-0.11285821 0.10297836 0.42132416 197379
-0.11214944 0.10302542 0.42151669 394758
-0.11144004 0.10307252 0.42170942 1644828
-0.11072998 0.10311967 0.4219023 3223358
-0.11001927 0.10316686 0.42209536 7302770
-0.10930791 0.10321409 0.4222886 8618883
-0.10859589 0.10326136 0.42248201 8618883
-0.10788323 0.10330868 0.42267561 8618883
-0.10716992 0.10335604 0.42286938 8618883
-0.10645594 0.10340344 0.42306334 8618883
-0.10574131 0.10345089 0.42325744 8684676
-0.10503834 0.10351051 0.42350137 8750469
-0.10434693 0.10358248 0.42379585 8816262
-0.10365456 0.10365456 0.42409077 8816262
-0.10296123 0.10372674 0.42438608 8816262
-0.10226694 0.10379902 0.42468181 8816262
-0.10157384 0.10387363 0.42498702 8750469
-0.10088754 0.10395636 0.42532551 8816262
-0.10019397 0.10403282 0.42563835 8882055
-0.099492475 0.10410216 0.42592207 8947848
-0.098790042 0.1041716 0.42620617 8947848
-0.09808667 0.10424113 0.42649063 8947848
-0.097382367 0.10431076 0.42677552 8947848
-0.096677125 0.10438047 0.42706075 8882055
-0.095970921 0.10445028 0.42734635 8750468
-0.095263787 0.10452019 0.42763236 8421245
-0.094555698 0.10459018 0.42791873 8355194
-0.093846671 0.10466028 0.42820552 8223608
-0.093190774 0.10479129 0.42874154 8092022
-0.09254057 0.10493094 0.42931291 8092023
-0.091888636 0.10507097 0.42988583 8092023
-0.091216281 0.10518984 0.43037218 8420731
-0.090514243 0.10527622 0.43072557 8486781
-0.089811042 0.10536274 0.43107957 8486781
-0.089106686 0.1054494 0.43143412 8486780
-0.088401176 0.10553621 0.43178928 8486781
-0.087694503 0.10562316 0.43214503 8421501
-0.088905297 0.10804186 0.44204089 8816005
-0.088625699 0.10867676 0.44463852 6513507
-0.15135852 0.10514218 0.42702568 8421504
-0.15027399 0.10492276 0.42613456 8421504
-0.149194 0.10470427 0.42524716 8421504
-0.14821064 0.1045517 0.42462748 8421504
-0.14725077 0.10441419 0.42406902 8421504
-0.14629343 0.10427704 0.42351201 8421504
-0.14533859 0.10414026 0.42295647 8421504
-0.14441815 0.10402679 0.42249563 6710386
-0.14362195 0.1040021 0.42239535 2432081
-0.14282611 0.10397741 0.42229509 918598
-0.14203066 0.10395274 0.42219487 655428
-0.14123559 0.10392807 0.4220947 655428
-0.1404409 0.10390343 0.4219946 655428
-0.13961564 0.10385577 0.42180106 720965
-0.13878109 0.10380064 0.42157716 720965
-0.13794741 0.10374557 0.42135349 720965
-0.13711461 0.10369055 0.42113003 720965
-0.13628271 0.10363559 0.42090684 720965
-0.13545169 0.10358071 0.42068389 720965
-0.1346238 0.10352759 0.42046818 720965
-0.13384941 0.10351526 0.42041811 720965
-0.13307522 0.10350295 0.42036811 720965
-0.13230121 0.10349063 0.42031807 720965
-0.13152738 0.10347832 0.42026806 720965
-0.13075376 0.10346601 0.42021808 720965
-0.12997989 0.10345339 0.42016682 720965
-0.12920392 0.10343891 0.42010802 720965
-0.12842815 0.10342444 0.42004922 720965
-0.1276526 0.10340996 0.41999045 720965
-0.12687726 0.1033955 0.41993171 720965
-0.12610215 0.10338104 0.41987297 720965
-0.12532724 0.10336658 0.41981423 720965
-0.12455755 0.10335626 0.41977236 720965
-0.12383085 0.10338172 0.41987574 720965
-0.12310379 0.10340718 0.41997916 720965
-0.12237637 0.10343266 0.42008263 720965
-0.12164859 0.10345815 0.42018616 720965
-0.12092046 0.10348365 0.42028973 721220
-0.12019196 0.10350917 0.42039335 787009
-0.11943559 0.10351084 0.42040014 919101
-0.1186716 0.1035059 0.42038009 1183024
-0.11792859 0.10351931 0.42043453 1380901
