# .PCD v0.7 - Point Cloud Data file format
VERSION 0.7
FIELDS x y z rgb
SIZE 4 4 4 4
TYPE F F F U
COUNT 1 1 1 1
WIDTH 1121
HEIGHT 1
VIEWPOINT 0 0 0 1 0 0 0
POINTS 1121
DATA ascii
0.088010043 0.089970179 0.21733294 3092271
0.088401809 0.089969911 0.2173323 3092271
0.088793576 0.08996965 0.21733168 3092271
0.089185342 0.089969389 0.21733104 3092271
0.089577101 0.089969121 0.2173304 3092271
0.08996886 0.08996886 0.21732977 3092271
0.090360619 0.089968599 0.21732913 3092271
0.090752378 0.089968339 0.2173285 3092271
0.09114413 0.08996807 0.21732786 3092271
0.091535874 0.08996781 0.21732722 3092271
0.091927625 0.089967549 0.2173266 3092271
0.092319369 0.089967281 0.21732596 3092271
0.092711113 0.08996702 0.21732531 3092271
0.093102857 0.089966759 0.21732469 3092271
0.093494594 0.089966491 0.21732405 3092271
0.093886331 0.089966238 0.21732342 3092271
0.094278067 0.089965969 0.21732278 3092271
0.094669797 0.089965701 0.21732214 3092271
0.095061526 0.089965448 0.21732152 3092271
0.095453255 0.08996518 0.21732087 3092271
0.095844977 0.089964911 0.21732023 3092271
0.096236698 0.089964658 0.21731961 3092271
0.09662842 0.08996439 0.21731897 3092271
0.097020142 0.089964129 0.21731834 3092271
0.097411856 0.089963868 0.2173177 3092271
0.097803563 0.0899636 0.21731706 3092271
0.098195285 0.089963339 0.21731643 3092271
0.098586991 0.089963078 0.21731579 3092271
0.098978691 0.08996281 0.21731515 3092271
0.099370398 0.08996255 0.21731453 3092271
0.099762097 0.089962289 0.21731389 3092271
0.1001538 0.089962028 0.21731326 3092271
0.1005455 0.08996176 0.21731262 3092271
0.1009372 0.089961499 0.21731198 3092271
0.10132889 0.089961238 0.21731135 3092271
0.10172058 0.08996097 0.21731071 3092271
0.10211227 0.089960717 0.21731009 3092271
0.10250396 0.089960448 0.21730945 3551792
0.043333404 0.090392299 0.21740533 3092271
0.043725435 0.090392038 0.21740471 3092271
0.044117462 0.090391777 0.21740407 3092271
0.044509485 0.090391509 0.21740343 3092271
0.044901509 0.090391248 0.2174028 3092271
0.045293529 0.09039098 0.21740216 3092271
0.045685545 0.090390719 0.21740152 3092271
0.046077564 0.090390459 0.21740089 3092271
0.046469577 0.09039019 0.21740025 3092271
0.046861585 0.090389922 0.21739961 3092271
0.047253598 0.090389661 0.21739899 3092271
0.047645602 0.090389393 0.21739835 3092271
0.048037607 0.090389132 0.2173977 3092271
0.048429612 0.090388872 0.21739708 3092271
0.048821609 0.090388604 0.21739644 3092271
0.049213607 0.090388335 0.2173958 3092271
0.049605604 0.090388075 0.21739517 3092271
0.049997594 0.090387814 0.21739453 3092271
0.050389588 0.090387553 0.2173939 3092271
0.050781574 0.090387285 0.21739326 3092271
0.05117356 0.090387017 0.21739262 3092271
0.051565547 0.090386756 0.217392 3092271
0.051957525 0.090386488 0.21739136 3092271
0.052349504 0.090386227 0.21739072 3092271
0.052741483 0.090385966 0.21739009 3092271
0.053133458 0.090385698 0.21738945 3092271
0.053525429 0.09038543 0.21738881 3092271
0.053917401 0.090385169 0.21738818 3092271
0.054309368 0.090384908 0.21738754 3092271
0.054701332 0.09038464 0.2173869 3092271
0.055093296 0.090384379 0.21738628 3092271
0.055485256 0.090384111 0.21738563 3092271
0.055877216 0.090383843 0.21738499 3092271
0.056269173 0.090383582 0.21738437 3092271
0.056661125 0.090383321 0.21738373 3092271
0.057053078 0.090383053 0.21738309 3092271
0.057445027 0.090382792 0.21738246 3092271
0.057836972 0.090382524 0.21738182 3092271
0.058228921 0.090382263 0.21738119 3092271
0.058620863 0.090382002 0.21738055 3092271
0.0590128 0.090381734 0.21737991 3092271
0.059404742 0.090381473 0.21737929 3092271
0.059796676 0.090381205 0.21737865 3092271
0.060188606 0.090380937 0.21737801 3092271
0.06058054 0.090380676 0.21737738 3092271
0.060972471 0.090380415 0.21737674 3092271
0.061364394 0.090380147 0.2173761 3092271
0.06175632 0.090379886 0.21737547 3092271
0.062148243 0.090379618 0.21737483 3092271
0.062540159 0.09037935 0.21737419 3092271
0.062932082 0.090379097 0.21737356 3092271
0.063323997 0.090378828 0.21737292 3092271
0.063715912 0.090378568 0.2173723 3092271
0.06410782 0.090378299 0.21737166 3092271
0.064499721 0.090378031 0.21737102 3092271
0.064891636 0.09037777 0.21737039 3092271
0.065283537 0.09037751 0.21736975 3092271
0.065675437 0.090377241 0.21736911 3092271
0.066067338 0.090376981 0.21736848 3092271
0.066459231 0.090376712 0.21736784 3092271
0.066851124 0.090376444 0.2173672 3092271
0.067243017 0.090376191 0.21736658 3092271
0.06763491 0.090375923 0.21736594 3092271
0.068026796 0.090375654 0.21736529 3092271
0.068418682 0.090375394 0.21736467 3092271
0.068810567 0.090375125 0.21736403 3092271
0.069202445 0.090374865 0.2173634 3092271
0.069594324 0.090374604 0.21736276 3092271
0.069986202 0.090374336 0.21736212 3092271
0.070378073 0.090374075 0.21736149 3092271
0.070769943 0.090373807 0.21736085 3092271
0.071161814 0.090373538 0.21736021 3092271
0.071553685 0.090373285 0.21735959 3092271
0.071945548 0.090373017 0.21735895 3092271
0.072337404 0.090372749 0.21735831 3092271
0.072729267 0.090372488 0.21735768 3092271
0.073121123 0.09037222 0.21735704 3092271
0.073512986 0.090371959 0.21735641 3092271
0.073904835 0.090371698 0.21735577 3092271
0.074296683 0.09037143 0.21735513 3092271
0.074688539 0.090371169 0.21735451 3092271
0.07508038 0.090370901 0.21735387 3092271
0.075472221 0.090370633 0.21735322 3092271
0.075864069 0.090370379 0.2173526 3092271
0.076255903 0.090370111 0.21735196 3092271
0.076647744 0.090369843 0.21735132 3092271
0.077039577 0.090369582 0.21735069 3092271
0.077431411 0.090369314 0.21735005 3092271
0.077823244 0.090369053 0.21734942 3092271
0.07821507 0.090368792 0.21734878 3092271
0.078606896 0.090368524 0.21734814 3092271
0.078998722 0.090368263 0.21734752 3092271
0.079390541 0.090367995 0.21734688 3092271
0.079782359 0.090367727 0.21734624 3092271
0.080174178 0.090367474 0.21734561 3092271
0.080565989 0.090367205 0.21734497 3092271
0.080957808 0.090366945 0.21734434 3092271
0.081349611 0.090366676 0.2173437 3092271
0.081741415 0.090366408 0.21734306 3092271
0.082133226 0.090366147 0.21734244 3092271
0.08252503 0.090365887 0.2173418 3092271
0.082916826 0.090365618 0.21734115 3092271
0.08330863 0.090365358 0.21734053 3092271
0.083700418 0.090365089 0.21733989 3092271
0.084092215 0.090364821 0.21733925 3092271
0.084484003 0.090364568 0.21733862 3092271
0.084875792 0.0903643 0.21733798 3092271
0.085267581 0.090364039 0.21733736 3092271
0.08565937 0.090363771 0.21733671 3092271
0.086051144 0.090363503 0.21733607 3092271
0.086442932 0.090363242 0.21733545 3092271
0.086834706 0.090362981 0.21733481 3092271
0.08722648 0.090362713 0.21733417 3092271
0.087618254 0.090362452 0.21733354 3092271
0.088010021 0.090362184 0.2173329 3092271
0.088401794 0.090361923 0.21733227 3092271
0.088793561 0.090361662 0.21733163 3092271
0.08918532 0.090361394 0.21733099 3092271
0.089577086 0.090361133 0.21733037 3092271
0.089968845 0.090360865 0.21732973 3092271
0.090360597 0.090360597 0.21732908 3092271
0.090752356 0.090360336 0.21732846 3092271
0.091144107 0.090360075 0.21732782 3092271
0.091535859 0.090359814 0.21732719 3092271
0.09192761 0.090359546 0.21732655 3092271
0.092319347 0.090359278 0.21732591 3092271
0.092711098 0.090359017 0.21732529 3092271
0.093102835 0.090358756 0.21732464 3092271
0.093494572 0.090358488 0.217324 3092271
0.093886316 0.090358227 0.21732338 3092271
0.094278045 0.090357959 0.21732274 3092271
0.094669782 0.090357699 0.21732211 3092271
0.095061511 0.09035743 0.21732147 3092271
0.095453233 0.09035717 0.21732083 3092271
0.095844962 0.090356909 0.2173202 3092271
0.096236683 0.090356641 0.21731956 3092271
0.096628398 0.090356372 0.21731892 3092271
0.097020119 0.090356112 0.2173183 3092271
0.097411834 0.090355851 0.21731766 3092271
0.097803555 0.09035559 0.21731703 3092271
0.098195262 0.090355322 0.21731639 3092271
0.098586969 0.090355054 0.21731575 3092271
0.098978676 0.090354793 0.21731512 3092271
0.099370383 0.090354525 0.21731448 3092271
0.09976209 0.090354264 0.21731386 3092271
0.10015378 0.090354003 0.21731322 3092271
0.10054548 0.090353735 0.21731257 3092271
0.10093718 0.090353474 0.21731195 3092271
0.10132887 0.090353206 0.21731131 3092271
0.10172056 0.090352945 0.21731067 3092271
0.042549331 0.090784974 0.21740657 3092271
0.042941362 0.090784706 0.21740593 3092271
0.043333396 0.090784445 0.2174053 3092271
0.043725427 0.090784177 0.21740466 3092271
0.044117451 0.090783909 0.21740402 3092271
0.044509478 0.090783648 0.2174034 3092271
0.044901501 0.09078338 0.21740276 3092271
0.045293521 0.090783112 0.21740212 3092271
0.045685541 0.090782851 0.21740149 3092271
0.046077553 0.090782583 0.21740085 3092271
0.046469565 0.090782322 0.21740021 3092271
0.046861582 0.090782054 0.21739958 3092271
0.04725359 0.090781793 0.21739894 3092271
0.047645595 0.090781525 0.2173983 3092271
0.0480376 0.090781264 0.21739767 3092271
0.048429601 0.090780996 0.21739703 3092271
0.048821598 0.090780728 0.21739639 3092271
0.049213599 0.090780467 0.21739577 3092271
0.049605593 0.090780199 0.21739513 3092271
0.049997587 0.09077993 0.21739449 3092271
0.050389577 0.09077967 0.21739386 3092271
0.050781567 0.090779401 0.21739322 3092271
0.051173549 0.090779133 0.21739258 3092271
0.051565535 0.090778872 0.21739195 3092271
0.051957518 0.090778604 0.21739131 3092271
0.052349497 0.090778343 0.21739069 3092271
0.052741472 0.090778075 0.21739005 3092271
0.053133447 0.090777807 0.2173894 3092271
0.053525422 0.090777546 0.21738878 3092271
0.053917389 0.090777278 0.21738814 3092271
0.054309357 0.09077701 0.2173875 3092271
0.054701325 0.090776749 0.21738687 3092271
0.055093285 0.090776481 0.21738623 3092271
0.055485245 0.090776213 0.21738559 3092271
0.055877205 0.090775952 0.21738496 3092271
0.056269161 0.090775684 0.21738432 3092271
0.056661114 0.090775415 0.21738368 3092271
0.057053067 0.090775155 0.21738306 3092271
0.057445016 0.090774886 0.21738242 3092271
0.057836961 0.090774618 0.21738178 3092271
0.05822891 0.090774357 0.21738115 3092271
0.058620851 0.090774089 0.21738051 3092271
0.059012793 0.090773828 0.21737988 3092271
0.059404731 0.09077356 0.21737924 3092271
0.059796665 0.090773299 0.2173786 3092271
0.060188599 0.090773039 0.21737798 3092271
0.060580529 0.09077277 0.21737733 3092271
0.060972456 0.090772502 0.21737669 3092271
0.061364386 0.090772241 0.21737607 3092271
0.061756309 0.090771973 0.21737543 3092271
0.062148228 0.090771705 0.21737479 3092271
0.062540151 0.090771444 0.21737416 3092271
0.062932067 0.090771176 0.21737352 3092271
0.063323982 0.090770908 0.21737288 3092271
0.063715898 0.090770647 0.21737225 3092271
0.064107805 0.090770379 0.21737161 3092271
0.064499713 0.090770118 0.21737099 3092271
0.064891621 0.09076985 0.21737035 3092271
0.065283522 0.090769581 0.21736971 3092271
0.065675423 0.090769321 0.21736908 3092271
0.066067323 0.090769053 0.21736844 3092271
0.066459216 0.090768784 0.2173678 3092271
0.066851117 0.090768524 0.21736717 3092271
0.06724301 0.090768255 0.21736653 3092271
0.067634895 0.090767987 0.21736589 3092271
0.068026781 0.090767726 0.21736526 3092271
0.068418667 0.090767458 0.21736462 3092271
0.068810552 0.09076719 0.21736398 3092271
0.069202431 0.090766929 0.21736336 3092271
0.069594309 0.090766661 0.21736272 3092271
0.069986187 0.0907664 0.21736209 3092271
0.070378058 0.090766132 0.21736145 3092271
0.070769928 0.090765864 0.21736081 3092271
0.071161807 0.090765603 0.21736018 3092271
0.07155367 0.090765335 0.21735954 3092271
0.071945533 0.090765074 0.2173589 3092271
0.072337396 0.090764806 0.21735828 3092271
0.072729252 0.090764545 0.21735764 3092271
0.073121108 0.090764277 0.21735699 3092271
0.073512971 0.090764016 0.21735637 3092271
0.07390482 0.090763748 0.21735573 3092271
0.074296676 0.090763487 0.2173551 3092271
0.074688524 0.090763219 0.21735446 3092271
0.075080365 0.09076295 0.21735382 3092271
0.075472213 0.09076269 0.21735319 3092271
0.075864054 0.090762421 0.21735255 3092271
0.076255888 0.090762153 0.21735191 3092271
0.076647729 0.090761892 0.21735129 3092271
0.077039562 0.090761624 0.21735065 3092271
0.077431396 0.090761356 0.21735001 3092271
0.077823229 0.090761095 0.21734938 3092271
0.078215055 0.090760827 0.21734874 3092271
0.078606881 0.090760566 0.21734811 3092271
0.078998707 0.090760298 0.21734747 3092271
0.079390526 0.09076003 0.21734683 3092271
0.079782344 0.090759769 0.21734621 3092271
0.080174163 0.090759501 0.21734557 3092271
0.080565974 0.090759233 0.21734492 3092271
0.080957785 0.090758972 0.2173443 3092271
0.081349596 0.090758704 0.21734366 3092271
0.081741408 0.090758443 0.21734303 3092271
0.082133211 0.090758175 0.21734239 3092271
0.082525007 0.090757906 0.21734175 3092271
0.082916811 0.090757646 0.21734113 3092271
0.083308607 0.090757377 0.21734048 3092271
0.083700404 0.090757109 0.21733984 3092271
0.0840922 0.090756848 0.21733922 3092271
0.084483989 0.09075658 0.21733858 3092271
0.084875785 0.090756319 0.21733795 3092271
0.085267566 0.090756051 0.21733731 3092271
0.085659347 0.090755783 0.21733667 3092271
0.086051136 0.090755522 0.21733604 3092271
0.08644291 0.090755254 0.2173354 3092271
0.086834691 0.090754993 0.21733476 3092271
0.087226465 0.090754725 0.21733414 3092271
0.087618239 0.090754464 0.2173335 3092271
0.088010006 0.090754196 0.21733285 3092271
0.08840178 0.090753935 0.21733223 3092271
0.088793539 0.090753667 0.21733159 3092271
0.089185312 0.090753406 0.21733096 3092271
0.089577071 0.090753138 0.21733032 3092271
0.089968823 0.09075287 0.21732968 3092271
0.090360589 0.090752609 0.21732906 3092271
0.090752341 0.090752341 0.21732841 3092271
0.091144092 0.090752073 0.21732777 3092271
0.091535844 0.090751812 0.21732715 3092271
0.091927588 0.090751544 0.21732651 3092271
0.09231934 0.090751283 0.21732588 3092271
0.092711076 0.090751015 0.21732524 3092271
0.09310282 0.090750746 0.2173246 3092271
0.093494557 0.090750486 0.21732397 3092271
0.093886293 0.090750217 0.21732333 3092271
0.094278023 0.090749949 0.21732269 3092271
0.094669759 0.090749688 0.21732207 3092271
0.095061488 0.09074942 0.21732143 3092271
0.095453218 0.090749159 0.2173208 3092271
0.095844939 0.090748891 0.21732016 3092271
0.096236661 0.090748623 0.21731952 3092271
0.096628383 0.090748362 0.21731889 3092271
0.097020105 0.090748094 0.21731825 3092271
0.097411819 0.090747826 0.21731761 3092271
0.097803533 0.090747565 0.21731699 3092271
0.09819524 0.090747297 0.21731634 3092271
0.098586954 0.090747036 0.21731572 3092271
0.098978661 0.090746768 0.21731508 3092271
0.09937036 0.0907465 0.21731444 3092271
0.099762067 0.090746239 0.21731381 3092271
0.10015377 0.090745971 0.21731317 3092271
0.10054547 0.09074571 0.21731254 3092271
0.10093716 0.090745442 0.2173119 3092271
0.10132885 0.090745173 0.21731126 3814192
0.041765247 0.09117765 0.21740779 3092271
0.042157285 0.091177389 0.21740717 3092271
0.04254932 0.091177113 0.21740653 3092271
0.042941354 0.091176845 0.21740589 3092271
0.043333389 0.091176584 0.21740526 3092271
0.043725416 0.091176316 0.21740462 3092271
0.044117447 0.091176055 0.21740399 3092271
0.04450947 0.091175787 0.21740335 3092271
0.04490149 0.091175519 0.21740271 3092271
0.045293514 0.091175258 0.21740209 3092271
0.04568553 0.091174982 0.21740144 3092271
0.046077546 0.091174714 0.2174008 3092271
0.046469562 0.091174453 0.21740018 3092271
0.04686157 0.091174185 0.21739954 3092271
0.047253579 0.091173917 0.2173989 3092271
0.047645587 0.091173656 0.21739827 3092271
0.048037589 0.091173388 0.21739763 3092271
0.04842959 0.09117312 0.21739699 3092271
0.048821595 0.091172852 0.21739636 3092271
0.049213588 0.091172583 0.21739572 3092271
0.049605582 0.091172315 0.21739508 3092271
0.049997579 0.091172054 0.21739446 3092271
0.050389569 0.091171786 0.21739382 3092271
0.050781555 0.091171518 0.21739317 3092271
0.051173542 0.091171257 0.21739255 3092271
0.051565524 0.091170989 0.21739191 3092271
0.051957507 0.091170721 0.21739127 3092271
0.052349485 0.091170453 0.21739064 3092271
0.052741464 0.091170184 0.21739 3092271
0.053133439 0.091169924 0.21738937 3092271
0.053525411 0.091169655 0.21738873 3092271
0.053917378 0.091169387 0.21738809 3092271
0.05430935 0.091169126 0.21738747 3092271
0.054701313 0.091168858 0.21738683 3092271
0.055093274 0.09116859 0.21738619 3092271
0.055485237 0.091168322 0.21738556 3092271
0.055877194 0.091168053 0.21738492 3092271
0.05626915 0.091167785 0.21738428 3092271
0.056661107 0.091167524 0.21738365 3092271
0.057053056 0.091167256 0.21738301 3092271
0.057445005 0.091166988 0.21738237 3092271
0.057836954 0.091166727 0.21738175 3092271
0.058228899 0.091166459 0.2173811 3092271
0.058620837 0.091166183 0.21738046 3092271
0.059012782 0.091165923 0.21737984 3092271
0.059404716 0.091165654 0.2173792 3092271
0.059796657 0.091165394 0.21737857 3092271
0.060188588 0.091165125 0.21737793 3092271
0.060580518 0.091164857 0.21737729 3092271
0.060972448 0.091164596 0.21737666 3092271
0.061364375 0.091164321 0.21737602 3092271
0.061756294 0.091164052 0.21737538 3092271
0.062148221 0.091163792 0.21737476 3092271
0.062540136 0.091163523 0.21737412 3092271
0.062932052 0.091163255 0.21737348 3092271
0.063323975 0.091162995 0.21737285 3092271
0.063715883 0.091162726 0.21737221 3092271
0.064107791 0.091162458 0.21737157 3092271
0.064499706 0.09116219 0.21737094 3092271
0.064891607 0.091161922 0.2173703 3092271
0.065283515 0.091161661 0.21736968 3092271
0.065675415 0.091161393 0.21736903 3092271
0.066067308 0.091161124 0.21736839 3092271
0.066459209 0.091160864 0.21736777 3092271
0.066851102 0.091160595 0.21736713 3092271
0.067242995 0.091160327 0.21736649 3092271
0.067634888 0.091160059 0.21736586 3092271
0.068026774 0.091159791 0.21736522 3092271
0.068418652 0.091159523 0.21736458 3092271
0.068810537 0.091159262 0.21736395 3092271
0.069202416 0.091158994 0.21736331 3092271
0.069594294 0.091158725 0.21736267 3092271
0.069986172 0.091158465 0.21736205 3092271
0.070378043 0.091158196 0.21736141 3092271
0.070769921 0.091157928 0.21736078 3092271
0.071161792 0.09115766 0.21736014 3092271
0.071553655 0.091157392 0.2173595 3092271
0.071945518 0.091157131 0.21735887 3092271
0.072337382 0.091156863 0.21735823 3092271
0.072729237 0.091156594 0.21735759 3092271
0.073121101 0.091156334 0.21735696 3092271
0.073512957 0.091156065 0.21735632 3092271
0.073904805 0.091155797 0.21735568 3092271
0.074296661 0.091155529 0.21735506 3092271
0.074688509 0.091155261 0.21735442 3092271
0.075080357 0.091155 0.21735379 3092271
0.075472198 0.091154732 0.21735315 3092271
0.075864039 0.091154464 0.21735251 3092271
0.07625588 0.091154203 0.21735188 3092271
0.076647714 0.091153935 0.21735124 3092271
0.077039547 0.091153666 0.2173506 3092271
0.077431381 0.091153398 0.21734998 3092271
0.077823214 0.09115313 0.21734934 3092271
0.07821504 0.091152869 0.21734871 3092271
0.078606866 0.091152601 0.21734807 3092271
0.078998685 0.091152333 0.21734743 3092271
0.079390511 0.091152072 0.2173468 3092271
0.079782329 0.091151804 0.21734616 3092271
0.080174141 0.091151536 0.21734552 3092271
0.080565959 0.091151267 0.2173449 3092271
0.08095777 0.091150999 0.21734425 3092271
0.081349581 0.091150731 0.21734361 3092271
0.081741393 0.09115047 0.21734299 3092271
0.082133189 0.091150202 0.21734235 3092271
0.082525 0.091149941 0.21734172 3092271
0.082916796 0.091149673 0.21734108 3092271
0.083308592 0.091149405 0.21734044 3092271
0.083700389 0.091149136 0.21733981 3092271
0.084092185 0.091148868 0.21733917 3092271
0.084483974 0.0911486 0.21733853 3092271
0.084875762 0.091148339 0.21733791 3092271
0.085267551 0.091148071 0.21733727 3092271
0.085659333 0.091147803 0.21733662 3092271
0.086051114 0.091147542 0.217336 3092271
0.086442895 0.091147266 0.21733536 3092271
0.086834677 0.091147006 0.21733473 3092271
0.08722645 0.091146737 0.21733409 3092271
0.087618217 0.091146469 0.21733345 3092271
0.088009991 0.091146208 0.21733283 3092271
0.088401757 0.09114594 0.21733218 3092271
0.088793524 0.091145672 0.21733154 3092271
0.08918529 0.091145411 0.21733092 3092271
0.089577049 0.091145135 0.21733028 3092271
0.089968815 0.091144875 0.21732965 3092271
0.090360567 0.091144606 0.21732901 3092271
0.090752319 0.091144338 0.21732837 3092271
0.091144077 0.091144077 0.21732774 3092271
0.091535822 0.091143809 0.2173271 3092271
0.091927573 0.091143541 0.21732646 3092271
0.092319317 0.09114328 0.21732584 3092271
0.092711061 0.091143005 0.2173252 3092271
0.093102805 0.091142744 0.21732457 3092271
0.093494542 0.091142476 0.21732393 3092271
0.093886271 0.091142207 0.21732329 3092271
0.094278015 0.091141947 0.21732266 3092271
0.094669744 0.091141678 0.21732202 3092271
0.095061466 0.09114141 0.21732138 3092271
0.095453203 0.091141142 0.21732076 3092271
0.095844924 0.091140874 0.21732011 3092271
0.096236646 0.091140613 0.21731949 3092271
0.096628368 0.091140345 0.21731885 3092271
0.097020082 0.091140077 0.21731821 3092271
0.097411804 0.091139816 0.21731758 3092271
0.097803511 0.091139548 0.21731694 3092271
0.098195225 0.091139287 0.21731631 3092271
0.098586932 0.091139011 0.21731567 3092271
0.098978639 0.091138743 0.21731503 3092271
0.099370345 0.091138482 0.21731441 3092271
0.099762045 0.091138214 0.21731377 3092271
0.10015374 0.091137946 0.21731313 3092271
0.10054544 0.091137685 0.2173125 3420463
0.041373197 0.091570064 0.21740839 3092271
0.041765239 0.091569796 0.21740776 3092271
0.042157277 0.091569528 0.21740712 3092271
0.042549312 0.09156926 0.21740648 3092271
0.042941347 0.091568992 0.21740586 3092271
0.043333378 0.091568723 0.21740521 3092271
0.043725409 0.091568455 0.21740457 3092271
0.044117436 0.091568194 0.21740395 3092271
0.044509459 0.091567919 0.21740331 3092271
0.044901483 0.09156765 0.21740267 3092271
0.045293503 0.09156739 0.21740204 3092271
0.045685522 0.091567114 0.2174014 3092271
0.046077538 0.091566853 0.21740077 3092271
0.046469551 0.091566585 0.21740013 3092271
0.046861563 0.091566317 0.21739949 3092271
0.047253571 0.091566049 0.21739887 3092271
0.047645576 0.09156578 0.21739823 3092271
0.048037581 0.091565512 0.21739759 3092271
0.048429586 0.091565244 0.21739696 3092271
0.048821583 0.091564976 0.21739632 3092271
0.049213581 0.091564707 0.21739568 3092271
0.049605578 0.091564447 0.21739505 3092271
0.049997568 0.091564171 0.21739441 3092271
0.050389558 0.091563903 0.21739377 3092271
0.050781548 0.091563642 0.21739314 3092271
0.051173534 0.091563374 0.2173925 3092271
0.051565517 0.091563098 0.21739186 3092271
0.051957499 0.091562837 0.21739124 3092271
0.052349478 0.091562569 0.2173906 3092271
0.052741453 0.091562301 0.21738996 3092271
0.053133428 0.091562033 0.21738933 3092271
0.053525399 0.091561764 0.21738869 3092271
0.053917367 0.091561496 0.21738805 3092271
0.054309338 0.091561228 0.21738742 3092271
0.054701302 0.09156096 0.21738678 3092271
0.055093266 0.091560699 0.21738616 3092271
0.055485226 0.091560423 0.21738552 3092271
0.055877183 0.091560155 0.21738487 3092271
0.056269143 0.091559894 0.21738425 3092271
0.056661095 0.091559626 0.21738361 3092271
0.057053044 0.09155935 0.21738297 3092271
0.057444997 0.09155909 0.21738234 3092271
0.057836942 0.091558821 0.2173817 3092271
0.058228884 0.091558553 0.21738106 3092271
0.058620829 0.091558285 0.21738043 3092271
0.059012771 0.091558017 0.21737979 3092271
0.059404705 0.091557749 0.21737915 3092271
0.059796643 0.09155748 0.21737853 3092271
0.060188577 0.091557212 0.21737789 3092271
0.060580507 0.091556951 0.21737726 3092271
0.060972437 0.091556683 0.21737662 3092271
0.06136436 0.091556408 0.21737598 3092271
0.061756287 0.091556147 0.21737535 3092271
0.062148206 0.091555879 0.21737471 3092271
0.062540129 0.09155561 0.21737407 3092271
0.062932044 0.091555342 0.21737345 3092271
0.06332396 0.091555074 0.2173728 3092271
0.063715868 0.091554806 0.21737216 3092271
0.064107783 0.091554537 0.21737154 3092271
0.064499691 0.091554269 0.2173709 3092271
0.064891592 0.091554001 0.21737026 3092271
0.0652835 0.09155374 0.21736963 3092271
0.0656754 0.091553465 0.21736899 3092271
0.066067301 0.091553204 0.21736836 3092271
0.066459194 0.091552936 0.21736772 3092271
0.066851087 0.09155266 0.21736708 3092271
0.06724298 0.091552399 0.21736646 3092271
0.067634873 0.091552131 0.21736582 3092271
0.068026759 0.091551863 0.21736518 3092271
0.068418644 0.091551594 0.21736455 3092271
0.068810523 0.091551326 0.21736391 3092271
0.069202408 0.091551058 0.21736327 3092271
0.069594286 0.09155079 0.21736264 3092271
0.069986157 0.091550522 0.217362 3092271
0.070378035 0.091550253 0.21736136 3092271
0.070769906 0.091549993 0.21736073 3092271
0.071161777 0.091549717 0.21736009 3092271
0.07155364 0.091549456 0.21735947 3092271
0.071945503 0.091549188 0.21735883 3092271
0.072337367 0.09154892 0.21735819 3092271
0.07272923 0.091548651 0.21735756 3092271
0.073121086 0.091548383 0.21735692 3092271
0.073512942 0.091548115 0.21735628 3092271
0.073904797 0.091547847 0.21735565 3092271
0.074296646 0.091547579 0.21735501 3092271
0.074688487 0.09154731 0.21735437 3092271
0.075080343 0.09154705 0.21735375 3092271
0.075472184 0.091546774 0.21735311 3092271
0.075864024 0.091546513 0.21735248 3092271
0.076255865 0.091546245 0.21735184 3092271
0.076647699 0.091545969 0.2173512 3092271
0.07703954 0.091545708 0.21735057 3092271
0.077431366 0.09154544 0.21734993 3092271
0.077823192 0.091545172 0.21734929 3092271
0.078215025 0.091544904 0.21734866 3092271
0.078606851 0.091544636 0.21734802 3092271
0.078998677 0.091544375 0.2173474 3092271
0.079390496 0.091544099 0.21734676 3092271
0.079782315 0.091543831 0.21734612 3092271
0.080174133 0.09154357 0.21734549 3092271
0.080565944 0.091543302 0.21734485 3092271
0.080957755 0.091543026 0.21734421 3092271
0.081349567 0.091542765 0.21734358 3092271
0.08174137 0.091542497 0.21734294 3092271
0.082133174 0.091542229 0.2173423 3092271
0.082524978 0.091541961 0.21734168 3092271
0.082916781 0.091541693 0.21734104 3092271
0.083308578 0.091541432 0.21734041 3092271
0.083700374 0.091541156 0.21733977 3092271
0.084092163 0.091540888 0.21733913 3092271
0.084483959 0.091540627 0.2173385 3092271
0.084875748 0.091540359 0.21733786 3092271
0.085267529 0.091540083 0.21733722 3092271
0.085659318 0.091539823 0.2173366 3092271
0.086051099 0.091539554 0.21733595 3092271
0.08644288 0.091539286 0.21733533 3092271
0.086834662 0.091539018 0.21733469 3092271
0.087226428 0.09153875 0.21733405 3092271
0.087618209 0.091538489 0.21733342 3092271
0.088009976 0.091538213 0.21733278 3092271
0.088401742 0.091537945 0.21733214 3092271
0.088793509 0.091537684 0.21733151 3092271
0.089185275 0.091537409 0.21733087 3092271
0.089577034 0.09153714 0.21733023 3092271
0.089968793 0.09153688 0.21732961 3092271
0.090360552 0.091536611 0.21732897 3092271
0.090752311 0.091536343 0.21732834 3092271
0.091144055 0.091536075 0.2173277 3092271
0.091535807 0.091535807 0.21732706 3092271
0.091927558 0.091535538 0.21732643 3092271
0.092319302 0.09153527 0.21732579 3092271
0.092711046 0.091535009 0.21732517 3092271
0.093102783 0.091534741 0.21732453 3092271
0.09349452 0.091534466 0.21732388 3092271
0.093886264 0.091534205 0.21732326 3092271
0.094277993 0.091533937 0.21732262 3092271
0.094669722 0.091533668 0.21732198 3092271
0.095061459 0.0915334 0.21732135 3092271
0.09545318 0.091533132 0.21732071 3092271
0.09584491 0.091532871 0.21732008 3092271
0.096236631 0.091532595 0.21731944 3092271
0.096628346 0.091532327 0.2173188 3092271
0.097020067 0.091532066 0.21731818 3092271
0.097411782 0.091531798 0.21731754 3092271
0.097803496 0.091531523 0.2173169 3092271
0.09819521 0.091531262 0.21731627 3092271
0.098586917 0.091530994 0.21731563 3092271
0.098978624 0.091530725 0.217315 3092271
0.099370323 0.091530457 0.21731436 3092271
0.099762022 0.091530189 0.21731372 3420207
0.040589102 0.091962747 0.21740963 3092271
0.040981147 0.091962479 0.21740898 3092271
0.04137319 0.091962211 0.21740836 3092271
0.041765232 0.091961943 0.21740772 3092271
0.04215727 0.091961667 0.21740708 3092271
0.042549308 0.091961406 0.21740645 3092271
0.042941339 0.09196113 0.21740581 3092271
0.04333337 0.091960862 0.21740517 3092271
0.043725401 0.091960594 0.21740454 3092271
0.044117428 0.091960326 0.2174039 3092271
0.044509452 0.091960058 0.21740326 3092271
0.044901475 0.091959789 0.21740264 3092271
0.045293495 0.091959521 0.217402 3092271
0.045685511 0.091959246 0.21740136 3092271
0.046077531 0.091958985 0.21740073 3092271
0.046469543 0.091958717 0.21740009 3092271
0.046861552 0.091958441 0.21739945 3092271
0.047253564 0.09195818 0.21739882 3092271
0.047645569 0.091957904 0.21739818 3092271
0.048037574 0.091957644 0.21739756 3092271
0.048429575 0.091957368 0.21739691 3092271
0.048821572 0.0919571 0.21739627 3092271
0.049213573 0.091956832 0.21739565 3092271
0.049605567 0.091956563 0.21739501 3092271
0.049997557 0.091956295 0.21739437 3092271
0.050389551 0.091956027 0.21739374 3092271
0.050781537 0.091955759 0.2173931 3092271
0.051173523 0.091955483 0.21739246 3092271
0.051565509 0.091955222 0.21739183 3092271
0.051957488 0.091954947 0.21739119 3092271
0.052349467 0.091954678 0.21739055 3092271
0.052741446 0.091954418 0.21738993 3092271
0.053133417 0.091954142 0.21738929 3092271
0.053525388 0.091953874 0.21738864 3092271
0.05391736 0.091953605 0.21738802 3092271
0.054309327 0.091953337 0.21738738 3092271
0.054701291 0.091953069 0.21738674 3092271
0.055093255 0.091952801 0.21738611 3092271
0.055485215 0.091952533 0.21738547 3092271
0.055877175 0.091952264 0.21738485 3092271
0.056269132 0.091951996 0.2173842 3092271
0.056661084 0.09195172 0.21738356 3092271
0.057053037 0.09195146 0.21738294 3092271
0.057444986 0.091951184 0.2173823 3092271
0.057836931 0.091950916 0.21738166 3092271
0.058228876 0.091950655 0.21738103 3092271
0.058620818 0.091950379 0.21738039 3092271
0.059012756 0.091950111 0.21737975 3092271
0.059404697 0.091949843 0.21737912 3092271
0.059796631 0.091949575 0.21737848 3092271
0.060188562 0.091949299 0.21737784 3092271
0.060580496 0.091949038 0.21737722 3092271
0.060972422 0.09194877 0.21737657 3092271
0.061364349 0.091948494 0.21737593 3092271
0.061756276 0.091948234 0.21737531 3092271
0.062148195 0.091947958 0.21737467 3092271
0.062540114 0.091947697 0.21737404 3092271
0.062932029 0.091947421 0.2173734 3092271
0.063323945 0.091947153 0.21737276 3092271
0.06371586 0.091946885 0.21737213 3092271
0.064107768 0.091946617 0.21737149 3092271
0.064499676 0.091946349 0.21737085 3092271
0.064891584 0.09194608 0.21737023 3092271
0.065283485 0.091945812 0.21736959 3092271
0.065675385 0.091945536 0.21736895 3092271
0.066067286 0.091945276 0.21736832 3092271
0.066459179 0.091945007 0.21736768 3092271
0.066851079 0.091944739 0.21736705 3092271
0.067242973 0.091944471 0.21736641 3092271
0.067634858 0.091944195 0.21736577 3092271
0.068026744 0.091943935 0.21736515 3092271
0.068418629 0.091943659 0.2173645 3092271
0.068810515 0.091943391 0.21736386 3092271
0.069202393 0.091943122 0.21736324 3092271
0.069594271 0.091942854 0.2173626 3092271
0.069986142 0.091942586 0.21736196 3092271
0.07037802 0.091942318 0.21736133 3092271
0.070769891 0.09194205 0.21736069 3092271
0.071161762 0.091941774 0.21736005 3092271
0.071553625 0.091941513 0.21735942 3092271
0.071945488 0.091941237 0.21735878 3092271
0.072337359 0.091940977 0.21735816 3092271
0.072729215 0.091940708 0.21735752 3092271
0.073121071 0.091940433 0.21735688 3092271
0.073512927 0.091940172 0.21735625 3092271
0.073904783 0.091939896 0.21735561 3092271
0.074296631 0.091939628 0.21735497 3092271
0.074688479 0.09193936 0.21735434 3092271
0.075080328 0.091939092 0.2173537 3092271
0.075472169 0.091938823 0.21735306 3092271
0.07586401 0.091938555 0.21735243 3092271
0.07625585 0.091938287 0.21735179 3092271
0.076647691 0.091938019 0.21735117 3092271
0.077039517 0.091937751 0.21735053 3092271
0.077431351 0.091937475 0.21734989 3092271
0.077823184 0.091937214 0.21734926 3092271
0.07821501 0.091936946 0.21734862 3092271
0.078606836 0.09193667 0.21734798 3092271
0.078998663 0.091936409 0.21734735 3092271
0.079390481 0.091936134 0.21734671 3092271
0.0797823 0.091935873 0.21734609 3092271
0.080174118 0.091935597 0.21734545 3092271
0.080565929 0.091935329 0.21734481 3092271
0.080957741 0.091935061 0.21734418 3092271
0.081349552 0.091934793 0.21734354 3092271
0.081741355 0.091934524 0.2173429 3092271
0.082133166 0.091934256 0.21734227 3092271
0.082524963 0.091933988 0.21734163 3092271
0.082916759 0.091933712 0.21734099 3092271
0.083308563 0.091933452 0.21734037 3092271
0.083700359 0.091933176 0.21733972 3092271
0.084092155 0.091932915 0.2173391 3092271
0.084483944 0.091932647 0.21733846 3092271
0.084875733 0.091932371 0.21733782 3092271
0.085267521 0.09193211 0.21733719 3092271
0.085659303 0.091931835 0.21733655 3092271
0.086051084 0.091931567 0.21733591 3092271
0.086442865 0.091931298 0.21733528 3092271
0.086834639 0.09193103 0.21733464 3092271
0.087226421 0.091930762 0.21733402 3092271
0.087618187 0.091930494 0.21733338 3092271
0.088009961 0.091930225 0.21733274 3092271
0.088401727 0.091929957 0.21733211 3092271
0.088793494 0.091929689 0.21733147 3092271
0.089185253 0.091929413 0.21733083 3092271
0.089577019 0.091929153 0.2173302 3092271
0.089968778 0.091928877 0.21732956 3092271
0.090360537 0.091928616 0.21732894 3092271
0.090752289 0.091928348 0.2173283 3092271
0.09114404 0.091928072 0.21732765 3092271
0.091535792 0.091927812 0.21732703 3092271
0.091927536 0.091927536 0.21732639 3092271
0.09231928 0.091927268 0.21732575 3092271
0.092711031 0.091926999 0.21732512 3092271
0.093102768 0.091926731 0.21732448 3092271
0.093494512 0.091926463 0.21732385 3092271
0.093886241 0.091926195 0.21732321 3092271
0.09427797 0.091925927 0.21732257 3092271
0.094669707 0.091925658 0.21732195 3092271
0.095061436 0.09192539 0.21732131 3092271
0.095453158 0.091925114 0.21732067 3092271
0.095844887 0.091924854 0.21732004 3092271
0.096236609 0.091924585 0.2173194 3092271
0.096628331 0.091924317 0.21731877 3092271
0.097020052 0.091924049 0.21731813 3092271
0.097411759 0.091923773 0.21731749 3092271
0.097803481 0.091923513 0.21731687 3092271
0.098195188 0.091923237 0.21731623 3092271
0.098586895 0.091922969 0.21731558 3092271
0.098978601 0.0919227 0.21731496 3092271
0.039804999 0.092355438 0.21741086 3092271
0.040197048 0.092355162 0.21741022 3092271
0.040589094 0.092354894 0.21740958 3092271
0.04098114 0.092354625 0.21740896 3092271
0.041373182 0.092354357 0.21740831 3092271
0.04176522 0.092354082 0.21740767 3092271
0.042157263 0.092353821 0.21740705 3092271
0.042549297 0.092353545 0.21740641 3092271
0.042941332 0.092353269 0.21740577 3092271
0.043333363 0.092353009 0.21740514 3092271
0.043725394 0.092352733 0.2174045 3092271
0.044117417 0.092352465 0.21740386 3092271
0.044509444 0.092352197 0.21740323 3092271
0.044901468 0.092351921 0.21740259 3092271
0.045293484 0.092351653 0.21740195 3092271
0.045685504 0.092351384 0.21740133 3092271
0.04607752 0.092351116 0.21740068 3092271
0.046469532 0.092350841 0.21740004 3092271
0.046861544 0.09235058 0.21739942 3092271
0.047253553 0.092350304 0.21739878 3092271
0.047645558 0.092350028 0.21739814 3092271
0.048037563 0.092349768 0.21739751 3092271
0.048429564 0.092349492 0.21739687 3092271
0.048821565 0.092349224 0.21739623 3092271
0.049213562 0.092348956 0.2173956 3092271
0.049605556 0.092348687 0.21739496 3092271
0.04999755 0.092348419 0.21739434 3092271
0.050389539 0.092348143 0.2173937 3092271
0.050781526 0.092347875 0.21739306 3092271
0.051173516 0.092347607 0.21739243 3092271
0.051565498 0.092347339 0.21739179 3092271
0.051957477 0.092347063 0.21739115 3092271
0.052349459 0.092346795 0.21739052 3092271
0.052741434 0.092346527 0.21738988 3092271
0.053133406 0.092346251 0.21738924 3092271
0.053525381 0.09234599 0.21738862 3092271
0.053917348 0.092345715 0.21738797 3092271
0.054309316 0.092345446 0.21738733 3092271
0.054701284 0.092345178 0.21738671 3092271
0.055093244 0.092344902 0.21738607 3092271
0.055485204 0.092344634 0.21738543 3092271
0.055877164 0.092344366 0.2173848 3092271
0.05626912 0.092344098 0.21738416 3092271
0.056661077 0.09234383 0.21738353 3092271
0.057053026 0.092343554 0.21738289 3092271
0.057444975 0.092343286 0.21738225 3092271
0.057836924 0.092343017 0.21738163 3092271
0.058228865 0.092342749 0.21738099 3092271
0.058620807 0.092342474 0.21738034 3092271
0.059012748 0.092342205 0.21737972 3092271
0.059404686 0.092341937 0.21737908 3092271
0.05979662 0.092341661 0.21737844 3092271
0.060188554 0.092341401 0.21737781 3092271
0.060580485 0.092341125 0.21737717 3092271
0.060972411 0.092340857 0.21737653 3092271
0.061364338 0.092340589 0.2173759 3092271
0.061756261 0.092340313 0.21737526 3092271
0.062148184 0.092340045 0.21737462 3092271
0.062540106 0.092339776 0.217374 3092271
0.062932022 0.092339508 0.21737336 3092271
0.063323937 0.09233924 0.21737273 3092271
0.063715845 0.092338964 0.21737209 3092271
0.064107753 0.092338696 0.21737145 3092271
0.064499669 0.092338428 0.21737082 3092271
0.064891569 0.09233816 0.21737018 3092271
0.06528347 0.092337884 0.21736954 3092271
0.065675378 0.092337616 0.21736892 3092271
0.066067271 0.092337348 0.21736827 3092271
0.066459171 0.092337072 0.21736763 3092271
0.066851065 0.092336811 0.21736701 3092271
0.067242958 0.092336535 0.21736637 3092271
0.067634851 0.092336267 0.21736574 3092271
0.068026736 0.092335999 0.2173651 3092271
0.068418615 0.092335723 0.21736446 3092271
0.0688105 0.092335463 0.21736383 3092271
0.069202378 0.092335187 0.21736319 3092271
0.069594257 0.092334919 0.21736255 3092271
0.069986135 0.09233465 0.21736193 3092271
0.070378006 0.092334375 0.21736129 3092271
0.070769876 0.092334107 0.21736065 3092271
0.071161747 0.092333838 0.21736002 3092271
0.071553618 0.09233357 0.21735938 3092271
0.071945474 0.092333294 0.21735874 3092271
0.072337344 0.092333026 0.21735811 3092271
0.0727292 0.092332758 0.21735747 3092271
0.073121063 0.09233249 0.21735685 3092271
0.073512912 0.092332222 0.2173562 3092271
0.073904768 0.092331946 0.21735556 3092271
0.074296616 0.092331678 0.21735494 3092271
0.074688464 0.092331409 0.2173543 3092271
0.075080305 0.092331134 0.21735366 3092271
0.075472154 0.092330873 0.21735303 3092271
0.075863995 0.092330597 0.21735239 3092271
0.076255836 0.092330329 0.21735175 3092271
0.076647669 0.092330061 0.21735112 3092271
0.077039503 0.092329785 0.21735048 3092271
0.077431343 0.092329524 0.21734986 3092271
0.07782317 0.092329249 0.21734922 3092271
0.078214996 0.092328981 0.21734858 3092271
0.078606822 0.092328712 0.21734795 3092271
0.078998648 0.092328444 0.21734731 3092271
0.079390466 0.092328168 0.21734667 3092271
0.079782285 0.0923279 0.21734604 3092271
0.080174096 0.092327632 0.2173454 3092271
0.080565915 0.092327364 0.21734478 3092271
0.080957726 0.092327096 0.21734414 3092271
0.081349537 0.09232682 0.21734349 3092271
0.08174134 0.092326552 0.21734287 3092271
0.082133144 0.092326283 0.21734223 3092271
0.082524948 0.092326008 0.21734159 3092271
0.082916752 0.092325747 0.21734096 3092271
0.083308548 0.092325471 0.21734032 3092271
0.083700337 0.092325203 0.21733968 3092271
0.08409214 0.092324935 0.21733905 3092271
0.084483929 0.092324659 0.21733841 3092271
0.084875718 0.092324398 0.21733779 3092271
0.085267499 0.092324123 0.21733715 3092271
0.085659288 0.092323855 0.21733651 3092271
0.086051069 0.092323586 0.21733588 3092271
0.086442851 0.092323311 0.21733524 3092271
0.086834624 0.092323042 0.2173346 3092271
0.087226398 0.092322774 0.21733397 3092271
0.087618172 0.092322506 0.21733333 3092271
0.088009946 0.092322238 0.21733271 3092271
0.088401712 0.092321962 0.21733207 3092271
0.088793471 0.092321694 0.21733142 3092271
0.089185245 0.092321426 0.2173308 3092271
0.089577004 0.092321157 0.21733016 3092271
0.089968756 0.092320882 0.21732952 3092271
0.090360522 0.092320614 0.21732889 3092271
0.090752274 0.092320345 0.21732825 3092271
0.091144025 0.092320077 0.21732762 3092271
0.091535777 0.092319809 0.21732698 3092271
0.091927521 0.092319533 0.21732634 3092271
0.092319265 0.092319265 0.21732572 3092271
0.092711009 0.092318997 0.21732508 3092271
0.093102746 0.092318721 0.21732444 3092271
0.09349449 0.09231846 0.21732381 3092271
0.093886226 0.092318185 0.21732317 3092271
0.094277963 0.092317916 0.21732254 3092271
0.094669692 0.092317648 0.2173219 3092271
0.095061414 0.092317373 0.21732126 3092271
0.095453151 0.092317112 0.21732064 3092271
0.095844872 0.092316836 0.21732 3092271
0.096236587 0.092316568 0.21731935 3092271
0.096628316 0.0923163 0.21731873 3092271
0.09702003 0.092316024 0.21731809 3092271
0.097411752 0.092315763 0.21731746 3092271
0.097803459 0.092315488 0.21731682 3092271
0.098195165 0.092315219 0.21731618 3092271
0.09858688 0.092314951 0.21731555 2631720
0.039020881 0.092748128 0.21741208 3092271
0.039412934 0.092747852 0.21741144 3092271
0.039804988 0.092747584 0.21741082 3092271
0.040197037 0.092747316 0.21741018 3092271
0.040589087 0.092747048 0.21740955 3092271
0.040981133 0.092746772 0.21740891 3092271
0.041373175 0.092746496 0.21740827 3092271
0.041765217 0.092746235 0.21740764 3092271
0.042157255 0.09274596 0.217407 3092271
0.04254929 0.092745684 0.21740636 3092271
0.042941324 0.092745416 0.21740574 3092271
0.043333355 0.092745148 0.2174051 3092271
0.043725383 0.092744872 0.21740445 3092271
0.044117413 0.092744604 0.21740383 3092271
0.044509437 0.092744328 0.21740319 3092271
0.044901457 0.09274406 0.21740255 3092271
0.04529348 0.092743792 0.21740192 3092271
0.045685496 0.092743516 0.21740128 3092271
0.046077512 0.092743248 0.21740064 3092271
0.046469525 0.09274298 0.21740001 3092271
0.046861537 0.092742704 0.21739937 3092271
0.047253542 0.092742428 0.21739873 3092271
0.04764555 0.092742167 0.21739811 3092271
0.048037555 0.092741892 0.21739747 3092271
0.048429556 0.092741616 0.21739683 3092271
0.048821557 0.092741348 0.2173962 3092271
0.049213551 0.09274108 0.21739556 3092271
0.049605545 0.092740804 0.21739492 3092271
0.049997542 0.092740536 0.21739429 3092271
0.050389528 0.09274026 0.21739365 3092271
0.050781518 0.092739999 0.21739303 3092271
0.051173504 0.092739724 0.21739239 3092271
0.051565487 0.092739448 0.21739174 3092271
0.051957469 0.09273918 0.21739112 3092271
0.052349448 0.092738912 0.21739048 3092271
0.052741423 0.092738636 0.21738984 3092271
0.053133398 0.092738368 0.21738921 3092271
0.05352537 0.092738092 0.21738857 3092271
0.053917337 0.092737824 0.21738793 3092271
0.054309309 0.092737556 0.2173873 3092271
0.054701272 0.09273728 0.21738666 3092271
0.055093233 0.092737012 0.21738602 3092271
0.055485196 0.092736743 0.2173854 3092271
0.055877153 0.092736468 0.21738476 3092271
0.056269109 0.092736192 0.21738411 3092271
0.056661062 0.092735931 0.21738349 3092271
0.057053015 0.092735656 0.21738285 3092271
0.05744496 0.09273538 0.21738221 3092271
0.057836909 0.092735112 0.21738158 3092271
0.058228854 0.092734843 0.21738094 3092271
0.058620799 0.092734575 0.21738032 3092271
0.059012737 0.0927343 0.21737967 3092271
0.059404671 0.092734024 0.21737903 3092271
0.059796609 0.092733763 0.21737841 3092271
0.060188543 0.092733487 0.21737777 3092271
0.06058047 0.092733212 0.21737713 3092271
0.060972404 0.092732944 0.2173765 3092271
0.061364327 0.092732675 0.21737586 3092271
0.06175625 0.0927324 0.21737522 3092271
0.062148172 0.092732131 0.21737459 3092271
0.062540092 0.092731856 0.21737395 3092271
0.062932007 0.092731588 0.21737331 3092271
0.063323922 0.092731319 0.21737269 3092271
0.063715838 0.092731044 0.21737204 3092271
0.064107746 0.092730775 0.21737142 3092271
0.064499654 0.092730507 0.21737078 3092271
0.064891554 0.092730232 0.21737014 3092271
0.065283462 0.092729963 0.21736951 3092271
0.065675363 0.092729695 0.21736887 3092271
0.066067263 0.092729419 0.21736823 3092271
0.066459157 0.092729151 0.2173676 3092271
0.06685105 0.092728876 0.21736696 3092271
0.067242943 0.092728607 0.21736632 3092271
0.067634836 0.092728339 0.2173657 3092271
0.068026721 0.092728063 0.21736506 3092271
0.068418607 0.092727795 0.21736443 3092271
0.068810485 0.092727527 0.21736379 3092271
0.069202363 0.092727251 0.21736315 3092271
0.069594249 0.092726983 0.21736252 3092271
0.06998612 0.092726707 0.21736188 3092271
0.070377991 0.092726439 0.21736124 3092271
0.070769869 0.092726171 0.21736062 3092271
0.071161732 0.092725895 0.21735997 3092271
0.071553603 0.09272562 0.21735933 3092271
0.071945466 0.092725359 0.21735871 3092271
0.072337329 0.092725083 0.21735807 3092271
0.072729185 0.092724808 0.21735743 3092271
0.073121049 0.092724539 0.2173568 3092271
0.073512897 0.092724271 0.21735616 3092271
0.073904753 0.092724003 0.21735553 3092271
0.074296601 0.092723727 0.21735489 3092271
0.07468845 0.092723459 0.21735425 3092271
0.075080298 0.092723191 0.21735363 3092271
0.075472139 0.092722915 0.21735299 3092271
0.07586398 0.092722639 0.21735235 3092271
0.076255821 0.092722371 0.21735172 3092271
0.076647654 0.092722103 0.21735108 3092271
0.077039488 0.092721827 0.21735044 3092271
0.077431329 0.092721559 0.21734981 3092271
0.077823155 0.092721291 0.21734917 3092271
0.078214981 0.092721023 0.21734855 3092271
0.078606807 0.092720747 0.21734791 3092271
0.078998625 0.092720471 0.21734726 3092271
0.079390451 0.092720211 0.21734664 3092271
0.07978227 0.092719935 0.217346 3092271
0.080174081 0.092719659 0.21734536 3092271
0.0805659 0.092719391 0.21734473 3092271
0.080957711 0.092719123 0.21734409 3092271
0.081349522 0.092718855 0.21734346 3092271
0.081741326 0.092718579 0.21734282 3092271
0.082133129 0.092718303 0.21734218 3092271
0.082524933 0.092718042 0.21734156 3092271
0.082916737 0.092717767 0.21734092 3092271
0.083308533 0.092717491 0.21734028 3092271
0.083700329 0.092717223 0.21733965 3092271
0.084092118 0.092716955 0.21733901 3092271
0.084483907 0.092716679 0.21733837 3092271
0.084875703 0.092716411 0.21733774 3092271
0.085267484 0.092716135 0.2173371 3092271
0.085659273 0.092715874 0.21733648 3092271
0.086051054 0.092715599 0.21733584 3092271
0.086442828 0.092715323 0.21733519 3092271
0.08683461 0.092715055 0.21733457 3092271
0.087226383 0.092714787 0.21733393 3092271
0.08761815 0.092714511 0.21733329 3092271
0.088009931 0.092714243 0.21733266 3092271
0.08840169 0.092713974 0.21733202 3092271
0.088793464 0.092713706 0.21733139 3092271
0.089185223 0.092713431 0.21733075 3092271
0.089576982 0.092713155 0.21733011 3092271
0.089968748 0.092712894 0.21732949 3092271
0.0903605 0.092712618 0.21732885 3092271
0.090752251 0.092712343 0.21732821 3092271
0.09114401 0.092712075 0.21732758 3092271
0.091535755 0.092711806 0.21732694 3092271
0.091927506 0.092711538 0.21732631 3092271
0.09231925 0.092711262 0.21732567 3092271
0.092710987 0.092710987 0.21732503 3092271
0.093102731 0.092710726 0.21732441 3092271
0.093494467 0.09271045 0.21732377 3092271
0.093886204 0.092710175 0.21732312 3092271
0.094277941 0.092709906 0.2173225 3092271
0.09466967 0.092709638 0.21732186 3092271
0.095061406 0.09270937 0.21732123 3092271
0.095453128 0.092709094 0.21732059 3092271
0.09584485 0.092708819 0.21731995 3092271
0.096236579 0.092708558 0.21731932 3092271
0.096628293 0.092708282 0.21731868 3092271
0.097020015 0.092708014 0.21731806 3092271
0.097411729 0.092707738 0.21731742 3092271
0.097803436 0.09270747 0.21731678 2631720
0.038628817 0.09314055 0.21741268 3092271
0.039020874 0.093140274 0.21741204 3092271
0.039412931 0.093140006 0.21741141 3092271
0.03980498 0.093139738 0.21741077 3092271
0.04019703 0.093139462 0.21741013 3092271
0.040589079 0.093139194 0.21740951 3092271
0.040981125 0.093138918 0.21740887 3092271
0.041373167 0.093138643 0.21740822 3092271
0.041765209 0.093138374 0.2174076 3092271
0.042157244 0.093138099 0.21740696 3092271
0.042549279 0.093137823 0.21740632 3092271
0.042941317 0.093137555 0.21740569 3092271
0.043333348 0.093137287 0.21740505 3092271
0.043725379 0.093137018 0.21740443 3092271
0.044117402 0.093136743 0.21740378 3092271
0.044509426 0.093136467 0.21740314 3092271
0.044901453 0.093136199 0.21740252 3092271
0.045293469 0.093135923 0.21740188 3092271
0.045685485 0.093135647 0.21740124 3092271
0.046077505 0.093135379 0.21740061 3092271
0.046469517 0.093135104 0.21739997 3092271
0.046861526 0.093134835 0.21739933 3092271
0.047253538 0.093134567 0.2173987 3092271
0.047645543 0.093134291 0.21739806 3092271
0.048037544 0.093134016 0.21739742 3092271
0.048429549 0.093133748 0.2173968 3092271
0.048821546 0.093133472 0.21739615 3092271
0.049213544 0.093133196 0.21739551 3092271
0.049605541 0.093132928 0.21739489 3092271
