# .PCD v0.7 - Point Cloud Data file format
VERSION 0.7
FIELDS x y z rgb
SIZE 4 4 4 4
TYPE F F F U
COUNT 1 1 1 1
WIDTH 1138
HEIGHT 1
VIEWPOINT 0 0 0 1 0 0 0
POINTS 1138
DATA ascii
0.040296525 0.17183921 0.51355624 4342338
0.041307673 0.17219265 0.51461256 4802889
0.042322986 0.17254755 0.51567322 4276545
0.043337468 0.17288387 0.51667833 4868682
0.044492558 0.17375515 0.51928222 5262667
0.045721825 0.1748742 0.52262658 5460046
0.046947401 0.17593421 0.52579451 6772298
0.048131816 0.17680104 0.5283851 7297610
0.049285874 0.17752485 0.53054827 7364690
-0.0055732178 0.18898274 0.56176281 6574403
-0.0045384937 0.18809536 0.55912501 6574403
-0.0035126933 0.18717638 0.55639327 6574403
-0.0024968679 0.18626635 0.55368817 6574403
-0.0014909189 0.18537092 0.55102646 6640453
-0.00049515837 0.18469407 0.54901445 6904142
0.00049335684 0.18402211 0.54701704 7498083
0.0014747055 0.18335505 0.54503417 7431775
0.0024491686 0.18270797 0.54311067 6508096
0.0034167939 0.18206629 0.54120326 6242866
0.0043775989 0.18142715 0.53930336 5910815
0.0053316811 0.18079247 0.5374167 5645841
0.0062786574 0.18014917 0.53550446 5909007
0.0072197393 0.17953086 0.53366649 6107148
0.0081569906 0.17897397 0.53201115 5315859
0.0090827867 0.17830946 0.53003579 5316376
0.0099981716 0.17758657 0.52788699 6044722
0.010906983 0.17688282 0.52579504 6442047
0.011808622 0.17618464 0.52371967 6574403
0.012712391 0.17561932 0.52203923 6574403
0.0136115 0.17507206 0.52041245 6706247
0.01449979 0.17446521 0.51860857 7102293
0.015381941 0.17386255 0.51681709 7828078
0.01625802 0.17326404 0.51503801 7432032
0.017145406 0.17284425 0.51379013 6837833
0.018050097 0.17263298 0.51316214 6640196
0.01895258 0.17242226 0.51253575 6640196
0.019852862 0.17221203 0.51191086 6640196
0.020750951 0.17200233 0.51128751 6640196
0.021646855 0.17179313 0.51066566 6640196
0.022540582 0.17158444 0.51004529 6640196
0.023432143 0.17137626 0.50942647 6574403
0.024321541 0.1711686 0.50880915 6574403
0.025207575 0.1709532 0.50816888 6574404
0.026091205 0.17073718 0.50752676 6574660
0.026972605 0.17052172 0.5068863 6641483
0.027850073 0.17029634 0.50621635 6774872
0.02872966 0.17009783 0.50562626 6908007
0.029674793 0.17028765 0.50619054 6645093
0.030625992 0.17049992 0.50682151 5395026
0.03157445 0.17068507 0.50737184 3487029
0.032524962 0.17087059 0.50792331 4605510
0.033477549 0.17105652 0.50847602 5723991
0.03443221 0.17124286 0.50902992 5658198
0.035388954 0.1714296 0.50958502 5066061
0.03634778 0.17161675 0.51014131 5855577
0.037336189 0.17193085 0.51107502 6381921
0.038336381 0.17228277 0.51212114 4013373
0.039340682 0.17263617 0.51317161 4342338
0.040345851 0.17297705 0.51418489 4737096
0.041347936 0.17328967 0.51511419 3223857
0.042353652 0.17360343 0.51604688 3158064
0.043372832 0.17395771 0.51709998 4671302
0.044566784 0.17498326 0.52014852 5197131
0.045789238 0.17607614 0.52339715 5723217
0.046992932 0.17705418 0.52630442 7100489
0.04811408 0.17768863 0.52819037 7297610
0.049295075 0.17851518 0.53064734 6444620
-0.0055769002 0.19012161 0.56213403 6574403
-0.0045427284 0.18928035 0.55964667 6574403
-0.0035161474 0.18836504 0.55694038 6574403
-0.002499311 0.18744832 0.55422992 6574403
-0.0014930747 0.18663433 0.5518232 6574403
-0.00049590931 0.18596599 0.54984707 6640454
0.00049410114 0.18528792 0.54784226 6838090
0.0014769183 0.18461479 0.54585201 7234137
0.0024526205 0.18394653 0.54387617 6640197
0.0034209325 0.18326424 0.54185879 6507838
0.0043828827 0.18262011 0.5399543 6176563
0.0053380942 0.18198048 0.53806311 5778976
0.0062864409 0.18133964 0.53616834 5711633
0.007227825 0.18069562 0.53426415 5777424
0.0081640175 0.18008862 0.53246945 5645584
0.0090952087 0.17951071 0.53076071 5645844
0.010010368 0.17875658 0.52853096 6044464
0.010919736 0.17803916 0.5264098 6442046
0.011822373 0.17733559 0.52432954 6574403
0.012723559 0.17671609 0.52249783 6574403
0.013625712 0.17619455 0.5209558 6574403
0.014522082 0.17567036 0.5194059 6706247
0.015406648 0.17507553 0.51764721 7300188
0.016284041 0.17447187 0.51586235 7827821
0.017155409 0.17387238 0.51408982 7168086
0.018055955 0.17361495 0.51332867 6640196
0.018958723 0.17340295 0.51270187 6640196
0.019859288 0.17319146 0.51207656 6640196
0.02075766 0.1729805 0.51145279 6640196
0.021653848 0.17277005 0.51083058 6640196
0.022547854 0.1725601 0.5102098 6640196
0.02343969 0.17235067 0.50959057 6640196
0.024329368 0.17214176 0.50897288 6640196
0.025216889 0.17193334 0.50835663 6640196
0.026102263 0.17172541 0.50774187 6640710
0.026985498 0.171518 0.5071286 6708565
0.027866602 0.17131108 0.50651681 6973282
0.028753038 0.17114905 0.50603771 7039592
0.029691638 0.17129792 0.50647789 6645093
0.030635592 0.17146786 0.50698036 5723991
0.031584352 0.17165409 0.50753099 4342338
0.032535177 0.17184073 0.50808281 5263440
0.033488069 0.17202777 0.50863582 5723991
0.034443043 0.17221522 0.50919008 6118749
0.0354001 0.17240308 0.50974554 5921370
0.036387168 0.17272389 0.51069409 6381921
0.037382975 0.17306933 0.51171541 5460819
0.038374905 0.1733806 0.51263577 2763306
0.039370418 0.17369303 0.51355952 5197647
0.040369522 0.17400657 0.51448655 4408131
0.041372243 0.17432125 0.51541698 2960685
0.042387534 0.1746739 0.5164597 3223857
0.043421898 0.1750883 0.51768494 4539716
0.04464126 0.1762155 0.52101773 5263181
0.045856845 0.17728162 0.52416992 6051667
0.046975676 0.17793818 0.52611119 7232075
0.048096351 0.17857556 0.52799577 7231818
0.049304284 0.17950588 0.53074646 6444620
-0.0055805887 0.19126199 0.56250578 6574403
-0.0045457189 0.1904151 0.56001508 6574403
-0.0035196079 0.18955602 0.5574885 6574403
-0.0025017587 0.18863261 0.55477273 6574403
-0.0014949177 0.18786132 0.55250436 6574403
-0.0004966163 0.18722434 0.55063099 6574403
0.00049483124 0.18655138 0.54865175 6640197
0.0014790928 0.18587266 0.54665565 6640453
0.0024562185 0.18519887 0.54467404 6640196
0.0034260396 0.1845167 0.54266775 6574403
0.0043881792 0.18381594 0.5406068 6442046
0.0053445227 0.18317136 0.53871107 6110771
0.006294182 0.18253128 0.53682858 5844767
0.0072367648 0.18188402 0.53492498 5777425
0.0081726061 0.18123956 0.53302962 6107149
0.0091040684 0.18064389 0.53127772 5975055
0.010024021 0.17995505 0.52925181 6109996
0.010932697 0.17920117 0.52703464 6441790
0.011836156 0.17848924 0.52494085 6574403
0.012734682 0.1778139 0.52295464 6574403
0.013637802 0.17729142 0.52141804 6574403
0.014535251 0.17676741 0.5198769 6574403
0.01542707 0.17624259 0.51833338 6838348
0.016310148 0.17568359 0.51668936 7564133
0.017182816 0.17507896 0.51491112 7827820
0.018061817 0.17459756 0.51349533 7101778
0.01896487 0.1743843 0.51286811 6772297
0.019865721 0.17417155 0.51224244 6640196
0.020764375 0.17395933 0.51161826 6640196
0.02166084 0.1737476 0.51099557 6640196
0.02255513 0.1735364 0.51037443 6640196
0.023447247 0.17332573 0.50975484 6640196
0.024337199 0.17311554 0.50913668 6640196
0.025224997 0.17290588 0.50852007 6640196
0.026116217 0.17273358 0.50801331 6641999
0.02700712 0.17257091 0.50753492 6709339
0.027896345 0.17240857 0.50705743 7039333
0.028783903 0.17224653 0.50658089 7302507
0.029718535 0.1723675 0.50693667 6513507
0.030662604 0.17253436 0.50742739 6184542
0.0316085 0.17270151 0.50791901 5197647
0.032556236 0.17286901 0.50841165 5329233
0.033505809 0.17303684 0.50890523 4934475
0.034457229 0.173205 0.50939977 5000268
0.035430349 0.17347068 0.51018113 6052956
0.036415804 0.17378175 0.511096 6381921
0.037404798 0.17409393 0.51201415 5263440
0.038397353 0.17440726 0.51293564 4013373
0.039393488 0.17472172 0.51386046 4934475
0.040393226 0.17503731 0.51478863 4473924
0.041404676 0.17538835 0.51582104 3684408
0.042423178 0.17575316 0.51689398 3158064
0.043494109 0.17631483 0.51854587 4671046
0.044707201 0.177417 0.52178735 5460561
0.045846205 0.17818578 0.52404833 6183511
0.046958439 0.17882153 0.52591813 7166540
0.048093218 0.17951627 0.52796137 7231818
0.049313497 0.18049698 0.53084564 6444620
-0.0055842809 0.19240385 0.56287795 6574403
-0.0045487131 0.19155136 0.56038398 6574403
-0.0035222815 0.19070639 0.55791199 6574403
-0.0025042116 0.18981923 0.55531663 6574403
-0.0014967653 0.18909134 0.55318719 6574403
-0.00049726211 0.18846233 0.55134702 6574403
0.00049553264 0.18780687 0.54942948 6574403
0.0014812737 0.18713425 0.54746169 6574404
0.0024598271 0.18645489 0.54547423 6574403
0.0034313011 0.18578044 0.54350114 6574403
0.0043948651 0.18507265 0.54143047 6574403
0.0053510857 0.18436922 0.53937262 6442046
0.0063017444 0.18372008 0.53747356 6111026
0.0072457269 0.18307537 0.53558743 5910814
0.0081826914 0.18242587 0.53368735 5514003
0.0091130314 0.18178099 0.53180075 6172942
0.01003771 0.18115677 0.52997458 6175785
0.010947566 0.18039684 0.52775139 6441533
0.011849972 0.17964558 0.52555358 6574403
0.012747477 0.17893681 0.52348006 6574403
0.013649701 0.17838748 0.521873 6574403
0.014548275 0.17786439 0.52034271 6574403
0.015441031 0.1773379 0.51880246 6574403
0.016328329 0.17681247 0.51726532 7036243
0.017210312 0.17628941 0.51573509 7893871
0.018078281 0.17568381 0.5139634 7629926
0.018971022 0.17536627 0.51303446 7233879
0.019872157 0.17515226 0.51240838 6706246
0.020771094 0.17493877 0.51178378 6640196
0.021667842 0.17472579 0.51116073 6640196
0.022562409 0.17451333 0.51053917 6640196
0.023458727 0.17433053 0.5100044 6574403
0.024355629 0.17416573 0.50952226 6574403
0.025250841 0.17400125 0.50904107 6574918
0.026144359 0.17383705 0.50856072 6707793
0.027036194 0.17367318 0.50808132 6775645
0.02792635 0.17350961 0.50760281 7170920
0.02881483 0.17334636 0.5071252 7368557
0.029745478 0.17343903 0.50739628 6513507
0.030690428 0.17360705 0.50788784 6381921
0.031637214 0.17377542 0.50838041 5000268
0.032585837 0.17394412 0.50887394 4276545
0.033536512 0.17411423 0.50937158 4079166
0.034495525 0.17431739 0.50996596 4934475
0.035456777 0.17452101 0.51056165 5000268
0.036437042 0.17480555 0.51139408 5197647
0.037426651 0.17511977 0.51231331 5263440
0.038419828 0.17543511 0.51323587 4737096
0.039416589 0.17575161 0.51416177 5066061
0.040424243 0.17610101 0.51518393 5131854
0.041439448 0.17646687 0.51625425 4210752
0.042458881 0.17683423 0.51732898 3618615
0.043566566 0.17754547 0.51940972 4671303
0.044725556 0.17843142 0.52200156 5460819
0.045829445 0.17906557 0.52385676 6183768
0.046941217 0.17970426 0.52572525 7101005
0.048102163 0.18050218 0.52805954 7166282
0.049322709 0.18148842 0.53094482 6444620
-0.0066946899 0.19620591 0.57098776 4932413
-0.0056151054 0.19448683 0.56598496 6574403
-0.004551712 0.19268914 0.56075341 6574403
-0.0035245931 0.19183856 0.55827814 6574403
-0.0025065027 0.1909955 0.5558247 6574403
-0.0014986175 0.19032443 0.55387175 6574403
-0.00049787544 0.18969053 0.55202705 6574403
0.00049620244 0.18905312 0.55017209 6574403
0.0014833612 0.18838687 0.54823321 6574403
0.002463446 0.18771459 0.54627675 6574403
0.0034363312 0.18703459 0.54429787 6574403
0.0044016223 0.18633536 0.54226297 6574403
0.0053592823 0.18562604 0.5401988 6574403
0.0063096783 0.18492211 0.53815025 6442046
0.0072545782 0.18426628 0.53624171 6176562
0.0081928009 0.18361513 0.53434676 5581345
0.0091242511 0.18296525 0.5324555 5910298
0.010049131 0.18231994 0.53057754 6307625
0.010962474 0.18159577 0.5284701 6441532
0.011865889 0.18083614 0.52625948 6574403
0.012762315 0.18009044 0.5240894 6574403
0.013661623 0.17948546 0.52232879 6574403
0.014560943 0.17895868 0.52079582 6574403
0.015454999 0.178435 0.51927179 6574403
0.016343074 0.17790604 0.51773244 6640197
0.01722588 0.17738001 0.51620162 7365724
0.018103478 0.17685707 0.51467979 7893872
0.018977178 0.17634889 0.51320094 7761770
0.019878596 0.17613362 0.51257443 7431774
0.020780321 0.17594007 0.51201117 6838348
0.021683294 0.1757731 0.51152527 6574403
0.022584554 0.17560643 0.51104027 6574403
0.023484105 0.17544009 0.51055616 6574403
0.024381952 0.17527404 0.51007295 6574403
0.025278104 0.17510831 0.50959069 6575175
0.026172565 0.17494293 0.50910938 6708308
0.027065333 0.17477782 0.5086289 6907232
0.027956421 0.17461306 0.50814939 7368041
0.028845826 0.17444856 0.5076707 7434606
0.029772472 0.17451249 0.50785673 6513507
0.030718306 0.17468171 0.50834918 6316128
0.031665981 0.17485127 0.50884265 4408131
0.03261679 0.17502813 0.50935733 3158064
0.033574704 0.17523235 0.50995165 3421236
0.034534853 0.17543705 0.51054734 3881787
0.035497248 0.17564224 0.51114446 2763306
0.036461893 0.17584787 0.51174289 5000268
0.037448533 0.17614681 0.51261282 5592405
0.038442329 0.17646419 0.51353645 4868682
0.039446231 0.17681192 0.51454842 5000268
0.04045815 0.17717879 0.51561606 4408131
0.041474279 0.1775472 0.51668817 4605510
0.04249464 0.17791711 0.51776469 4013373
0.043613624 0.17867516 0.51997072 4934475
0.044709273 0.17930771 0.52181154 5329233
0.045812704 0.17994474 0.52366537 6118233
0.046924002 0.18058631 0.52553242 7035470
0.0481111 0.18148839 0.52815765 7166282
0.04933193 0.18248025 0.53104407 5590086
-0.0066761635 0.19669005 0.56940764 5589055
-0.0055997022 0.19497146 0.56443238 6574403
-0.0045560086 0.19388348 0.56128275 6574403
-0.0035289195 0.1930823 0.55896342 6574403
-0.0025102841 0.19228776 0.55666322 6574403
-0.0015004778 0.191561 0.55455929 6574403
-0.00049849018 0.19092174 0.55270869 6574403
0.00049683335 0.19028719 0.55087167 6574403
0.0014853616 0.18963116 0.54897255 6574403
0.0024668975 0.18896435 0.54704213 6574403
0.0034413759 0.18829241 0.54509693 6574403
0.004408401 0.18760197 0.54309809 6574403
0.005367504 0.18688673 0.54102755 6574403
0.0063193217 0.18617694 0.53897274 6574403
0.007263937 0.18547252 0.53693348 6442046
0.0082029365 0.18480733 0.53500777 6111284
0.0091354977 0.18415241 0.53311181 6043690
0.01006087 0.18349111 0.53119737 6308400
0.010980363 0.1828469 0.52933246 6442046
0.011884629 0.18207251 0.52709061 6574146
0.01277989 0.1812851 0.52481109 6574403
0.013673564 0.18058535 0.52278537 6574403
0.014573634 0.18005489 0.52124971 6574403
0.015468431 0.17952754 0.51972306 6574403
0.016357847 0.17900157 0.5182004 6574403
0.017241402 0.1784718 0.51666677 6772554
0.018119747 0.1779452 0.51514226 7498082
0.01899766 0.17746595 0.51375484 7893872
0.01989487 0.17720315 0.51299405 7761770
0.020801922 0.17704748 0.51254338 7432288
0.021706823 0.17688751 0.51208031 6969935
0.022609036 0.17671961 0.51159424 6640454
0.023509538 0.17655201 0.51110905 6574403
0.024408333 0.17638475 0.51062483 6574403
0.025305429 0.17621781 0.51014155 6575176
0.026200825 0.17605115 0.50965911 6577235
0.027094536 0.17588486 0.50917768 6973281
0.027986553 0.17571884 0.50869709 7434091
0.028876889 0.17555314 0.50821739 7828850
0.029799514 0.17558791 0.50831801 6381920
0.030746233 0.17575832 0.50881135 5395026
0.031697121 0.175942 0.50934309 3158064
0.032653935 0.1761473 0.50993741 2434341
0.033612981 0.17635304 0.51053303 3684408
0.03457427 0.17655928 0.51113009 3618615
0.035537813 0.17676599 0.51172853 3289650
0.036503613 0.17697321 0.51232839 5395026
0.037471682 0.17718092 0.51292968 5460819
0.038470626 0.17752108 0.51391447 4934475
0.039479274 0.17788897 0.51497948 5329233
0.040492114 0.17825839 0.51604891 4737096
0.041510392 0.17863461 0.51713806 4605510
0.042533115 0.179013 0.51823348 4210752
0.04359781 0.17954797 0.51978219 4934475
0.044692997 0.18018335 0.52162158 5592405
0.04579597 0.18082327 0.5234741 6118491
0.046912145 0.18148839 0.52539963 7035470
0.048120048 0.18247503 0.52825588 7166282
0.04934115 0.18347242 0.53114331 5590085
-0.0066736573 0.19764294 0.5691939 5654848
-0.0056119021 0.19641657 0.56566209 6574403
-0.0045632413 0.19520532 0.56217378 6574403
-0.0035345049 0.19439778 0.55984813 6574403
-0.0025142406 0.19359653 0.5575406 6574403
-0.0015023699 0.19280413 0.55525857 6574403
-0.00049910753 0.1921564 0.55339319 6574403
0.00049744564 0.19151656 0.55155051 6574403
0.0014873676 0.19087884 0.54971391 6574403
0.0024702169 0.19020671 0.54777825 6574403
0.0034461692 0.1895393 0.54585618 6574403
0.0044150907 0.18886776 0.54392219 6574403
0.0053757513 0.1881513 0.54185885 6574403
0.0063289944 0.18743561 0.53979772 6574403
0.0072750133 0.18672533 0.53775221 6574403
0.0082139326 0.18602142 0.535725 6442047
0.0091458745 0.1853243 0.53371733 6441790
0.010071727 0.18464835 0.53177065 6573119
0.01099085 0.18397728 0.52983803 6574146
0.011907444 0.18337464 0.52810252 6574403
0.012805791 0.18260109 0.52587473 6574403
0.013695019 0.18181318 0.52360564 6574403
0.014588228 0.18117639 0.52177173 6574403
0.015481883 0.18062197 0.52017504 6574403
0.016372187 0.18009405 0.5186547 6574403
0.017256955 0.17956561 0.51713282 6640197
0.018136043 0.17903529 0.51560557 6970192
0.019029694 0.17869347 0.51462114 7695977
0.019921094 0.17836329 0.51367027 7893871
0.020816885 0.1781 0.51291203 7893615
0.02172298 0.17794356 0.51246148 7695719
0.022627488 0.17778741 0.51201177 7102293
0.023530407 0.1776315 0.51156276 6838091
0.024431745 0.17747588 0.5111146 6640712
0.025331505 0.17732053 0.5106672 6510155
0.026229151 0.17716181 0.5102101 6446164
0.027123798 0.17699426 0.5097276 6907231
0.028016752 0.17682704 0.50924599 7565676
0.02890802 0.17666012 0.50876528 7894643
0.029826604 0.17666528 0.50878012 5329233
0.030777508 0.17685583 0.5093289 2960684
0.031733219 0.17706215 0.5099231 2565927
0.032691162 0.17726898 0.51051873 3487029
0.033654239 0.17749153 0.51115966 3750201
0.034631647 0.1777758 0.51197833 3750201
0.035612196 0.17806098 0.51279962 4473924
0.036566861 0.17820558 0.51321608 4276545
0.037510466 0.17829049 0.51346058 3158064
0.03851749 0.17866546 0.51454049 4408131
0.039528754 0.179042 0.51562488 5197647
0.040544294 0.17942014 0.51671392 5789784
0.041562632 0.17979342 0.51778889 5526612
0.042587787 0.1801791 0.51889962 5131854
0.043644518 0.18067892 0.52033907 5000268
0.044707127 0.18118152 0.52178651 5658198
0.045779251 0.18170115 0.523283 6184540
0.046920817 0.18246984 0.52549678 6970191
0.048128996 0.18346201 0.52835411 7166282
0.049350381 0.18446501 0.53124267 5590085
-0.0056265038 0.19795063 0.5671339 6377282
-0.0045750416 0.19672678 0.56362754 6574403
-0.0035396309 0.19569103 0.56066006 6574403
-0.0025182101 0.19490945 0.55842084 6574403
-0.0015047143 0.19410814 0.55612504 6574403
-0.00049973559 0.19339767 0.55408955 6574403
0.00049806031 0.19274934 0.55223203 6574403
0.0014892162 0.1921089 0.55039716 6574403
0.0024735457 0.19145244 0.54851639 6574403
0.0034507967 0.19077976 0.54658914 6574403
0.0044212043 0.19011179 0.54467541 6574403
0.005384224 0.18942679 0.54271287 6574403
0.0063390587 0.1887089 0.54065609 6574403
0.0072866832 0.18799642 0.53861481 6574403
0.0082271788 0.18728931 0.53658891 6574403
0.0091575244 0.18652432 0.53439718 6640197
0.010082608 0.18580806 0.53234512 7036243
0.011002681 0.18513207 0.53040838 6904142
0.01191787 0.18448862 0.52856487 6640453
0.012830229 0.18389994 0.5268783 6574403
0.013722713 0.18312724 0.52466446 6574403
0.014605957 0.18233888 0.5224058 6574403
0.015500234 0.18177548 0.52079165 6574403
0.016389389 0.18121982 0.51919967 6574403
0.017273124 0.18066755 0.5176174 6574403
0.018165678 0.18025942 0.51644808 6574404
0.019061837 0.17992516 0.51549041 6904141
0.01995468 0.17959212 0.51453626 7629926
0.020844225 0.17926033 0.51358569 7828078
0.021738606 0.17899659 0.51283008 7498082
0.022643749 0.1788394 0.51237971 7299929
0.023547301 0.17868246 0.51193005 6970964
0.02444927 0.17852581 0.51148123 6774100
0.025349662 0.17836943 0.51103324 6643288
0.026248474 0.17821331 0.51058596 6841439
0.027145714 0.17805748 0.51013947 7302503
0.028041389 0.17790192 0.5096938 7763312
0.028935496 0.17774662 0.50924885 7171176
0.029880919 0.17790639 0.50970662 3947579
0.030849522 0.17819051 0.51052064 3552822
0.031821225 0.17847556 0.51133728 3618358
0.032796036 0.1787615 0.51215649 3223857
0.033773981 0.17904836 0.51297837 3158064
0.034712724 0.17911766 0.51317692 4408131
0.035648853 0.17917021 0.51332748 4934475
0.036585528 0.17922278 0.5134781 4473924
0.037558682 0.17944703 0.51412058 3947580
0.0385671 0.17982492 0.51520324 4605510
0.039579775 0.18020439 0.51629043 5526612
0.040593568 0.18057139 0.51734191 6184542
0.041604426 0.18090913 0.51830953 6184542
0.042647533 0.18136917 0.51962757 4671303
0.043705914 0.18187299 0.52107102 5131854
0.044770196 0.18237963 0.52252257 5723991
0.045836542 0.18287364 0.52393788 6250077
0.046967529 0.18360034 0.52601993 6772812
0.048141543 0.18446314 0.52849185 7034696
-0.0056350864 0.19927715 0.56799901 5654848
-0.0045869024 0.19825612 0.56508875 6377282
-0.0035456128 0.19703476 0.56160754 6574403
-0.0025219072 0.19620438 0.5592407 6574403
-0.0015070837 0.19541852 0.55700076 6574403
-0.00050036516 0.19464204 0.55478758 6574403
0.00049868564 0.19398873 0.55292541 6574403
0.001491052 0.19333975 0.55107564 6574403
0.0024768477 0.19269876 0.54924864 6574403
0.0034554363 0.19202353 0.54732406 6574403
0.0044271285 0.19135033 0.54540521 6574403
0.0053915237 0.19066387 0.54344863 6574403
0.006349375 0.18999285 0.54153597 6574403
0.007298497 0.18927436 0.53948808 6574403
0.0082404679 0.18856129 0.53745562 6574403
0.0091741243 0.18782812 0.53536588 6706503
0.010093839 0.18697634 0.53293806 7233880
0.011014538 0.18628936 0.53097993 7563875
0.011928877 0.18561332 0.52905303 6970192
0.012841435 0.18501179 0.5273385 6640197
0.013748745 0.18442281 0.52565974 6574403
0.014635423 0.18365096 0.52345973 6574403
0.01551867 0.1829322 0.52141106 6574403
0.016408822 0.18237233 0.51981527 6574403
0.017293543 0.18181589 0.51822925 6574403
0.018191259 0.18144615 0.51717538 6574403
0.019093499 0.1811554 0.51634663 6574403
0.01998838 0.18082511 0.51540524 6772041
0.020879362 0.18049049 0.51445144 7498339
0.02176705 0.18015707 0.51350111 7432547
0.022660032 0.17989291 0.51274818 6971479
0.023564221 0.17973495 0.51229793 6906201
0.024466824 0.17957725 0.51184845 6709595
0.025367841 0.17941983 0.51139975 6973281
0.026267281 0.17926268 0.51095182 7433833
0.02716515 0.17910582 0.51050472 7894642
0.028061448 0.17894924 0.5100584 6578525
0.029017825 0.17917354 0.51069778 5131852
0.029986931 0.17946024 0.51151496 4671046
0.030959148 0.17974789 0.51233482 3684408
0.031923905 0.17997679 0.51298726 2829099
0.032858867 0.18002957 0.5131377 2236962
0.033794381 0.1800824 0.51328826 1644825
0.034730446 0.18013524 0.51343888 3552822
0.035667054 0.1801881 0.51358956 4605510
0.036604214 0.180241 0.51374036 4802889
0.037607018 0.18060654 0.51478225 3815994
0.03861684 0.18098734 0.51586765 4605510
0.039626177 0.18134804 0.51689571 5000268
0.040634353 0.18168694 0.51786166 6052956
0.041653264 0.18205753 0.51891798 5723991
0.04270744 0.18256257 0.52035749 3881787
0.043767482 0.18307044 0.52180505 4737096
0.044828087 0.18355922 0.52319825 5526611
0.045885216 0.1840139 0.52449423 6118491
0.047050741 0.18487614 0.52695185 6707020
0.048227232 0.18574646 0.52943254 6968903
-0.0045959447 0.19966826 0.5662027 6311746
-0.0035547719 0.1985594 0.56305832 6443074
-0.0025251596 0.19746748 0.55996192 6574403
-0.0015093235 0.19671516 0.55782855 6574403
-0.00050108694 0.195925 0.55558789 6574403
0.00049931259 0.19523121 0.55362052 6574403
0.0014929203 0.19457729 0.55176616 6574403
0.0024798939 0.19392771 0.54992414 6574403
0.0034600887 0.19327067 0.54806095 6574403
0.0044329627 0.1925876 0.54612398 6574403
0.0053985859 0.19189519 0.54416049 6574403
0.0063572912 0.19120775 0.54221112 6574403
0.0073102633 0.1905542 0.54035783 6574403
0.0082537988 0.18983738 0.53832513 6574403
0.0091901552 0.18912372 0.53630137 6574660
0.010112085 0.18827739 0.53390145 6970449
0.01102642 0.18744913 0.53155273 7629926
0.011941699 0.18676817 0.52962172 7761770
0.012852661 0.18612558 0.52779949 6904142
0.013760725 0.18553254 0.5261178 6574403
0.014663021 0.18494326 0.52444679 6574403
0.015543952 0.18417227 0.52226049 6574403
0.016428301 0.18352759 0.52043235 6574403
0.017314009 0.18296696 0.51884258 6574403
0.018210122 0.18256815 0.51771164 6574403
0.019119671 0.18233638 0.51705438 6574403
0.02002006 0.18204288 0.51622212 6574403
0.020913914 0.18171868 0.51530278 6574660
0.021803737 0.18138853 0.51436657 7036757
0.022689572 0.18105352 0.51341659 6971479
0.023581166 0.18078893 0.51266629 6906974
0.0244844 0.18063019 0.51221615 7170660
0.025386048 0.18047173 0.51176679 7565676
0.02628612 0.18031356 0.51131827 7894898
0.027184859 0.18015729 0.51087511 6907231
0.028151367 0.18044564 0.51169282 5855061
0.029120978 0.18073496 0.51251322 5131854
0.030070947 0.18088831 0.5129481 4079166
0.031005297 0.18094136 0.51309854 3552822
0.031940196 0.18099444 0.51324904 3487029
0.032875642 0.18104756 0.51339966 3289650
0.033811636 0.1811007 0.51355034 2894892
0.034748182 0.18115385 0.51370108 3026478
0.035685275 0.18120705 0.51385194 2894892
0.036648501 0.18138689 0.51436192 4342338
0.03765548 0.18176904 0.51544559 3158064
0.038660452 0.18212333 0.51645029 4013373
0.039665952 0.18246339 0.51741457 5395026
0.040675215 0.1828047 0.51838243 5921370
0.041711695 0.18325026 0.51964593 4408131
0.042767517 0.18375933 0.52108949 3552822
0.043822475 0.18424287 0.5224607 4868682
0.044873666 0.18469056 0.52373022 4934475
0.045966271 0.18528672 0.52542073 5921369
0.047134243 0.18615645 0.52788705 6641484
0.048314992 0.18704121 0.53039598 6969160
-0.0045973472 0.20075083 0.56637549 4012345
-0.0035633543 0.2000569 0.56441772 6245953
-0.0025300321 0.19886053 0.56104243 6508611
-0.0015112649 0.19797571 0.55854613 6574403
-0.00050184061 0.19722335 0.55642349 6574403
0.00049994112 0.19647686 0.55431741 6574403
0.0014947932 0.19581792 0.55245835 6574403
0.0024829947 0.19516338 0.55061173 6574403
0.0034646122 0.19451323 0.54877746 6574403
0.0044387979 0.19382751 0.54684287 6574403
0.0054056672 0.19312975 0.54487425 6574403
0.0063655996 0.19243698 0.54291975 6574403
0.0073188925 0.19175498 0.54099566 6574403
0.0082665524 0.19110323 0.53915691 6574403
0.0092049921 0.19039799 0.53716719 6574403
0.010130399 0.18958317 0.53486836 6706247
0.01104493 0.18872423 0.53244507 7365981
0.011954549 0.1879255 0.5301916 7762028
0.012864129 0.18724455 0.52827042 7695720
0.013772726 0.18664418 0.52657664 6706504
0.014675768 0.18605086 0.5249027 6574403
0.015573088 0.18546131 0.52323943 6574403
0.016448328 0.18469122 0.52106678 6574403
0.017334523 0.18412074 0.51945728 6574403
0.018229023 0.18369246 0.51824898 6574403
0.019139491 0.18345903 0.5175904 6574403
0.020047648 0.18322617 0.51693344 6574403
0.020946179 0.18292995 0.51609772 6574403
0.021838166 0.18260424 0.5151788 6574660
0.022726985 0.18227969 0.51426315 6707019
0.023611791 0.18194969 0.51333213 6906973
0.024502002 0.18168466 0.51258439 7631470
0.025404284 0.18152516 0.51213437 7894899
0.026314525 0.18143173 0.5118708 7038560
0.027281528 0.18172273 0.5126918 6183768
0.028218273 0.18179969 0.51290894 6316128
0.02915201 0.18185301 0.51305938 6316128
0.03008629 0.18190634 0.51320982 5658198
0.03102112 0.1819597 0.51336038 5460819
0.031956501 0.18201311 0.51351106 4408131
0.032892428 0.18206654 0.5136618 3289650
0.03382891 0.18212001 0.51381266 2697513
0.034765936 0.18217351 0.51396358 1842204
0.035703517 0.18222705 0.51411462 1644825
0.036695689 0.18254943 0.51502419 3947580
0.037696388 0.18289728 0.51600558 2697513
0.038699221 0.18323849 0.51696819 4210752
0.039705809 0.18358098 0.51793444 6184542
0.040718671 0.18393607 0.51893628 5000268
0.041770291 0.18444635 0.52037591 3947580
0.04281969 0.18492459 0.52172518 3750201
0.043866966 0.18537331 0.52299112 5000268
0.044919338 0.18582422 0.52426326 5066061
0.046047617 0.18656406 0.52635056 5789783
0.047218904 0.18744475 0.52883524 6707020
0.048405193 0.18834892 0.5313862 6969161
-0.0046475804 0.20397714 0.57256407 1844785
-0.0035644381 0.20113614 0.56458938 5720384
-0.0025365613 0.20038834 0.56249028 6311490
-0.0015132115 0.19923952 0.55926555 6574403
-0.00050248456 0.1984814 0.55713749 6574403
0.00050057977 0.19772901 0.55502552 6574403
0.0014965788 0.19704954 0.55311829 6574403
0.0024858641 0.19638325 0.55124801 6574403
0.0034684814 0.19572145 0.54939032 6574403
0.0044443896 0.19505931 0.54753172 6574403
0.0054127667 0.19436753 0.54558986 6574403
0.0063739298 0.19366941 0.54363024 6574403
0.0073282132 0.19297628 0.54168463 6574403
0.0082762893 0.192302 0.53979194 6574403
0.0092185996 0.19164984 0.5379613 6574403
0.010148779 0.19089368 0.53583878 6640196
0.011064878 0.19002724 0.53340667 6772297
0.011972698 0.18916863 0.53099656 7432288
0.012877936 0.18839942 0.52883738 7828078
0.013784749 0.18775779 0.52703631 7234394
0.014688538 0.1871604 0.52535945 6640197
0.015586595 0.18656681 0.52369326 6574403
0.016478974 0.185977 0.52203763 6574403
0.017355088 0.18527728 0.52007353 6574403
0.018247962 0.18481912 0.51878744 6574403
0.019159352 0.18458401 0.5181275 6574403
0.020068426 0.18434949 0.51746923 6574403
0.020975193 0.18411557 0.51681262 6574403
0.021871846 0.18381658 0.51597333 6574403
0.022761973 0.18348938 0.51505488 6640711
0.023648936 0.18316333 0.51413965 6774100
0.024532752 0.18283844 0.5132277 7499626
0.025433309 0.18265739 0.51271951 7300961
0.026365884 0.18271095 0.51286983 6512733
0.027299002 0.1827645 0.51302016 6447712
0.028232671 0.18281811 0.51317066 6513506
0.029166888 0.18287176 0.51332122 6447714
0.030101651 0.18292542 0.51347184 5197647
0.03103696 0.18297909 0.51362252 4342338
0.031972826 0.18303284 0.51377338 4868682
0.032909233 0.18308659 0.51392424 4539717
0.0338462 0.1831404 0.51407528 3355443
0.03478371 0.18319421 0.51422632 2894892
0.03573747 0.18332857 0.5146035 2368548
0.036733985 0.18366994 0.5155617 4473924
0.037734162 0.18401228 0.51652265 2565927
0.038738076 0.1843559 0.51748723 3750201
0.039745744 0.18470082 0.51845539 4868682
0.040775795 0.18513149 0.51966429 5000268
0.041819725 0.18560439 0.52099174 4868682
0.042863104 0.18605414 0.52225417 3750201
0.04391155 0.18650605 0.52352268 4802889
0.044967294 0.18696928 0.52482295 4605510
0.046129253 0.18784593 0.52728373 5921112
0.047306802 0.18874936 0.52981967 6772555
0.048495732 0.18966152 0.5323801 6969161
-0.0046459539 0.20493819 0.57236367 924973
-0.0035655228 0.20221609 0.56476122 3158326
-0.0025380237 0.20151909 0.56281459 6048833
-0.0015164933 0.20068261 0.56047845 6377282
-0.00050313014 0.19974266 0.55785328 6574403
0.00050122524 0.19898641 0.55574119 6574403
0.0014981324 0.19825286 0.55369246 6574403
0.0024884301 0.19758135 0.55181706 6574403
0.00347205 0.19691482 0.54995555 6574403
0.0044490551 0.19625276 0.54810649 6574403
0.0054191709 0.19558281 0.54623538 6574403
0.0063822819 0.19490507 0.54434258 6574403
0.0073377816 0.19420661 0.5423919 6574403
0.0082864566 0.19351314 0.5404551 6574403
0.0092294337 0.1928466 0.53859353 6574403
0.01016594 0.19218467 0.53674489 6574403
0.011084696 0.19133149 0.53436208 6640453
0.011994263 0.19046891 0.53195298 6772298
0.012895432 0.18961062 0.52955592 7564134
0.013796792 0.18887332 0.52749676 7629926
0.014701332 0.1882719 0.52581704 6838348
0.015600127 0.18767425 0.52414793 6574403
0.016493235 0.1870804 0.52248937 6574403
0.017380709 0.1864903 0.5208413 6574403
0.018266942 0.18594812 0.51932704 6574403
0.019179253 0.18571131 0.51866567 6574403
0.020089244 0.18547511 0.51800603 6574403
0.020996923 0.18523952 0.51734805 6574403
0.021902302 0.18500455 0.5166918 6574403
0.02279707 0.1847028 0.51584905 6640454
0.023685334 0.18437406 0.51493096 6707533
0.024570445 0.18404654 0.51401621 7235939
0.025456814 0.18375191 0.51319337 7036243
0.026389956 0.18380374 0.51333809 6511960
0.027323626 0.18385559 0.51348293 6381662
0.028257823 0.18390748 0.51362783 6250334
0.029192546 0.18395938 0.51377279 6381920
0.030127799 0.18401133 0.51391786 5921370
0.031063577 0.18406329 0.514063 5592405
0.03199989 0.18411531 0.51420826 4868682
0.032936726 0.18416733 0.51435357 3815994
0.033874094 0.18421939 0.51449895 3487029
0.034812614 0.18427476 0.51465362 4473924
0.035785612 0.18450505 0.51529676 3684408
0.036778171 0.18482195 0.51618183 3881787
0.037774146 0.18513994 0.51706994 1513239
0.038777001 0.18547554 0.51800722 3881787
0.039785758 0.1858229 0.51897734 5066061
0.040822569 0.18628231 0.52026039 5658198
0.041862067 0.18673304 0.52151924 4934475
0.042906605 0.18718596 0.52278417 4210752
0.043956224 0.1876411 0.5240553 4473924
0.04504678 0.18824811 0.52575064 4802632
0.046214864 0.18914744 0.52826232 5986647
0.047395024 0.19005884 0.53080773 6837833
0.048586611 0.19097905 0.53337777 7034698
-0.0046443287 0.20589857 0.57216346 924973
-0.0035873419 0.20447849 0.56821722 530732
-0.0025387935 0.20259573 0.5629853 4406587
-0.0015180422 0.2018996 0.56105089 6377282
-0.00050377735 0.20100717 0.55857092 6443075
0.00050187332 0.20024745 0.55645978 6574403
0.0015000623 0.19950829 0.55440575 6574403
0.0024910017 0.19878194 0.5523873 6574403
0.0034756255 0.19811065 0.55052191 6574403
0.0044536218 0.1974439 0.5486691 6574403
0.0054248078 0.19677258 0.54680359 6574403
0.0063893464 0.1961038 0.54494512 6574403
0.0073473747 0.19544017 0.54310101 6574403
0.0082972515 0.19474137 0.54115915 6574403
0.00924036 0.19404756 0.53923112 6574403
0.010178356 0.19338876 0.53740042 6574403
0.011102372 0.19260202 0.53521419 6574403
0.012014375 0.19174942 0.53284496 6640454
0.012918339 0.19090435 0.5304966 6970191
0.013813173 0.19005021 0.52812308 7762284
0.014714145 0.18938529 0.52627534 7234394
0.015613683 0.18878362 0.52460337 6574403
0.016507521 0.18818574 0.52294195 6574403
0.017397637 0.18761235 0.5213486 6574403
0.01828593 0.18707912 0.51986682 6574403
0.019199198 0.18684097 0.51920503 6574403
0.020110108 0.1866031 0.51854402 6574403
0.021018703 0.18636583 0.51788467 6574403
0.021924987 0.18612915 0.51722699 6574403
0.022828978 0.1858931 0.51657104 6574660
0.023721848 0.18558857 0.51572478 6640969
0.024608253 0.18525836 0.51480716 7038301
0.025491511 0.18492933 0.51389283 7498853
0.026415119 0.18490584 0.51382756 6576979
0.027349686 0.18495804 0.51397264 6381662
0.028284783 0.1850103 0.51411784 6315871
0.029220406 0.18506257 0.51426309 6447714
0.030156557 0.18511486 0.51440841 6447714
0.031093238 0.18516719 0.51455384 5987163
0.032030448 0.18521956 0.51469934 3618615
0.032968231 0.18527217 0.51484555 2302755
0.033907883 0.18533212 0.51501215 3092271
0.0348523 0.18541422 0.51524031 4408131
0.035843141 0.18573265 0.51612514 3421236
0.036837399 0.18605217 0.51701307 3881787
0.03783508 0.1863728 0.51790404 3947580
0.038835831 0.18669273 0.51879311 5197647
0.039837759 0.18700312 0.51965564 5197647
0.040870916 0.18744247 0.52087653 4934475
0.041908938 0.1878839 0.52210319 4473924
0.042951863 0.1883274 0.52333564 4276545
0.044000994 0.18877846 0.52458906 4079166
0.045129333 0.1895432 0.52671415 5263439
0.046297558 0.19044046 0.52920753 5986132
0.047473744 0.19133358 0.53168935 7034697
0.048661012 0.19223508 0.53419453 7034955
-0.0046427045 0.20685828 0.57196337 924973
-0.0035860962 0.20543209 0.56801993 5161
-0.0025395639 0.20367302 0.56315613 2172978
-0.0015185012 0.20297299 0.56122053 4800572
-0.00050443324 0.20227773 0.55929816 6311746
0.00050252309 0.20151176 0.55718023 6508611
0.0015019972 0.20076697 0.55512089 6574403
0.0024941105 0.20002766 0.55307668 6574403
0.0034792086 0.19930895 0.55108947 6574403
0.0044581979 0.19863749 0.54923284 6574403
0.0054305829 0.19796944 0.54738569 6574403
0.0063958778 0.19728823 0.54550219 6574403
0.0073549505 0.19662234 0.543661 6574403
0.0083076982 0.19596393 0.54184049 6574403
0.0092523703 0.19527371 0.53993201 6574403
0.010190304 0.19458628 0.53803128 6574403
0.011120105 0.19387661 0.53606904 6574403
0.012033479 0.19301701 0.53369224 6574403
0.01293879 0.192165 0.53133643 6706504
0.013836144 0.19132046 0.5290013 7432289
0.0147297 0.1905358 0.52683169 7762027
0.015636345 0.19000529 0.52536482 7036242
0.016536506 0.18946111 0.52386016 6574403
0.017431526 0.18892005 0.52236414 6574403
0.018321447 0.18838206 0.52087659 6574403
0.019214036 0.18792264 0.51960629 6574403
0.020128896 0.18771367 0.51902848 6574403
0.021040525 0.18749446 0.51842237 6574403
0.021947725 0.18725613 0.51776338 6574403
0.022852618 0.18701836 0.517106 6574660
0.023755221 0.18678124 0.51645035 6640454
0.024646178 0.18647391 0.51560056 6905686
0.025530728 0.18614222 0.51468343 7565162
0.026440328 0.18601003 0.51431793 6641743
0.027375795 0.1860626 0.51446331 6447198
0.028311789 0.18611521 0.51460874 6381920
0.029248316 0.18616785 0.5147543 6316128
0.03018537 0.18622051 0.51489991 5987163
0.031122956 0.18627322 0.51504564 4934475
0.032061875 0.1863306 0.51520431 3421236
0.033001889 0.18639094 0.51537114 2894892
0.033942509 0.18645132 0.5155381 2565927
0.034908321 0.18664315 0.51606852 2631720
0.035900857 0.1869642 0.51695621 2894892
0.036896814 0.18728636 0.517847 5197647
0.037888382 0.18757087 0.51863366 4934475
0.03887286 0.18780744 0.51928777 3684408
0.0398934 0.18820298 0.52038145 5395026
0.040928137 0.18864578 0.52160579 5197647
0.04196775 0.18909065 0.52283585 4539717
0.04301228 0.18953763 0.52407175 3947580
0.044053622 0.18995163 0.52521646 4013373
0.045154434 0.19059925 0.5270071 5526355
0.046320364 0.19148934 0.52946824 5657681
0.047497239 0.1923878 0.5319525 6969418
0.04932696 0.19584268 0.54150522 7035212
-0.0035886825 0.20660558 0.56842959 5161
-0.0025452522 0.20514733 0.56441754 662060
-0.0015193757 0.20410281 0.56154376 2698548
-0.00050482515 0.20344454 0.55973268 4997693
0.000503199 0.20278919 0.55792964 6443075
0.0015039371 0.20202889 0.55583781 6508611
0.0024973198 0.20128398 0.55378836 6574403
0.0034834042 0.20054455 0.551754 6574403
0.0044627828 0.1998335 0.54979771 6574403
0.0054361792 0.19916184 0.54794979 6574403
0.0064026699 0.19848278 0.54608148 6574403
0.0073623387 0.1978015 0.5442071 6574403
0.008316014 0.19713846 0.5423829 6574403
0.009263319 0.19647986 0.54057091 6574403
0.010203167 0.19580363 0.53871042 6574403
0.011136112 0.19512405 0.53684068 6574403
0.012052646 0.19428864 0.53454226 6574403
0.012959307 0.19342965 0.53217894 6574404
0.013858642 0.19258735 0.52986151 6970192
0.014751345 0.19176748 0.52760583 7762027
0.015658991 0.19122951 0.52612573 7762027
0.016568873 0.19077875 0.52488554 7036500
0.017465547 0.19023284 0.52338362 6574404
0.018357104 0.18969007 0.52189028 6574403
0.019243587 0.18915038 0.52040547 6574403
0.020142866 0.18878081 0.51938868 6574403
0.021056311 0.18857098 0.51881135 6574403
0.021967731 0.1883616 0.51823533 6574403
0.022876311 0.18814598 0.51764208 6574660
0.023779817 0.18790717 0.51698506 6640710
0.024681028 0.18766895 0.51632965 6839120
0.025570067 0.18735886 0.51547647 7367525
0.026465587 0.18711634 0.51480925 6970964
0.027401956 0.18716928 0.51495492 6512218
0.028338853 0.18722226 0.51510066 6381663
0.02927628 0.18727525 0.51524645 6250334
0.030214487 0.18732981 0.5153966 5592405
0.031154253 0.18739051 0.51556355 5329233
0.032094628 0.18745123 0.51573062 4802889
0.033035614 0.187512 0.51589781 3355443
0.033977207 0.18757281 0.51606512 2631720
0.034964524 0.18787605 0.51689941 1579032
0.035958756 0.18819973 0.51778996 2565927
0.036941513 0.18844847 0.51847434 5460819
0.037924495 0.18868607 0.51912802 4737096
0.038917743 0.18896206 0.51988733 4605510
0.039949197 0.1894062 0.52110928 5526612
0.040985513 0.18985243 0.52233702 5066061
0.042026725 0.19030078 0.52357054 3881787
0.043065492 0.19071861 0.52472007 2763306
0.044102158 0.19110936 0.52579516 3947580
0.045176588 0.19164383 0.52726567 5131853
0.0463432 0.19253927 0.52972925 5328973
0.047520764 0.1934431 0.53221595 6838090
0.04938139 0.19703664 0.54210275 7035212
-0.0035996796 0.20826718 0.57017148 924973
-0.0025559873 0.20703498 0.56679809 5161
-0.0015227989 0.20557785 0.56280893 596523
-0.00050539238 0.20468393 0.56036162 2764340
0.00050376588 0.20402518 0.55855817 5063485
0.0015063789 0.20336115 0.55674028 6442818
0.0025007476 0.20256056 0.5545485 6508611
0.0034878757 0.20179853 0.55246228 6574403
0.0044679772 0.20105897 0.55043763 6574403
0.0054417574 0.20035562 0.54851204 6574403
0.006409476 0.19967984 0.54666197 6574403
0.0073701362 0.19899367 0.54478347 6574403
0.0083243484 0.19831535 0.54292643 6574403
0.0092725707 0.19765216 0.54111081 6574403
0.010214472 0.19699338 0.5393073 6574403
0.011149672 0.19633117 0.53749436 6574403
0.012071872 0.19556433 0.53539497 6574403
0.012980489 0.19470733 0.53304881 6574403
0.013882297 0.19387345 0.53076589 6640197
0.014776415 0.19304672 0.52850252 7234394
0.015663251 0.19223082 0.52626884 7827821
0.016585797 0.19192137 0.52542168 7762027
0.017499702 0.19155079 0.52440715 7234137
0.0183929 0.19100319 0.52290797 6772297
0.019281004 0.1904587 0.52141732 6574403
0.020164061 0.18991731 0.51993519 6574403
0.021070916 0.18963824 0.51917118 6574403
0.021982951 0.18942755 0.51859438 6574403
0.022892961 0.18921733 0.51801884 6640453
0.023800954 0.18900758 0.51744461 6640710
0.02470658 0.18879557 0.51686418 6904914
0.025606407 0.18855627 0.51620907 7235681
0.026493507 0.18824334 0.51535237 7498853
0.027428163 0.18827806 0.51544744 6577237
0.028365966 0.18833141 0.51559347 6447198
0.02930524 0.18839082 0.51575613 6381920
0.030245366 0.1884519 0.51592332 6250335
0.031186102 0.18851301 0.51609063 5658198
0.032127451 0.18857417 0.51625806 4605510
0.033069406 0.18863535 0.51642555 2829099
0.034028392 0.18878765 0.51684254 1842204
0.035016205 0.1890875 0.51766342 1973790
0.035995226 0.18932554 0.51831508 4210752
0.03697671 0.18956415 0.51896834 5723991
0.037960682 0.18980341 0.51962334 5066061
0.038972121 0.19016516 0.52061373 4802889
0.040005151 0.19061278 0.52183914 4868682
0.041043054 0.1910625 0.52307034 3881787
0.042079221 0.19148411 0.52422458 3158064
0.043112893 0.19187607 0.52529764 2500134
0.044150803 0.19226964 0.52637511 4802889
0.045198761 0.19268946 0.52752447 4473924
0.046366055 0.19359022 0.52999049 5131594
0.048167117 0.19704729 0.53945488 6838091
0.049435947 0.19823325 0.54270166 7035212
-0.0025622391 0.20856626 0.56818444 5161
-0.0015292033 0.20746191 0.56517589 5161
-0.00050615706 0.20600592 0.56120944 530731
0.00050433073 0.20526262 0.55918449 2830133
0.0015080977 0.20459859 0.55737555 5129021
0.0025049346 0.20390168 0.55547696 6377282
0.0034931335 0.20310076 0.55329508 6508611
0.0044736988 0.20231061 0.55114251 6574403
0.0054478636 0.20157094 0.54912752 6574403
0.0064161634 0.20087527 0.54723233 6574403
0.0073779523 0.20018844 0.54536122 6574403
0.0083330134 0.19950214 0.5434916 6574403
0.0092818402 0.19882679 0.54165179 6574403
0.010224649 0.19816343 0.53984463 6574403
0.011161189 0.19750452 0.53804958 6574403
0.012091441 0.19684866 0.53626287 6574403
0.013002778 0.19600484 0.5339641 6574403
0.013906034 0.195164 0.53167343 6574403
0.014801572 0.19433032 0.52940232 6772040
0.015689492 0.19350374 0.52715051 7497825
0.016590301 0.1929215 0.52556437 7893871
0.017510127 0.1926114 0.52471954 7828077
0.018426998 0.19230226 0.52387738 7630184
0.019318568 0.19177212 0.52243316 6772298
0.020203233 0.19122595 0.52094525 6574403
0.021085542 0.19070701 0.51953155 6574403
0.021998191 0.19049498 0.51895392 6574660
0.022908816 0.19028343 0.5183776 6640454
0.02381742 0.19007236 0.5178026 6706761
0.024724009 0.18986173 0.51722878 7103322
0.025628591 0.18965158 0.51665628 7433318
0.026531173 0.18944187 0.51608503 7432803
0.027454846 0.18939191 0.51594889 6576208
0.028394723 0.18945332 0.5161162 6446684
0.029335212 0.18951479 0.51628363 6447455
0.030276312 0.18957628 0.51645118 6184542
0.031218018 0.18963781 0.51661879 5395026
0.032160342 0.1896994 0.51678658 4276545
0.033103272 0.18976101 0.51695442 2894892
0.034071989 0.189963 0.51750469 2500134
0.03504952 0.19020206 0.51815593 2171169
0.036029514 0.19044173 0.51880884 3289650
0.037011981 0.19068198 0.51946336 5658198
0.037996933 0.19092286 0.52011955 4671303
0.039026655 0.19137166 0.52134222 4868682
0.040061258 0.19182272 0.52257103 2829099
0.041094821 0.1922482 0.5237301 4013373
0.042125504 0.19264135 0.52480114 3158064
0.043160405 0.19303609 0.52587652 2894892
0.04419956 0.19343248 0.52695638 4342338
0.045242988 0.19383049 0.52804065 3618615
0.046388935 0.19464223 0.53025204 5657166
0.048220068 0.19823806 0.54004794 6772555
0.049490623 0.19943251 0.54330188 7035212
-0.0025672412 0.21000034 0.56929368 1122351
-0.0015320043 0.20886326 0.56621116 5161
-0.00050827971 0.20788641 0.56356299 5161
0.00050489686 0.20650283 0.55981219 662060
0.0015098158 0.20583822 0.55801052 2961205
0.0025081511 0.20516676 0.55619025 5129278
0.0034989687 0.20443974 0.55421937 6377282
0.0044810432 0.20363852 0.55204731 6508611
0.0054554511 0.20284359 0.54989231 6574403
0.0064230962 0.20208049 0.54782361 6574403
0.0073857843 0.20138572 0.54594016 6574403
0.0083418293 0.20069461 0.54406661 6574403
0.0092913359 0.20000823 0.54220587 6574403
0.010234848 0.19933584 0.5403831 6574403
0.011172283 0.19867234 0.53858441 6574403
0.012103478 0.19801292 0.53679675 6574403
0.013024579 0.19729824 0.53485936 6574403
0.013929851 0.19645895 0.53258407 6574403
0.014826815 0.1956183 0.53030515 6574660
0.015716134 0.19478482 0.52804565 6970192
0.016597908 0.19395842 0.52580535 7695720
0.017514877 0.19361039 0.52486187 7894128
0.018431988 0.19329956 0.52401924 7893871
0.019346161 0.19298974 0.52317935 7366238
0.020242555 0.19253965 0.52195919 6640454
0.021123789 0.19199178 0.52047396 6574403
0.022013456 0.19156389 0.51931399 6640454
0.022924691 0.191351 0.51873684 6640711
0.023833906 0.19113858 0.518161 6904913
0.024741106 0.19092664 0.51758647 7367010
0.025646292 0.19071515 0.51701313 7565419
0.026557747 0.19056349 0.51660198 7103839
0.0274988 0.19062728 0.51677489 6445395
0.028440485 0.19069113 0.51694798 6380632
0.029382799 0.19075499 0.51712114 6315870
0.030325744 0.19081891 0.51729441 5658198
0.031269323 0.19088289 0.51746786 4934475
0.032211911 0.19093727 0.51761526 4276545
0.033154745 0.19099002 0.51775825 3355443
0.034104396 0.19107805 0.51799691 2763306
0.035082899 0.19131874 0.5186494 2829099
0.036063869 0.19156003 0.5193035 3750201
0.037047319 0.19180195 0.51995933 5855577
0.038050018 0.19212911 0.52084625 4737096
0.039081339 0.19258153 0.52207273 4473924
0.040112276 0.19301082 0.52323651 3684408
0.041139975 0.19340517 0.52430552 5000268
0.042171877 0.19380111 0.52537888 3552822
0.043208022 0.1941987 0.52645671 3355443
0.044248421 0.19459789 0.5275389 4737096
0.045293108 0.19499876 0.52862561 5131853
0.047016032 0.19824284 0.53742009 5722959
0.048273142 0.19943146 0.54064232 6772555
0.049519956 0.20053132 0.54362392 6904141
-0.0015341392 0.21017706 0.56700015 5161
-0.00050890073 0.2091582 0.56425154 5161
0.00050662464 0.20822273 0.56172788 5161
0.0015115117 0.20707712 0.55863732 596524
0.0025110024 0.2064044 0.55682254 3026997
0.0035039601 0.20573251 0.55500996 5194814
0.0044885119 0.20497538 0.55296743 6377282
0.0054645077 0.20417388 0.55080521 6508611
0.0064329002 0.20337862 0.5486598 6574403
0.0073937788 0.20258954 0.54653108 6574403
0.0083506647 0.2018896 0.54464287 6574403
0.0093011418 0.20119838 0.54277813 6574403
0.010245133 0.20051189 0.54092616 6574403
0.0111834 0.1998425 0.53912032 6574403
0.012115503 0.19917887 0.53733003 6574403
0.013040775 0.19850959 0.53552449 6574403
0.013952686 0.19774324 0.5334571 6574403
0.014851659 0.19690426 0.53119373 6574403
0.015742868 0.19607027 0.5289439 6640453
0.016626023 0.19523701 0.52669597 7102293
0.017519629 0.19460993 0.52500427 7629926
0.01843698 0.1942974 0.52416116 7893614
0.019351393 0.19398591 0.52332085 7300188
0.020262877 0.1936754 0.52248317 6706504
0.021164868 0.19330581 0.5214861 6574660
0.022042684 0.19275625 0.52000356 6706247
0.022940591 0.19242007 0.51909661 6706247
0.023850417 0.19220629 0.51851994 7103065
0.024758223 0.19199301 0.51794457 7499112
0.02566402 0.19178022 0.51737052 7103324
0.026602969 0.19182141 0.51748163 6444880
0.027545642 0.19188575 0.51765519 6380117
0.028488945 0.19195011 0.51782882 6381147
0.02943282 0.19201411 0.5180015 6184542
0.030375589 0.19206719 0.51814467 5921370
0.031318881 0.1921203 0.51828796 5526612
0.032262698 0.19217347 0.51843137 4342338
0.033207037 0.19222665 0.51857483 3223857
0.034151897 0.19227985 0.51871836 2500134
0.035116337 0.19243753 0.51914376 2697513
0.03609829 0.19268048 0.51979917 3750201
0.037082721 0.19292404 0.52045619 4802889
0.038103282 0.19333887 0.52157533 4210752
0.039131574 0.19377202 0.52274382 5526612
0.040156305 0.19416755 0.52381086 5658198
0.041185223 0.19456467 0.5248822 4802889
0.042218357 0.19496344 0.52595794 2434341
0.043255743 0.19536385 0.52703816 2829099
0.044298679 0.19577157 0.5281381 4144959
0.045348611 0.19619241 0.52927339 5920855
0.047067523 0.19943044 0.53800869 5985872
0.04832403 0.20061794 0.54121226 6772555
