# .PCD v0.7 - Point Cloud Data file format
VERSION 0.7
FIELDS x y z rgb
SIZE 4 4 4 4
TYPE F F F U
COUNT 1 1 1 1
WIDTH 1116
HEIGHT 1
VIEWPOINT 0 0 0 1 0 0 0
POINTS 1116
DATA ascii
-0.079149641 0.083839998 0.65006214 2368336
-0.078232326 0.084114455 0.65219021 2828881
-0.077341586 0.084426314 0.65460825 4013647
-0.076505356 0.08480826 0.65756971 3881806
-0.075729519 0.085270248 0.66115177 3552842
-0.075059056 0.085867561 0.66578311 3487298
-0.13994676 0.085621431 0.6547178 2565945
-0.13746953 0.084821619 0.64860195 3026239
-0.13564312 0.084413104 0.64547813 3158081
-0.13398947 0.084105946 0.64312941 3552583
-0.13243181 0.083854206 0.64120442 3947336
-0.13092214 0.083628684 0.63947994 3881800
-0.12949695 0.083453588 0.63814104 3815750
-0.12813537 0.083316714 0.63709444 3684680
-0.12682161 0.083208747 0.63626885 2499912
-0.12553322 0.0831156 0.63555658 2105163
-0.12425144 0.083025157 0.63486499 1973322
-0.12296964 0.082933016 0.6341604 1776201
-0.12169576 0.082844533 0.63348383 1512773
-0.12046326 0.082782805 0.63301182 1315396
-0.11923362 0.082721889 0.63254601 1183809
-0.1180058 0.08266107 0.63208091 1052222
-0.11679309 0.082609743 0.63168848 986431
-0.1155957 0.082568355 0.63137197 986173
-0.11440674 0.082532227 0.63109571 854586
-0.11321815 0.082495637 0.63081592 657977
-0.11203296 0.082460806 0.63054961 657978
-0.1108646 0.082437783 0.63037354 723258
-0.10971078 0.082425199 0.63027734 723258
-0.10858371 0.082432665 0.63033438 723512
-0.10747819 0.082456812 0.63051903 723511
-0.10635796 0.082470074 0.63062048 789305
-0.10523738 0.082483351 0.63072199 723768
-0.10412466 0.08250314 0.63087332 789558
-0.10301194 0.082523376 0.63102806 855094
-0.10189989 0.082544602 0.63119036 854840
-0.10078727 0.082565844 0.63135278 986426
-0.099679008 0.082591176 0.6315465 986681
-0.098590665 0.082633793 0.63187236 1183803
-0.09750773 0.082681999 0.63224095 1315648
-0.096448392 0.08275158 0.63277304 1315905
-0.095394455 0.082827516 0.63335371 1381700
-0.094357893 0.082920574 0.63406527 1513030
-0.093318999 0.083013833 0.63477838 1775687
-0.092278972 0.083108388 0.63550144 1841481
-0.091238432 0.083204858 0.63623911 2171209
-0.09019617 0.083302192 0.63698339 3684427
-0.089162558 0.083410136 0.6378088 4408137
-0.088129751 0.083521657 0.63866156 4408142
-0.087104738 0.083643623 0.6395942 3881552
-0.086082146 0.083771221 0.64056987 4079439
-0.08505255 0.083895378 0.64151925 3552847
-0.084059358 0.084059358 0.64277315 3486798
-0.083076254 0.084238164 0.64414042 3750223
-0.082102485 0.084431633 0.64561981 2894671
-0.081127368 0.084629267 0.64713109 2302289
-0.080168441 0.084849812 0.64881748 2237009
-0.079206362 0.085073501 0.65052795 2368592
-0.078272231 0.085334383 0.65252286 3092305
-0.077384368 0.085654452 0.65497029 4342351
-0.076528929 0.086020894 0.65777236 4013390
-0.075737596 0.086472057 0.66122228 3750219
-0.075041398 0.087048024 0.66562647 3553091
-0.13774157 0.086161748 0.64988548 2894398
-0.13585559 0.085711464 0.64648914 3420993
-0.13417393 0.085383408 0.64401478 3486535
-0.13260764 0.085123681 0.64205575 3354954
-0.13108316 0.084886454 0.64026642 3486793
-0.12963083 0.08469215 0.63880086 3684168
-0.12824725 0.084539667 0.63765073 4013383
-0.12691732 0.084420115 0.63674903 3289416
-0.12560742 0.084311828 0.63593227 2236487
-0.12432557 0.084220551 0.63524377 1907528
-0.12305403 0.084134616 0.63459557 1841735
-0.12178554 0.084049173 0.63395113 1710406
-0.12054276 0.083980024 0.63342959 1644358
-0.11930485 0.083912984 0.6329239 1578308
-0.11806892 0.08384604 0.63241899 1381185
-0.11684493 0.083786361 0.63196886 1380930
-0.11564887 0.083745733 0.63166243 1249345
-0.11445935 0.083709076 0.63138592 1249088
-0.11327069 0.083672315 0.63110864 1052221
-0.11208537 0.083637305 0.63084459 1052218
-0.11091544 0.083613172 0.63066256 1117753
-0.10974884 0.083591089 0.63049597 1118011
-0.10862211 0.083599217 0.6305573 1052476
-0.1075164 0.083623864 0.63074321 1183807
-0.10639808 0.08363913 0.63085836 1249344
-0.10527708 0.083652601 0.63095993 1183549
-0.10415571 0.083666064 0.63106149 1118007
-0.10304531 0.083688736 0.6312325 1052471
-0.10194982 0.083724156 0.63149965 1118011
-0.10085339 0.083759598 0.63176697 1249596
-0.099754632 0.083793893 0.63202566 1249853
-0.098654091 0.083827466 0.63227886 1381183
-0.097581387 0.083885752 0.6327185 1381441
-0.096517384 0.083952993 0.63322568 1381697
-0.095463462 0.08403071 0.63381189 1447491
-0.094422035 0.084121443 0.63449627 1709894
-0.093382508 0.084216125 0.63521039 1841224
-0.092342071 0.084312327 0.63593602 2039625
-0.09130089 0.084410258 0.63667464 3289930
-0.090257287 0.084508419 0.63741505 4276552
-0.089211255 0.084606804 0.63815713 4408137
-0.088176563 0.08471866 0.63900083 3618382
-0.087151915 0.084843256 0.63994062 3881807
-0.086118713 0.084962755 0.64084196 3881807
-0.08511059 0.08511059 0.64195698 3223886
-0.084110551 0.085270695 0.64316463 3552846
-0.083130039 0.085455351 0.64455742 3618640
-0.082153663 0.085649565 0.64602226 2631504
-0.08117722 0.085849293 0.64752877 2171218
-0.080219291 0.086074717 0.64922905 2237265
-0.079263166 0.086308777 0.65099448 2499920
-0.078312166 0.086555555 0.65285581 3421265
-0.077427194 0.086883955 0.6553328 4474190
-0.076552533 0.087234281 0.6579752 4079183
-0.075757034 0.087687276 0.66139197 3881803
-0.075053699 0.088263154 0.6657356 3552836
-0.1380261 0.087514423 0.65122795 2894654
-0.13606872 0.0870139 0.64750338 3355201
-0.1343589 0.086664394 0.64490259 3157831
-0.13278395 0.086396545 0.64290941 2894155
-0.13125637 0.086155064 0.64111245 2828618
-0.12979445 0.085952766 0.63960707 3684423
-0.12838855 0.085784279 0.63835329 4013383
-0.12703677 0.085649222 0.63734829 3420999
-0.12573421 0.085545197 0.63657421 2434119
-0.12443975 0.085444801 0.63582712 1907783
-0.12316691 0.085357532 0.63517773 1907527
-0.12189668 0.08527045 0.63452971 1841478
-0.12064599 0.085195512 0.63397205 1710150
-0.11940695 0.085127443 0.63346553 1644101
-0.11816988 0.085059479 0.63295978 1513027
-0.11694561 0.084999494 0.6325134 1512771
-0.11574338 0.0849545 0.6321786 1446979
-0.11454268 0.084909752 0.63184559 1380930
-0.11334325 0.084865049 0.63151294 1249855
-0.11216687 0.084836878 0.63130331 1249853
-0.11099929 0.084814839 0.63113934 1380923
-0.10983051 0.084791429 0.63096511 1315388
-0.10869109 0.084790431 0.63095772 1381184
-0.10755862 0.084794894 0.63099092 1446722
-0.1064419 0.084811993 0.63111818 1381184
-0.10533641 0.084838517 0.63131553 1315390
-0.10423023 0.084865049 0.63151294 1249848
-0.10312588 0.084893681 0.63172603 1315641
-0.10202955 0.08492963 0.63199353 1315642
-0.1009323 0.084965609 0.63226128 1381182
-0.099832311 0.085000083 0.63251781 1381438
-0.09873262 0.085035607 0.63278216 1381439
-0.097661987 0.085097283 0.63324112 1447232
-0.096589319 0.085158631 0.63369763 1578562
-0.095534511 0.085237376 0.6342836 1709892
-0.094486259 0.08532396 0.63492787 1841478
-0.093446106 0.085420057 0.63564301 2039111
-0.092405252 0.085517906 0.63637114 3157833
-0.091363437 0.085617311 0.63711083 4408137
-0.090319186 0.08571694 0.63785219 4408136
-0.089272514 0.085816808 0.63859534 3749963
-0.088229656 0.085923001 0.63938558 3091533
-0.087204367 0.086049341 0.64032573 3881806
-0.086176768 0.086176768 0.64127398 3487054
-0.085167691 0.086326435 0.64238769 3223885
-0.084164001 0.086485766 0.64357334 3881806
-0.083181456 0.086671591 0.64495611 3355472
-0.082203902 0.086867951 0.64641732 2368593
-0.081227139 0.087070815 0.64792693 2237010
-0.080267727 0.087298475 0.64962101 2368593
-0.079312213 0.087537184 0.65139735 2500177
-0.078352146 0.087777972 0.65318912 3750481
-0.077470072 0.088114813 0.65569568 4671567
-0.076580487 0.088453427 0.65821546 4079183
-0.075783454 0.088911295 0.66162264 3947594
-0.075059287 0.08947067 0.66578513 3684421
-0.074741602 0.09054064 0.67374718 3026236
-0.1383118 0.088872693 0.65257597 2960445
-0.13628252 0.088320427 0.64852077 3026240
-0.13454437 0.087948918 0.64579284 2499910
-0.13296074 0.087672792 0.64376533 2697034
-0.13143115 0.087427773 0.64196616 2631498
-0.12995845 0.087216564 0.64041531 3486791
-0.12853317 0.087033674 0.63907236 4013127
-0.12717193 0.086891226 0.63802642 3025991
-0.12586127 0.086781055 0.63721746 2368071
-0.12456084 0.086675979 0.63644588 2038855
-0.12328 0.086582698 0.63576096 1973319
-0.12200849 0.086494274 0.63511169 1907270
-0.12075192 0.086414881 0.6345287 1709893
-0.11950921 0.086343974 0.63400805 1709894
-0.11827101 0.086274989 0.63350147 1578820
-0.1170468 0.08621496 0.63306069 1513028
-0.11584286 0.086168826 0.63272196 1578563
-0.11464109 0.086123399 0.63238841 1512771
-0.11344109 0.086078413 0.63205808 1381184
-0.11226957 0.08605434 0.6318813 1381438
-0.11109249 0.086025469 0.63166928 1447229
-0.10992713 0.086005166 0.63152021 1381436
-0.10877349 0.0859937 0.63143605 1381437
-0.10764796 0.086004451 0.63151497 1578305
-0.10653078 0.086022176 0.63164514 1512770
-0.10542439 0.086049095 0.63184279 1446719
-0.10431731 0.086076029 0.63204056 1315643
-0.10321055 0.086103834 0.63224471 1381179
-0.10210941 0.086136989 0.63248819 1381182
-0.10101134 0.086173512 0.63275635 1381438
-0.099910118 0.086208157 0.63301075 1381438
-0.098814428 0.086248435 0.6333065 1446975
-0.097741976 0.086310171 0.6337598 1512769
-0.096666522 0.086370684 0.63420415 1578562
-0.095605657 0.086445831 0.63475597 1644611
-0.09455657 0.086533591 0.63540035 1907526
-0.093509778 0.086625628 0.63607615 2697543
-0.09246853 0.086725146 0.63680691 4079177
-0.091426067 0.086826012 0.63754755 4539720
-0.090383671 0.086929515 0.63830757 3947593
-0.089340322 0.087034769 0.63908041 2762827
-0.08829397 0.0871398 0.63985163 3157836
-0.087264262 0.087264262 0.64076555 3750222
-0.086242147 0.087399758 0.64176047 3092302
-0.085231885 0.087551124 0.64287192 3552845
-0.084222868 0.087707952 0.64402348 3816014
-0.083229505 0.0878857 0.64532864 2894927
-0.082253285 0.088086851 0.64680564 2302801
-0.081276678 0.088293374 0.64832211 2368594
-0.08031261 0.088519737 0.64998424 2499921
-0.079352669 0.088757426 0.65172958 2763345
-0.078391485 0.089000858 0.65351707 4079185
-0.07750462 0.089337386 0.6559881 4868943
-0.076623023 0.089690514 0.65858108 4013391
-0.075809896 0.090136178 0.66185349 4013386
-0.075064868 0.090678364 0.66583467 3750214
-0.074651338 0.091645136 0.67293352 2828862
-0.13863094 0.090257592 0.6540817 2960446
-0.13649698 0.089631058 0.64954132 2631232
-0.13474607 0.089247398 0.646761 2302532
-0.13314377 0.088956311 0.64465153 2499914
-0.1316064 0.088703871 0.64282215 3026250
-0.13012289 0.088483565 0.64122558 3421000
-0.1286907 0.088294521 0.63985562 3223881
-0.12731282 0.088139653 0.63873333 2762824
-0.12598859 0.088019423 0.63786203 2170696
-0.12468654 0.087912627 0.63708812 2104648
-0.1233933 0.087810121 0.63634527 1973319
-0.12212051 0.087720364 0.6356948 1907526
-0.12086121 0.087638699 0.63510299 1710149
-0.11961166 0.087562598 0.63455153 1710149
-0.11837231 0.08749257 0.63404405 1644357
-0.11714815 0.087432526 0.63360888 1578564
-0.11594258 0.087385297 0.63326663 1578306
-0.11473966 0.087339148 0.63293219 1643843
-0.11354148 0.087295711 0.63261741 1512512
-0.11237244 0.08727403 0.6324603 1446974
-0.11119425 0.087244727 0.63224792 1381438
-0.11002995 0.087225817 0.63211089 1446973
-0.10887145 0.087211162 0.63200474 1447229
-0.10774279 0.087220356 0.63207132 1578817
-0.10662121 0.087235533 0.63218135 1512768
-0.10551251 0.087261699 0.63237095 1512767
-0.10440454 0.087289035 0.63256907 1381436
-0.10329691 0.08731728 0.63277376 1381180
-0.1021894 0.087346241 0.63298362 1381181
-0.10109049 0.087383308 0.6332522 1381438
-0.099988036 0.087418109 0.63350445 1381437
-0.0988966 0.087463468 0.63383311 1512767
-0.097820871 0.087523937 0.63427132 1513025
-0.096744835 0.087585561 0.63471794 1578562
-0.095677853 0.08765696 0.63523531 1776196
-0.094627224 0.087745242 0.63587511 2368325
-0.093575187 0.087834373 0.63652104 3947336
-0.092533134 0.087935217 0.63725179 4473672
-0.091494113 0.088041507 0.63802207 4276551
-0.090452582 0.088148057 0.63879424 3091785
-0.089408524 0.088254869 0.63956827 2302027
-0.088359743 0.088359743 0.64032829 3289420
-0.087324254 0.08848086 0.64120603 3750478
-0.086307645 0.088624626 0.64224786 3487054
-0.085295498 0.088776946 0.64335167 4211021
-0.084283821 0.088933967 0.64448959 3487054
-0.08328747 0.089111775 0.64577812 2631759
-0.082299702 0.089303933 0.64717066 2434385
-0.081322119 0.089512832 0.64868456 2697553
-0.080350116 0.08973407 0.65028781 3092049
-0.079389833 0.089975141 0.65203482 3026513
-0.078431636 0.09022586 0.65385175 4342608
-0.077531584 0.090552151 0.65621632 4802896
-0.076649792 0.090910219 0.65881115 3816016
-0.075834766 0.091359988 0.66207057 3947595
-0.075070456 0.091886237 0.6658842 3552837
-0.07456129 0.092746973 0.67212182 2829118
-0.13921714 0.091824077 0.65684748 3158074
-0.13678218 0.090992436 0.65089852 2368063
-0.13496991 0.090564221 0.64783531 2368067
-0.13333207 0.090246603 0.6455633 2960712
-0.13178211 0.089983381 0.64368039 3487049
-0.13028975 0.089755155 0.64204782 3684424
-0.12885253 0.089561179 0.64066023 3947592
-0.12745406 0.089390852 0.63944185 3026248
-0.12611616 0.089260295 0.6385079 2302281
-0.12481249 0.089151777 0.63773167 2170696
-0.12351281 0.089044124 0.63696158 2039111
-0.12223273 0.088948697 0.63627899 1973063
-0.12097069 0.088864729 0.63567829 1841478
-0.11971644 0.088784918 0.6351074 1644612
-0.11847378 0.088712253 0.63458759 1644613
-0.11724969 0.088652208 0.63415807 1578565
-0.11604302 0.088604279 0.63381523 1578563
-0.11483841 0.088556983 0.63347691 1578562
-0.11364204 0.088515162 0.63317776 1512770
-0.11247329 0.088494219 0.63302791 1446975
-0.1112962 0.088466212 0.63282758 1446975
-0.11013095 0.088447139 0.63269114 1447230
-0.10897202 0.088432789 0.63258851 1512765
-0.10783779 0.088438399 0.63262862 1578816
-0.10671467 0.088453338 0.63273549 1578818
-0.10560079 0.088476337 0.6329 1578305
-0.10449191 0.088504083 0.63309848 1512508
-0.10338343 0.088532768 0.6333037 1446970
-0.10227463 0.088561833 0.6335116 1446973
-0.10116977 0.088594995 0.63374883 1447229
-0.1000682 0.088631831 0.63401234 1447229
-0.098978907 0.088680521 0.63436061 1513023
-0.097899832 0.088739611 0.63478333 1578815
-0.096823327 0.088802457 0.63523287 1644608
-0.095753275 0.088872798 0.63573605 2170946
-0.094701901 0.088962391 0.63637692 3421510
-0.093648396 0.089052156 0.63701904 4276806
-0.092603564 0.0891525 0.63773686 4408135
-0.091563843 0.089260347 0.63850832 3486790
-0.090521596 0.089368455 0.63928163 2499657
-0.089476824 0.089476824 0.64005685 2170443
-0.088425621 0.089581512 0.64080572 3223627
-0.087384313 0.089699127 0.64164704 4079182
-0.08637327 0.089851387 0.6427362 3750478
-0.08536046 0.090005927 0.64384168 3552590
-0.084344588 0.09016145 0.6449542 2829134
-0.083345018 0.090339012 0.64622432 2500175
-0.082345627 0.09052179 0.64753181 2763345
-0.081368089 0.090734199 0.64905125 3684432
-0.080389328 0.090951428 0.65060514 4211024
-0.079427026 0.091193989 0.65234029 3355471
-0.078471825 0.091452122 0.65418679 4539984
-0.07755857 0.091767773 0.65644473 4671312
-0.07667657 0.092130765 0.65904135 3816016
-0.075850539 0.092573494 0.66220832 4079180
-0.075083815 0.09310393 0.66600269 3684422
-0.074524522 0.093913019 0.67179036 2631744
-0.13978252 0.093386613 0.65951496 3223866
-0.13707094 0.092361107 0.65227264 2499903
-0.13519448 0.091885425 0.64891326 2236483
-0.13352886 0.091545984 0.64651608 3552838
-0.13195919 0.09126693 0.64454532 3881800
-0.1304635 0.091034524 0.64290404 4079176
-0.12901476 0.090831019 0.64146686 3947337
-0.1275961 0.090645194 0.64015448 3881799
-0.12625369 0.090510644 0.63920426 2828871
-0.12493871 0.090393446 0.63837659 2236487
-0.12363755 0.090284161 0.63760483 2105159
-0.12234516 0.090179294 0.63686424 2105159
-0.12108038 0.090092979 0.63625467 2039366
-0.11982488 0.090011992 0.6356827 2039108
-0.11857543 0.089934021 0.63513207 1973316
-0.1173514 0.089873999 0.63470817 1841732
-0.11614363 0.089825369 0.63436472 1578563
-0.11493732 0.089776911 0.63402253 1513027
-0.11374279 0.089736775 0.63373905 1513026
-0.11257298 0.089715518 0.63358897 1381439
-0.11139835 0.089689948 0.63340837 1447230
-0.11023067 0.089669503 0.63326401 1513021
-0.10907411 0.089657776 0.63318115 1578812
-0.10793375 0.089659251 0.63319159 1710144
-0.10680828 0.089673266 0.63329053 1775938
-0.10568921 0.089693002 0.63342994 1710145
-0.10457943 0.089721151 0.63362873 1578813
-0.10347009 0.089750297 0.63383454 1513018
-0.10236039 0.089779787 0.6340428 1578556
-0.10124996 0.089809291 0.63425118 1644861
-0.1001515 0.08985021 0.63454014 1974077
-0.09906134 0.0898996 0.63488895 2368832
-0.097979374 0.089957669 0.63529909 2632003
-0.096902691 0.090022027 0.63575357 2171453
-0.095831372 0.090092964 0.63625455 3092546
-0.09477669 0.090181455 0.6368795 4276807
-0.093722433 0.090272523 0.63752264 4342597
-0.092674106 0.090371646 0.63822263 4013382
-0.091633677 0.09048105 0.63899529 2565447
-0.090590723 0.090590723 0.63976979 2170954
-0.089544244 0.09069965 0.64053911 2039115
-0.088491596 0.090805106 0.64128381 2828619
-0.0874497 0.090924516 0.64212716 3618381
-0.086438999 0.091080017 0.64322531 3421263
-0.085425526 0.091236793 0.64433247 2894671
-0.084409177 0.091394767 0.64544815 2500431
-0.083402723 0.091568023 0.64667171 2895183
-0.082399212 0.091749474 0.64795315 3881806
-0.081414454 0.091957331 0.6494211 4408143
-0.080435254 0.092177622 0.65097684 4342608
-0.079464257 0.092413984 0.65264606 3947343
-0.078512043 0.092679635 0.65452212 4803151
-0.077592477 0.092992514 0.65673172 4408145
-0.076703377 0.093352169 0.65927172 4013392
-0.075867303 0.093788713 0.66235465 4276556
-0.07509952 0.094324999 0.66614205 3750215
-0.074513674 0.095110945 0.67169255 2565952
-0.13736093 0.093735568 0.65365255 2762814
-0.13541979 0.093211025 0.64999473 2565698
-0.13372622 0.09284921 0.64747167 3750213
-0.13213831 0.092555024 0.64542019 4342343
-0.13064013 0.092319027 0.64377451 4276553
-0.12917785 0.092104383 0.64227772 3552584
-0.1277546 0.091913939 0.64094967 3683912
-0.12639384 0.091765389 0.6399138 3355463
-0.12506533 0.091637731 0.63902354 2434374
-0.12376255 0.091526724 0.63824946 2368327
-0.12246308 0.091416098 0.63747805 2565959
-0.12119026 0.091323473 0.63683212 3289670
-0.11993352 0.091241293 0.63625908 3684676
-0.11867905 0.091159262 0.63568705 3553089
-0.11745329 0.091097921 0.63525927 3289667
-0.11624442 0.091048583 0.63491523 2368578
-0.11503685 0.090999298 0.63457155 1710402
-0.11384371 0.090960555 0.63430136 1578818
-0.11267284 0.090938985 0.63415098 1513278
-0.11150067 0.090915926 0.63399017 1776445
-0.11033056 0.090894088 0.63383788 2105149
-0.1091764 0.090885065 0.63377494 2434365
-0.10803197 0.090884037 0.63376778 2697280
-0.10690206 0.09089534 0.63384658 2762817
-0.10578177 0.090915143 0.63398468 2960449
-0.1046671 0.090940267 0.63415992 2960959
-0.10355689 0.090969861 0.63436627 2895166
-0.10244629 0.090999775 0.63457489 2302778
-0.10133512 0.09102986 0.63478464 2565948
-0.10023565 0.091071241 0.63507324 3750468
-0.09914498 0.091121688 0.63542503 3816003
-0.098059386 0.09117803 0.63581789 3092543
-0.096981525 0.091242969 0.63627076 2960704
-0.095910095 0.091315597 0.63677722 3947844
-0.094851598 0.091402449 0.63738286 4342597
-0.09379679 0.09149503 0.63802844 4210758
-0.092744753 0.091592647 0.63870919 3157829
-0.091703609 0.091703609 0.63948298 2302280
-0.090659946 0.091814846 0.64025867 2039114
-0.089610852 0.091923393 0.64101559 1973323
-0.088557668 0.092030518 0.64176261 2301772
-0.087515958 0.092152566 0.64261371 2697293
-0.086504683 0.092310369 0.64371413 2565456
-0.085490726 0.092469558 0.64482421 2434127
-0.084473878 0.092629977 0.64594287 2895183
-0.083460584 0.092798829 0.64712036 4013646
-0.082456447 0.092982799 0.64840323 4079438
-0.081460841 0.093181826 0.64979112 3684431
-0.080481231 0.093405224 0.65134895 4276816
-0.079501525 0.093635127 0.65295213 4342607
-0.078552313 0.093908407 0.65485781 4803406
-0.0776271 0.094219148 0.65702474 4144977
-0.076730199 0.094574429 0.65950227 4079184
-0.075896822 0.095020428 0.66261238 4539724
-0.075119697 0.095552251 0.66632098 4144968
-0.074502818 0.096308529 0.67159474 2499905
-0.13765214 0.095115855 0.65503836 2828861
-0.13564968 0.094543718 0.65109819 2763073
-0.13392417 0.094156295 0.64843011 3749956
-0.13232754 0.093853459 0.64634454 4079176
-0.13081725 0.093607008 0.6446473 4276298
-0.12934145 0.093381047 0.64309114 3355464
-0.12791605 0.093187712 0.64175969 3618378
-0.12653767 0.093025409 0.64064199 3486790
-0.12519298 0.092885122 0.63967586 2960454
-0.12388779 0.092771783 0.63889533 3026503
-0.12258685 0.092659548 0.63812238 3750470
-0.1213036 0.092558675 0.63742769 4013634
-0.12004742 0.092476718 0.63686329 3947586
-0.11879347 0.092394918 0.63629997 3816257
-0.1175613 0.092328623 0.6358434 3881794
-0.11635092 0.092278317 0.63549691 3421506
-0.11514187 0.092228062 0.63515085 2303040
-0.11394527 0.092186876 0.63486719 1776449
-0.11277288 0.092164636 0.63471407 2039614
-0.11160149 0.092142768 0.63456345 2829120
-0.11043064 0.092120893 0.63441283 3618625
-0.1092775 0.092113495 0.63436186 3882049
-0.10813038 0.092111066 0.63434511 3947584
-0.10699693 0.092120349 0.63440907 4013633
-0.10587475 0.092139646 0.63454193 4079680
-0.10475492 0.092161424 0.63469195 3816510
-0.10364383 0.09219148 0.6348989 3092028
-0.10253372 0.092223071 0.63511646 2631739
-0.10142414 0.092255853 0.63534224 3355201
-0.10032063 0.092294984 0.63561171 3816002
-0.099229097 0.092346154 0.6359641 3355199
-0.098139539 0.092400379 0.63633758 2697276
-0.097060487 0.092465907 0.63678885 3684675
-0.095988937 0.092540227 0.63730067 4211268
-0.094926618 0.092625372 0.637887 4342596
-0.093871295 0.092719503 0.63853526 3618628
-0.092815511 0.092815511 0.63919646 2433860
-0.091773659 0.092928044 0.63997144 2104904
-0.090729281 0.093040854 0.64074832 1973323
-0.089677565 0.093148954 0.64149278 1907532
-0.088623844 0.09325777 0.64224219 2236237
-0.087582327 0.093382485 0.64310104 2302542
-0.086569749 0.093541808 0.6441983 2499408
-0.085556187 0.093704395 0.64531797 2565454
-0.084538668 0.093867071 0.6464383 3618638
-0.083518535 0.094031356 0.64756966 4342607
-0.082513809 0.094217896 0.64885432 3882063
-0.081506997 0.094407387 0.6501593 3618639
-0.08052703 0.094633959 0.65171963 4342608
-0.079542391 0.094861671 0.65328783 4671567
-0.078592621 0.095138438 0.65519387 4868686
-0.077661738 0.09544687 0.65731794 3881809
-0.076757036 0.095797546 0.65973294 4210768
-0.075926363 0.096253105 0.66287029 4671564
-0.075142495 0.096783534 0.66652322 3947337
-0.074491985 0.097505771 0.67149705 2302530
-0.13794173 0.096500009 0.65641642 2697277
-0.13588338 0.095883071 0.65221983 2828609
-0.13412271 0.095467262 0.64939141 3947587
-0.13252239 0.09515924 0.64729619 3881801
-0.13099484 0.094898492 0.64552248 3486794
-0.12950847 0.094663136 0.64392155 3947593
-0.12807792 0.094464712 0.64257181 4079176
-0.12668502 0.094290681 0.641388 3881798
-0.12533368 0.09414465 0.64039469 3750470
-0.12401328 0.094019376 0.63954252 3948102
-0.12271865 0.093911454 0.63880843 4211011
-0.12143179 0.093807496 0.63810128 4079171
-0.12017389 0.093724132 0.6375342 3750211
-0.1189185 0.09364114 0.63696969 3420994
-0.11767743 0.0935679 0.63647151 3684163
-0.11646579 0.093516871 0.63612437 3552834
-0.1152555 0.093465902 0.63577765 2763327
-0.11405345 0.093420669 0.63546997 2171200
-0.11287546 0.093394414 0.6352914 3289409
-0.11170065 0.093370281 0.63512725 3947585
-0.1105309 0.093349926 0.63498878 4013633
-0.1093767 0.093342416 0.6349377 3223868
-0.1082294 0.093340702 0.63492602 2960698
-0.10709316 0.093348585 0.63497967 3881537
-0.10596963 0.093367837 0.63511062 4079167
-0.10484563 0.09338709 0.63524157 3684669
-0.10373358 0.093417533 0.63544863 2434105
-0.10262384 0.093450755 0.63567466 2368316
-0.10151331 0.093484014 0.63590086 2631230
-0.10040576 0.093520798 0.63615108 2499900
-0.099313356 0.093572699 0.63650411 2368317
-0.098221801 0.093626633 0.63687098 3026497
-0.097139709 0.093690962 0.6373086 3947844
-0.096067913 0.093766883 0.63782501 4276547
-0.095001765 0.093850233 0.63839197 4013636
-0.093945928 0.093945928 0.63904291 2894658
-0.092888765 0.094042666 0.63970095 2170694
-0.091843814 0.09415435 0.64046067 2105160
-0.090798721 0.094268739 0.64123875 2762826
-0.089744374 0.094376341 0.64197069 3552588
-0.088690117 0.094486855 0.64272243 3618636
-0.087648794 0.09461426 0.64358908 2828876
-0.086634919 0.09477511 0.64468324 2697039
-0.085619576 0.094938718 0.64579612 3289935
-0.084603183 0.095105641 0.64693159 4342605
-0.083581828 0.095271595 0.64806044 4540238
-0.082571261 0.095454723 0.64930612 3947855
-0.081562035 0.095644683 0.65059829 3947598
-0.080572799 0.095863983 0.65209001 4605518
-0.079590224 0.096097827 0.65368068 4737358
-0.078632981 0.096369736 0.65553027 4868687
-0.077696413 0.096675694 0.65761143 3947600
-0.076790221 0.0970295 0.66001815 4474191
-0.075955786 0.097486563 0.66312718 4737101
-0.075165302 0.098015554 0.66672552 3618378
-0.074484006 0.098706447 0.6714251 2170691
-0.13836086 0.097980857 0.65841085 2960699
-0.13613018 0.097235844 0.65340447 2763072
-0.13434123 0.09679608 0.6504494 3881794
-0.13271779 0.096468873 0.64825064 3881800
-0.13117293 0.096193478 0.64640003 3092042
-0.12968251 0.09595342 0.64478689 3684425
-0.12824021 0.095744953 0.64338601 4144968
-0.12683272 0.095558904 0.6421358 4408134
-0.12547958 0.095410734 0.64114016 4473925
-0.12414974 0.095277704 0.64024621 4342341
-0.12285487 0.095169261 0.63951749 4211013
-0.12156293 0.095061056 0.63879037 3749957
-0.12030062 0.094974175 0.63820654 3157828
-0.11904379 0.094889976 0.63764077 3289668
-0.11779635 0.0948117 0.63711476 3947840
-0.1165809 0.094757877 0.63675308 3552576
-0.11536934 0.094706178 0.63640565 2697535
-0.11416388 0.094658487 0.63608521 3421250
-0.11298271 0.094630182 0.63589501 3882304
-0.11180422 0.094603576 0.6357162 3882047
-0.11063179 0.094581589 0.63556844 3223871
-0.10947739 0.094574705 0.63552219 2763067
-0.10832935 0.094573237 0.63551235 3224127
-0.10719161 0.094580829 0.63556337 4079426
-0.10606504 0.094598554 0.63568246 3947585
-0.10494005 0.094618075 0.63581365 3157565
-0.10382479 0.094646916 0.63600743 2039099
-0.10271411 0.094680607 0.63623387 1775931
-0.10160265 0.094714336 0.63646048 1775932
-0.1004936 0.094751112 0.6367076 1841980
-0.099397749 0.094801322 0.63704503 2368574
-0.098304994 0.094855696 0.6374104 3618883
-0.097219639 0.094918586 0.637833 4144963
-0.096146375 0.094994918 0.63834596 4276291
-0.09507703 0.09507703 0.63889772 3421249
-0.094020672 0.095174298 0.63955134 2434114
-0.092962749 0.095272385 0.64021045 2302789
-0.091914073 0.095382534 0.64095062 3026504
-0.090868264 0.095498495 0.64172989 4144969
-0.089811273 0.095605552 0.64244926 4144969
-0.088756479 0.095717773 0.64320338 4276555
-0.087715365 0.095847912 0.6440779 3289420
-0.086700179 0.09601026 0.64516884 2960717
-0.085679591 0.096170969 0.64624876 3947854
-0.084666416 0.096344545 0.64741516 4671819
-0.083645217 0.096513718 0.64855194 4605774
-0.082628816 0.0966933 0.6497587 4473935
-0.081618994 0.09688586 0.65105265 4473933
-0.080618605 0.0970954 0.65246075 4473934
-0.079638116 0.09733548 0.65407401 4737102
-0.078676954 0.097606748 0.6558969 4803150
-0.077731118 0.097905606 0.65790516 4276560
-0.076825045 0.098264597 0.66031748 4868687
-0.075975671 0.098708548 0.66330075 4342350
-0.075180076 0.099237695 0.66685653 3289163
-0.074502923 0.099942945 0.67159563 2039109
-0.13887292 0.099535525 0.6608476 2960698
-0.13641867 0.098623022 0.65478921 2368320
-0.13456669 0.098133795 0.65154105 3816002
-0.13291377 0.097782373 0.64920789 3881799
-0.13135149 0.097491987 0.64727992 3486794
-0.12985702 0.097247183 0.64565456 3552842
-0.1284029 0.097028434 0.64420223 3947592
-0.12698738 0.096835129 0.64291883 4276295
-0.1256258 0.096679762 0.64188731 4473925
-0.12428749 0.096539579 0.64095658 4408388
-0.12299138 0.096429855 0.64022809 4013382
-0.12169785 0.0963201 0.63949937 3157574
-0.12042762 0.096226849 0.63888025 2367813
-0.11916935 0.096141465 0.63831335 2499140
-0.11791679 0.096059039 0.63776612 3026242
-0.11669624 0.096001342 0.63738304 3092289
-0.11548341 0.095948905 0.63703489 3355202
-0.11427519 0.095899284 0.63670546 4079170
-0.11309014 0.095868297 0.6364997 3947584
-0.11191052 0.095841318 0.63632059 3487037
-0.11073516 0.095817469 0.63616228 2565691
-0.10958008 0.095810853 0.63611835 2829117
-0.10842905 0.095807679 0.63609725 3750465
-0.1072907 0.095815755 0.6361509 4079170
-0.10616064 0.095831499 0.63625538 3552833
-0.10503465 0.095851295 0.63638681 2368316
-0.10391618 0.095878467 0.63656723 1907515
-0.10280456 0.095912635 0.63679409 1710395
-0.10169214 0.095946819 0.63702106 1710397
-0.10058212 0.095984079 0.63726842 2039613
-0.09948229 0.096032038 0.63758683 3092546
-0.098388322 0.096086845 0.63795072 3882050
-0.097299695 0.096148223 0.63835824 4144962
-0.096224919 0.096224919 0.63886744 4013378
-0.095152415 0.09630578 0.6394043 2828864
-0.094095536 0.096404627 0.6400606 2368067
-0.093036845 0.096504055 0.64072073 3223623
-0.091984443 0.096612595 0.64144135 4210761
-0.090937115 0.096729286 0.64221609 4144968
-0.089878283 0.096836604 0.6429286 3289414
-0.088822953 0.096950546 0.6436851 4078922
-0.087782033 0.097083442 0.64456743 3486796
-0.086762965 0.097244397 0.64563608 3552845
-0.08573968 0.097404942 0.64670199 4539981
-0.084729761 0.097585313 0.64789951 4671566
-0.083707899 0.097756781 0.64903796 4210511
-0.082688734 0.097936302 0.65022987 4144718
-0.081676602 0.098129444 0.65151221 4210766
-0.080664471 0.098328225 0.65283197 4276558
-0.079686068 0.098574616 0.65446782 4737103
-0.078721285 0.098845519 0.65626645 4803150
-0.077769145 0.099140823 0.65822703 4539984
-0.076859906 0.099500813 0.66061711 4671312
-0.07599555 0.099931158 0.66347432 4013135
-0.075205177 0.10047412 0.66707921 2828876
-0.07452257 0.10118105 0.67177278 1973319
-0.07406719 0.10222496 0.67870361 2170941
-0.13670835 0.10001606 0.65617961 2105151
-0.13479866 0.099480234 0.65266418 3223618
-0.13311033 0.099099763 0.650168 3881798
-0.13153067 0.098794155 0.64816296 3816009
-0.13003199 0.098544426 0.64652455 3815754
-0.128566 0.098315179 0.64502054 3618632
-0.12714708 0.098118067 0.64372736 4079175
-0.12577237 0.097951762 0.64263624 4473925
-0.12442788 0.097806096 0.6416806 4342597
-0.1231282 0.097693264 0.64094031 3553094
-0.12183308 0.097581945 0.64020997 2697030
-0.12055545 0.097482637 0.63955843 2104902
-0.11929518 0.097395584 0.6389873 2104644
-0.11803771 0.097309135 0.63842016 2499394
-0.1168118 0.097247265 0.63801426 3157826
-0.11559772 0.097194105 0.63766545 4013378
-0.11438673 0.097142503 0.6373269 4013376
-0.1131978 0.097108766 0.63710558 3684416
-0.11201701 0.097081415 0.63692611 2697276
-0.11083932 0.097056195 0.63676065 2368570
-0.10968298 0.097049341 0.63671571 3224126
-0.10852771 0.097043291 0.63667601 4079425
-0.10738997 0.097052969 0.63673949 3882050
-0.1062564 0.097066656 0.63682932 3157825
-0.10512941 0.097086728 0.63696098 2302271
-0.10400772 0.097112186 0.637128 2105149
-0.10289516 0.097146824 0.63735527 1908282
-0.10178179 0.097181484 0.63758266 1842235
-0.10067079 0.097219221 0.63783026 2631743
-0.099566974 0.097264849 0.63812959 3816003
-0.098471791 0.09732008 0.63849193 4013632
-0.097379655 0.097379655 0.63888282 3948096
-0.09630359 0.097456925 0.63938975 3486784
-0.09522792 0.097536474 0.63991165 2696768
-0.094170518 0.097636916 0.64057064 2960196
-0.093111061 0.0977377 0.64123183 4210503
-0.092054918 0.097844541 0.64193279 4276551
-0.091004938 0.097960725 0.64269507 3026245
-0.089945391 0.098069496 0.64340866 2499655
-0.08889021 0.098185919 0.64417249 3881546
-0.087848797 0.098320842 0.64505768 3553099
-0.086825453 0.098479874 0.64610106 4144973
-0.085799858 0.098640651 0.64715588 4671564
-0.084790267 0.098824516 0.64836216 4342352
-0.083770677 0.099001706 0.64952469 3223886
-0.082751714 0.099184684 0.65072513 3684174
-0.081736073 0.099376947 0.65198654 3618637
-0.080719523 0.099573724 0.65327752 4013389
-0.07973408 0.099815257 0.65486217 4868686
-0.078765668 0.1000857 0.65663648 4868941
-0.077815838 0.10038837 0.65862221 4737103
-0.076894805 0.10073815 0.66091704 4144721
-0.076015443 0.10115441 0.66364801 3486544
-0.075234078 0.10171647 0.66733557 2499661
-0.074541248 0.10241846 0.6719411 2104903
-0.07395862 0.10329758 0.6777088 2170940
-0.13699627 0.10141283 0.6575616 2236734
-0.13503143 0.10083133 0.65379119 2565443
-0.13330749 0.10042106 0.65113097 3618629
-0.13172488 0.10011091 0.64911997 3618377
-0.13020745 0.099845171 0.64739692 3749962
-0.1287315 0.099606723 0.64585084 3158088
-0.12730719 0.099404238 0.64453793 4079176
-0.1259193 0.099226736 0.64338696 4539717
-0.12457086 0.099077292 0.64241797 4276550
-0.12326531 0.098959476 0.64165407 3289414
-0.1219686 0.098846592 0.64092213 2368070
-0.12068499 0.098742269 0.64024568 2170695
-0.11942127 0.098652355 0.63966268 2368068
-0.11816236 0.098564699 0.63909435 2960451
-0.11692984 0.098497547 0.63865894 3815746
-0.11571225 0.098441765 0.6382972 4145216
-0.11449849 0.09838815 0.63794959 3881792
-0.11330566 0.098351613 0.63771266 3158078
-0.11212372 0.098323874 0.63753283 2039610
-0.11094469 0.098298147 0.637366 2894910
-0.10978607 0.098290145 0.63731414 3882050
-0.10862856 0.098282978 0.63726765 4013633
-0.10748942 0.098292463 0.63732916 3486785
-0.10635234 0.098304056 0.63740432 2697023
-0.10522436 0.098324403 0.63753623 2828865
-0.10410085 0.098349422 0.63769847 2894912
-0.10298591 0.098383188 0.6379174 2171195
-0.10187159 0.098418318 0.63814521 2302781
-0.10075963 0.098456554 0.6383931 3223873
-0.099651814 0.098499767 0.63867331 4013890
-0.098555408 0.098555408 0.63903409 4079681
-0.097462259 0.098615654 0.63942474 3882049
-0.096382663 0.098691233 0.63991475 2829117
-0.095306426 0.098772116 0.64043921 2763327
-0.09424562 0.098871171 0.64108151 3816261
-0.093185402 0.098973311 0.64174378 4277061
-0.092125505 0.099078372 0.642425 3882054
-0.091072857 0.099194005 0.64317477 2499910
-0.090012603 0.099304229 0.64388943 2565960
-0.088957779 0.099423401 0.64466214 3882058
-0.087915666 0.099560127 0.6455487 3816010
-0.086888023 0.099717125 0.64656669 4539981
-0.085860118 0.099878103 0.64761043 4737357
-0.084849924 0.1000644 0.64881837 3815760
-0.083833553 0.10024852 0.6500122 3157837
-0.082814798 0.10043497 0.65122116 4079182
-0.081795625 0.10062627 0.65246159 3421006
-0.080779426 0.10082687 0.65376228 4013387
-0.079783693 0.10105934 0.65526962 4803148
-0.078810096 0.10132727 0.65700686 4868685
-0.077862583 0.10163742 0.65901786 4342096
-0.076929726 0.10197661 0.66121721 3552593
-0.07604976 0.10239771 0.66394758 2960465
-0.075261235 0.10295737 0.66757643 2236494
-0.074553497 0.10364754 0.67205155 2236488
-0.07389991 0.10443706 0.67717075 2039355
-0.13728543 0.10281549 0.65894949 2368572
-0.13526499 0.1021871 0.65492207 2104898
-0.13350512 0.10174619 0.65209633 3223365
-0.13191967 0.10143156 0.65007985 3289162
-0.13038337 0.10114943 0.64827162 3157834
-0.12890501 0.10090754 0.64672136 2894665
-0.12746769 0.10069365 0.64535052 4013640
-0.12606657 0.10050468 0.64413941 4474182
-0.12471681 0.10035353 0.64317065 4144966
-0.12340203 0.10022794 0.64236575 3223878
-0.12210444 0.10011406 0.64163589 2368070
-0.12081483 0.10000462 0.64093447 2565446
-0.11954763 0.099911787 0.64033949 3092037
-0.11828728 0.099822924 0.63976997 3815747
-0.11704967 0.099751696 0.63931346 4210751
-0.11582699 0.09969189 0.6389302 4145217
-0.11461171 0.099637315 0.63858038 3487040
-0.11341619 0.099598989 0.63833475 2500157
-0.11223062 0.099568702 0.63814068 2434622
-0.11105025 0.099542454 0.63797241 3421504
-0.10988936 0.09953329 0.6379137 4079424
-0.10873073 0.099526018 0.63786709 3750464
-0.10758874 0.099533968 0.63791806 3092287
-0.10644845 0.099543691 0.63798034 2828863
-0.10531947 0.099564306 0.63811249 3618627
-0.10419507 0.099589773 0.63827568 2894910
-0.10307682 0.099621736 0.63848054 1973562
-0.10196156 0.099657342 0.63870877 2697534
-0.10084862 0.099696063 0.6389569 3684674
-0.099737659 0.099737659 0.63922352 4079168
-0.09863916 0.099792838 0.63957715 4013632
-0.097545132 0.099853888 0.63996845 3553343
-0.096462578 0.099928305 0.64044535 2565948
-0.095385514 0.10001026 0.64097065 3026751
-0.094322212 0.10010885 0.64160252 4211014
-0.093260027 0.10021109 0.64225775 4145221
-0.092196666 0.10031461 0.64292121 3289922
-0.091140889 0.10042913 0.64365518 2499911
-0.090080969 0.10054199 0.64437848 2829127
-0.089025766 0.10066312 0.64515483 3947593
-0.087982886 0.10080159 0.64604229 4078923
-0.08695069 0.10095617 0.64703304 4737354
-0.085920975 0.10111789 0.64806944 4671566
-0.08490967 0.10130602 0.64927524 3223887
-0.083895102 0.10149547 0.65048945 3618637
-0.082877971 0.10168716 0.65171796 3947854
-0.08185754 0.10188024 0.65295547 3223630
-0.08083982 0.1020824 0.6542511 3881548
-0.079843476 0.10231794 0.65576065 4671308
-0.078857236 0.1025737 0.65739983 4605518
-0.077909388 0.10288797 0.65941399 3684176
-0.076968357 0.10322113 0.66154927 3026001
-0.076082759 0.1036403 0.66423571 2565713
-0.075277887 0.10418459 0.66772413 2762830
-0.074552782 0.10485879 0.67204511 2499656
-0.073876977 0.10562576 0.67696065 2105153
-0.13765769 0.10428613 0.66073632 2565949
-0.13549939 0.10354757 0.65605694 1841730
-0.13371317 0.10308284 0.65311253 2565189
-0.13211502 0.10275613 0.65104252 2960202
-0.13056011 0.10245749 0.64915043 2631242
-0.129079 0.10221188 0.64759427 2565449
-0.12762858 0.10198631 0.64616513 3749961
-0.12621713 0.10178801 0.64490873 4342342
-0.12486313 0.10163277 0.64392519 4342598
-0.12353879 0.10149901 0.64307767 3816263
-0.12224056 0.10138435 0.64235121 2960454
-0.12094493 0.10126968 0.64162469 3289670
-0.11967508 0.10117459 0.64102221 3947588
-0.11841245 0.10108379 0.64044696 4276545
-0.11716975 0.1010084 0.63996929 4144958
-0.11594198 0.1009445 0.63956445 4013376
-0.11472541 0.10088918 0.63921392 3421249
-0.11352717 0.10084901 0.63895941 2434109
-0.11233773 0.10081591 0.63874972 3355712
-0.11115602 0.10078913 0.63858002 3947840
-0.10999167 0.10077771 0.63850766 4079424
-0.10883311 0.1007714 0.63846767 3421500
-0.10768691 0.10077652 0.63850015 3026493
-0.10654572 0.10078648 0.63856328 3618372
-0.10541475 0.10080645 0.63868976 3157824
-0.10428948 0.10083237 0.63885397 2302267
-0.1031679 0.10086247 0.6390447 2039353
-0.10205169 0.10089856 0.63927335 3092286
-0.10093777 0.10093777 0.63952178 3882048
-0.099825859 0.10097992 0.63978881 4013631
-0.098723061 0.10103238 0.64012116 3882048
-0.097628444 0.10109454 0.64051503 3223869
-0.096542627 0.10116742 0.64097679 2697277
-0.095464721 0.10125046 0.64150292 3552834
-0.09439905 0.10134868 0.64212519 4210758
-0.093336083 0.10145226 0.6427815 3816260
-0.092270941 0.10155607 0.64343917 2697795
-0.091211639 0.10166902 0.64415485 2500166
-0.090152189 0.10178473 0.64488792 3487049
-0.089094028 0.10190494 0.64564955 3750216
-0.088050447 0.10204522 0.64653838 4342346
-0.087013245 0.10219676 0.64749849 4802890
-0.08598309 0.10236082 0.64853793 4539727
-0.084969506 0.1025494 0.64973277 3553102
-0.083952539 0.10273912 0.65093476 4145229
-0.08294002 0.10293975 0.65220588 3618638
-0.081919745 0.10313638 0.65345168 2960462
-0.080900311 0.10333981 0.65474063 3552589
-0.079901978 0.10357664 0.65624112 4342349
-0.078911185 0.1038305 0.65784955 3815502
-0.077956244 0.10414002 0.6598106 2960464
-0.077017143 0.10448062 0.66196859 2697297
-0.076113962 0.10488144 0.6645081 2565457
-0.075298071 0.1054173 0.66790318 3289423
-0.074560538 0.10608207 0.67211503 2762825
-0.073863782 0.10682778 0.67683971 1776445
-0.13810138 0.10581794 0.662866 2631482
-0.13576108 0.10493324 0.65732402 2499649
-0.1339445 0.1044413 0.6542424 2104900
-0.13231055 0.10408431 0.65200609 2565193
-0.1307386 0.1037701 0.65003783 2631243
-0.12925345 0.10351974 0.64846951 2499658
-0.12778972 0.1032821 0.64698094 2828617
-0.12637588 0.10308079 0.64571989 3881544
-0.12500978 0.10291502 0.64468145 4408133
-0.12367728 0.10277408 0.64379859 4276550
-0.12237691 0.10265741 0.64306772 3947590
-0.12107844 0.10254011 0.64233297 4013382
-0.11980398 0.10244108 0.64171261 4078916
-0.11853789 0.10234735 0.64112544 4144962
-0.11729006 0.10226769 0.64062643 4210751
-0.11605912 0.10220131 0.64021063 4144960
-0.11483935 0.10214355 0.63984877 3881793
-0.11363837 0.10210148 0.63958526 3355456
-0.11244505 0.1020655 0.63935989 3947841
-0.11126199 0.1020382 0.63918883 4145472
-0.11009344 0.10202376 0.63909841 4079680
-0.10893568 0.10201914 0.63906944 3618621
-0.10778527 0.10202135 0.63908333 3487040
-0.10664467 0.10203301 0.63915634 3355202
-0.1055102 0.10205085 0.6392681 2499647
-0.10438404 0.10207722 0.63943326 2104895
-0.10325915 0.10210541 0.63960987 2302524
-0.10214198 0.10214198 0.63983893 3289664
-0.10102707 0.10218167 0.64008754 4013633
-0.099914223 0.10222438 0.64035511 4079424
-0.098807327 0.10227425 0.64066756 3816000
-0.097712412 0.10233785 0.64106596 2829115
-0.096622795 0.10240859 0.64150906 2960446
-0.09554407 0.10249273 0.64203614 3816004
-0.094476007 0.10259051 0.64264864 3947332
-0.093412258 0.10269546 0.64330608 2894658
-0.092346318 0.10280062 0.64396483 2236996
-0.091283724 0.10291222 0.64466393 2894919
-0.090223521 0.10302944 0.6453982 3947594
-0.089162402 0.10314866 0.64614505 3223621
-0.088117734 0.10329033 0.64703244 4539978
-0.08707571 0.10343894 0.64796335 4802891
-0.086045131 0.10360536 0.64900589 4408143
-0.085027225 0.10379186 0.65017414 4211278
-0.08400961 0.10398392 0.65137726 4276814
-0.083001047 0.10419281 0.65268576 3223886
-0.081980474 0.1043924 0.65393609 2697295
-0.08096154 0.10459995 0.65523618 3026255
-0.07995946 0.10483573 0.65671319 3026254
-0.078971379 0.10509724 0.65835136 2828623
-0.078003161 0.10539358 0.66020769 2697040
-0.0770666 0.10574255 0.66239369 2565456
-0.076153867 0.1061357 0.66485649 2894672
-0.075317942 0.1066502 0.66807944 4013137
-0.074563995 0.10729941 0.6721462 3026250
-0.073853366 0.10803343 0.67674428 1841984
-0.13863699 0.10742866 0.6654368 2236728
-0.13604751 0.10634281 0.65871084 2960447
-0.13417663 0.10580447 0.6553762 2762820
-0.1325061 0.10541597 0.65296972 2565193
-0.13092288 0.10509057 0.65095413 2697035
-0.1294277 0.10483059 0.64934373 2631498
-0.12795039 0.10458045 0.64779437 2499913
-0.12653378 0.10437579 0.64652663 2631242
-0.12515676 0.10420028 0.64543951 3486792
-0.12381941 0.10405481 0.6445384 3881543
-0.12251268 0.10393256 0.64378119 3749959
-0.12121359 0.10381451 0.6430499 3223622
-0.11993316 0.10371032 0.64240456 2960196
-0.1186636 0.10361359 0.64180535 3684420
-0.11741064 0.10352958 0.641285 4144960
-0.11617834 0.10346231 0.64086831 4144960
-0.11495352 0.1034004 0.64048487 4144962
-0.11374979 0.10335641 0.64021236 4013378
-0.11255277 0.10331767 0.63997239 4079424
-0.11136814 0.10328963 0.6397987 4145216
-0.11019539 0.10327213 0.63969028 4079424
-0.10903845 0.10326922 0.63967228 3881794
-0.10788381 0.10326846 0.63966757 3420994
-0.10674361 0.10328166 0.63974935 2499647
-0.10560583 0.10329751 0.63984752 2104896
-0.10447879 0.10332432 0.64001364 1973567
-0.10335129 0.10335129 0.64018065 2434109
-0.10223242 0.10338759 0.64040548 3487040
-0.10111654 0.10342777 0.64065439 4013631
-0.10000273 0.10347103 0.64092237 4079423
-0.098891847 0.10351837 0.64121556 3816256
-0.097796522 0.1035833 0.64161777 2565947
-0.096703671 0.10365244 0.64204603 2829119
-0.095623545 0.10373706 0.6425702 3487044
-0.094553098 0.10383438 0.64317304 2631489
-0.093488552 0.10394068 0.64383149 2104898
-0.092421614 0.10404698 0.64448988 2433861
-0.091355927 0.1041574 0.64517385 3486791
-0.090294965 0.10427612 0.64590925 3421510
-0.089232638 0.10439635 0.64665401 3223368
-0.088184811 0.10453696 0.64752495 4539977
-0.087138288 0.10468291 0.64842898 4803146
-0.086106375 0.10485062 0.64946783 4868684
-0.08508496 0.10503591 0.65061557 4737102
-0.084066756 0.10523041 0.65182036 3684431
-0.083058074 0.10544252 0.65313417 2828879
-0.082041293 0.1056503 0.65442121 2499919
-0.081025034 0.10586482 0.65575004 2368079
-0.080017015 0.10609663 0.65718591 2433870
-0.079031669 0.10636593 0.65885401 2433871
-0.078054696 0.10665489 0.66064388 2499664
-0.077115618 0.10700539 0.66281497 2631248
-0.076212481 0.10741759 0.6653682 3289425
-0.075352296 0.10790449 0.66838419 4342097
-0.074567325 0.10851667 0.67217618 3354955
-0.073844217 0.10924061 0.67666042 1907520
-0.13633515 0.10775835 0.6601035 2302270
-0.13440956 0.10717238 0.65651399 3223619
-0.13270225 0.10675158 0.65393627 3157576
-0.1311163 0.10642175 0.65191579 2894410
-0.12960057 0.10614345 0.65021098 3026250
-0.12811875 0.1058881 0.64864677 2894665
-0.12669207 0.10567403 0.64733541 2499913
-0.12530424 0.10548869 0.64620006 2697288
-0.12396187 0.10533848 0.64527994 2697287
-0.12264875 0.10521054 0.6444962 2368071
-0.12134901 0.10509173 0.64376837 2367814
-0.12006262 0.10498229 0.643098 2302021
-0.11879069 0.10488348 0.64249271 2631235
-0.11753146 0.10479406 0.64194489 3420995
-0.1162978 0.10472588 0.6415273 3684161
-0.11506791 0.10465976 0.64112222 3486529
-0.11386143 0.1046138 0.64084071 2828862
-0.11266319 0.10457455 0.64060026 3355199
-0.11147452 0.10454346 0.64040983 4013377
-0.1102999 0.10452504 0.64029694 3684415
-0.10914141 0.10452167 0.64027631 2894652
-0.10798252 0.10451785 0.64025289 2039357
-0.1068413 0.10453121 0.64033478 1907777
-0.10570163 0.10454642 0.64042795 1907522
-0.1045737 0.1045737 0.64059502 1973311
-0.1034452 0.10460102 0.64076239 2697278
-0.10232302 0.1046354 0.64097303 3618624
-0.10120616 0.10467608 0.64122224 3882303
-0.10009141 0.10471991 0.6414907 3947840
-0.098976508 0.10476461 0.64176452 3618880
-0.097880788 0.10483091 0.64217061 2433851
-0.096787043 0.10490093 0.64259958 2499903
-0.095703155 0.10498346 0.64310515 2631746
-0.094630301 0.10508028 0.64369822 2105153
-0.093564965 0.10518794 0.64435774 2170947
-0.092496954 0.10529527 0.64501524 3223622
-0.091428243 0.10540453 0.64568454 3618630
-0.09036652 0.10552478 0.64642113 2697029
-0.089303561 0.1056467 0.64716798 3421003
-0.088251978 0.10578549 0.64801818 4474185
-0.08720094 0.10592866 0.6488952 4737354
-0.086166866 0.10609662 0.6499241 4802893
-0.085142113 0.10628085 0.65105265 4144719
-0.084123977 0.1064786 0.65226406 3092047
-0.083115175 0.10669395 0.65358323 2697039
-0.082102194 0.10691005 0.65490699 2434127
-0.081088617 0.10713168 0.65626466 2302543
-0.080078319 0.10736426 0.65768939 2302286
-0.079085752 0.10762797 0.65930486 2368079
-0.078110225 0.10792328 0.66111386 2499663
-0.077172354 0.10828058 0.6633026 2697296
-0.076250359 0.10867177 0.66569889 3486802
-0.075385384 0.10915804 0.66867769 4736850
-0.074572936 0.10973741 0.67222679 3025996
-0.073843755 0.1104605 0.67665625 1973313
-0.1366238 0.10917971 0.66150105 1973053
-0.1346433 0.10854504 0.65765566 2433858
-0.13289897 0.10809116 0.65490568 3223366
-0.13131006 0.10775669 0.65287918 3289162
-0.1297739 0.10745984 0.65108061 3289162
-0.12828802 0.10719957 0.64950371 3223625
-0.12685074 0.10697551 0.64814615 3750217
-0.12545308 0.106781 0.64696765 3355463
-0.12410464 0.10662511 0.64602315 3355464
-0.12278513 0.10649137 0.64521283 3289671
-0.12148432 0.10637144 0.64448619 3157830
-0.12019235 0.10625701 0.64379287 2828869
-0.11891893 0.1061569 0.64318633 2368323
-0.11765251 0.10606113 0.64260608 2104898
-0.11641753 0.10599208 0.64218771 1907521
-0.11518414 0.10592311 0.64176983 1775681
-0.11397329 0.10587366 0.64147025 1775937
-0.11277383 0.1058339 0.64122933 1776446
-0.11158109 0.10579969 0.64102209 1974078
-0.11040533 0.10578102 0.64090896 1973309
-0.10924268 0.10577466 0.64087039 1841469
-0.10808142 0.10576952 0.64083928 1709886
-0.10693917 0.10578307 0.64092135 1776193
-0.10579769 0.10579769 0.64100993 1907521
-0.10466879 0.10582535 0.64117754 1973053
-0.10353929 0.10585301 0.64134514 2697277
-0.10241378 0.10588544 0.6415416 3684416
-0.10129594 0.10592661 0.64179105 3882046
-0.10018023 0.10597099 0.64205998 3947839
-0.09906359 0.10601542 0.64232916 3684415
-0.097965196 0.10608066 0.64272439 2500154
-0.096870564 0.10615157 0.64315408 2039355
-0.095782906 0.10623195 0.64364105 1973567
-0.094707638 0.10632821 0.64422429 2171201
-0.09364152 0.10643725 0.64488494 2895172
-0.092572421 0.10654561 0.64554149 3816007
-0.09150067 0.10665365 0.64619607 3091781
-0.090438187 0.10677541 0.64693379 2302534
-0.089374602 0.10689903 0.64768279 3157577
-0.088319257 0.10703592 0.64851218 4276810
