# .PCD v0.7 - Point Cloud Data file format
VERSION 0.7
FIELDS x y z rgb
SIZE 4 4 4 4
TYPE F F F U
COUNT 1 1 1 1
WIDTH 976
HEIGHT 1
VIEWPOINT 0 0 0 1 0 0 0
POINTS 976
DATA ascii
-0.067203686 0.010235354 0.040782392 4278190080
-0.067203686 0.01178775 0.040782392 4278190080
-0.067203686 0.013340153 0.040782392 4278190080
-0.067506485 0.014593452 0.042782247 4278190080
-0.067809388 0.015854456 0.0447824 4278190080
-0.068112284 0.017123051 0.046782255 4278190080
-0.068112284 0.018686853 0.046782255 4278190080
-0.068415083 0.019966856 0.048782289 4278190080
-0.068415083 0.02153445 0.048782289 4278190080
-0.068717986 0.022825852 0.050782263 4278190080
-0.068717986 0.024397351 0.050782263 4278190080
-0.069020785 0.025700152 0.052782297 4278190080
-0.069929384 0.026481152 0.058782399 4278190080
-0.07023219 0.027806856 0.060782254 4278190080
-0.07023219 0.029397354 0.060782254 4278190080
-0.070837982 0.030481152 0.064782262 4278190080
-0.070837982 0.03207925 0.064782262 4278190080
-0.070837982 0.033677354 0.064782262 4278190080
-0.070535086 0.038705871 0.062782288 4278190080
-0.070535086 0.040300161 0.062782288 4278190080
-0.071140788 0.04144112 0.066782296 4278190080
-0.070837982 0.043265887 0.064782262 4278190080
-0.070837982 0.044863977 0.064782262 4278190080
-0.071140788 0.046246834 0.066782296 4278190080
-0.071443684 0.047637306 0.068782389 4278190080
-0.072503679 0.048516355 0.075782299 4278190080
-0.072503679 0.050135404 0.075782299 4278190080
-0.072806485 0.051554456 0.077782393 4278190080
-0.073109381 0.052981116 0.079782248 4278190080
-0.073109381 0.054607786 0.079782248 4278190080
-0.073412292 0.056045882 0.081782401 4278190080
-0.073109381 0.05786112 0.079782248 4278190080
-0.073109381 0.059487782 0.079782248 4278190080
-0.073109381 0.061114453 0.079782248 4278190080
-0.073412292 0.062567785 0.081782401 4278190080
-0.073412292 0.064198256 0.081782401 4278190080
-0.057876088 -0.079065546 -0.011217713 4278190080
-0.057876088 -0.077612251 -0.011217713 4278190080
-0.057876088 -0.076158851 -0.011217713 4278190080
-0.057876088 -0.074705541 -0.011217713 4278190080
-0.057876088 -0.073252246 -0.011217713 4278190080
-0.057576984 -0.071252242 -0.013217747 4278190080
-0.057427488 -0.069531247 -0.014217615 4278190080
-0.057128482 -0.06754455 -0.016217709 4278190080
-0.056829385 -0.065565541 -0.018217742 4278190080
-0.056829385 -0.064125553 -0.018217742 4278190080
-0.056679882 -0.062421754 -0.01921761 4278190080
-0.056679882 -0.060983643 -0.01921761 4278190080
-0.056679882 -0.059545547 -0.01921761 4278190080
-0.056679882 -0.058107451 -0.01921761 4278190080
-0.056829385 -0.05692555 -0.018217742 4278190080
-0.056829385 -0.055485547 -0.018217742 4278190080
-0.056829385 -0.054045543 -0.018217742 4278190080
-0.057128482 -0.053106546 -0.016217709 4278190080
-0.057427488 -0.052159846 -0.014217615 4278190080
-0.057427488 -0.050712243 -0.014217615 4278190080
-0.057576984 -0.049509346 -0.013217747 4278190080
-0.058175087 -0.049031243 -0.0092177391 4278190080
-0.058175087 -0.047574148 -0.0092177391 4278190080
-0.058175087 -0.046116948 -0.0092177391 4278190080
-0.058474183 -0.045134142 -0.0072177052 4278190080
-0.058474183 -0.043673143 -0.0072177052 4278190080
-0.059221782 -0.043378845 -0.00221771 4278190080
-0.059221782 -0.041908443 -0.00221771 4278190080
-0.059221782 -0.040437952 -0.00221771 4278190080
-0.059221782 -0.038967445 -0.00221771 4278190080
-0.059371285 -0.037722751 -0.0012176037 4278190080
-0.059371285 -0.036250353 -0.0012176037 4278190080
-0.059371285 -0.034777954 -0.0012176037 4278190080
-0.059371285 -0.033305541 -0.0012176037 4278190080
-0.060417987 -0.033359841 0.0057822466 4278190080
-0.061315082 -0.033171251 0.011782289 4278190080
-0.061763689 -0.032316953 0.01478225 4278190080
-0.061763689 -0.030814141 0.01478225 4278190080
-0.062361784 -0.03015314 0.018782258 4278190080
-0.062361784 -0.028642744 0.018782258 4278190080
-0.062361784 -0.027132243 0.018782258 4278190080
-0.062361784 -0.025621742 0.018782258 4278190080
-0.061614186 -0.023096949 0.013782263 4278190080
-0.061614186 -0.021596044 0.013782263 4278190080
-0.061614186 -0.02009505 0.013782263 4278190080
-0.061614186 -0.018594146 0.013782263 4278190080
-0.061614186 -0.017093152 0.013782263 4278190080
-0.061763689 -0.015785545 0.01478225 4278190080
-0.061763689 -0.014282644 0.01478225 4278190080
-0.062062688 -0.013158843 0.016782284 4278190080
-0.062361784 -0.012027442 0.018782258 4278190080
-0.062959887 -0.011259854 0.022782385 4278190080
-0.062959887 -0.0097417533 0.022782385 4278190080
-0.062959887 -0.0082236528 0.022782385 4278190080
-0.063109383 -0.0068855435 0.023782253 4278190080
-0.063408382 -0.0057217479 0.025782287 4278190080
-0.063408382 -0.0041979402 0.025782287 4278190080
-0.063408382 -0.0026741475 0.025782287 4278190080
-0.063707486 -0.0014950484 0.027782261 4278190080
-0.064006485 -0.00030845404 0.029782295 4278190080
-0.064305589 0.00088585913 0.031782389 4278190080
-0.064903684 0.0017544478 0.035782397 4278190080
-0.065202683 0.00296776 0.037782252 4278190080
-0.065202683 0.0045144558 0.037782252 4278190080
-0.065501787 0.0057392567 0.039782286 4278190080
-0.065501787 0.0072896481 0.039782286 4278190080
-0.065501787 0.0088401586 0.039782286 4278190080
-0.065501787 0.010390654 0.039782286 4278190080
-0.065501787 0.01194115 0.039782286 4278190080
-0.065651283 0.013340153 0.040782392 4278190080
-0.065651283 0.014892556 0.040782392 4278190080
-0.065950386 0.016149655 0.042782247 4278190080
-0.066249385 0.017414451 0.0447824 4278190080
-0.066249385 0.018974453 0.0447824 4278190080
-0.066548482 0.020250656 0.046782255 4278190080
-0.066548482 0.021814451 0.046782255 4278190080
-0.066847488 0.023102053 0.048782289 4278190080
-0.066847488 0.024669655 0.048782289 4278190080
-0.067146488 0.025968753 0.050782263 4278190080
-0.067744583 0.027010657 0.054782391 4278190080
-0.068342686 0.028067753 0.058782399 4278190080
-0.068641782 0.029397354 0.060782254 4278190080
-0.068940781 0.03073445 0.062782288 4278190080
-0.069239892 0.03207925 0.064782262 4278190080
-0.068940781 0.033923052 0.062782288 4278190080
-0.068940781 0.03551735 0.062782288 4278190080
-0.068940781 0.037111595 0.062782288 4278190080
-0.068940781 0.038705871 0.062782288 4278190080
-0.068940781 0.040300161 0.062782288 4278190080
-0.068940781 0.041894451 0.062782288 4278190080
-0.069538884 0.043043025 0.066782296 4278190080
-0.069538884 0.044644929 0.066782296 4278190080
-0.06983798 0.046031594 0.068782389 4278190080
-0.070136987 0.047425874 0.070782304 4278190080
-0.070884578 0.048516355 0.075782299 4278190080
-0.070884578 0.050135404 0.075782299 4278190080
-0.071183689 0.051554456 0.077782393 4278190080
-0.071183689 0.053177305 0.077782393 4278190080
-0.071482681 0.054607786 0.079782248 4278190080
-0.071781792 0.056045882 0.081782401 4278190080
-0.071482681 0.05786112 0.079782248 4278190080
-0.071781792 0.05930683 0.081782401 4278190080
-0.071482681 0.061114453 0.079782248 4278190080
-0.071781792 0.062567785 0.081782401 4278190080
-0.071781792 0.064198256 0.081782401 4278190080
-0.072080784 0.065663025 0.083782256 4278190080
-0.07701508 0.076505885 0.11678225 4278190080
-0.056422688 -0.079065546 -0.011217713 4278190080
-0.056422688 -0.077612251 -0.011217713 4278190080
-0.056422688 -0.076158851 -0.011217713 4278190080
-0.056422688 -0.074705541 -0.011217713 4278190080
-0.056127489 -0.072701752 -0.013217747 4278190080
-0.055979885 -0.07097885 -0.014217615 4278190080
-0.055684589 -0.068988442 -0.016217709 4278190080
-0.055389382 -0.067005545 -0.018217742 4278190080
-0.055241786 -0.065297946 -0.01921761 4278190080
-0.055241786 -0.06385985 -0.01921761 4278190080
-0.054946482 -0.061894149 -0.021217704 4278190080
-0.054946482 -0.060459852 -0.021217704 4278190080
-0.054946482 -0.059025541 -0.021217704 4278190080
-0.054946482 -0.057591245 -0.021217704 4278190080
-0.054946482 -0.056156948 -0.021217704 4278190080
-0.055241786 -0.055231243 -0.01921761 4278190080
-0.055241786 -0.053793147 -0.01921761 4278190080
-0.055389382 -0.05260554 -0.018217742 4278190080
-0.055684589 -0.051662654 -0.016217709 4278190080
-0.055684589 -0.05021885 -0.016217709 4278190080
-0.055979885 -0.04926455 -0.014217615 4278190080
-0.056127489 -0.048059851 -0.013217747 4278190080
-0.056422688 -0.047092244 -0.011217713 4278190080
-0.056422688 -0.045638844 -0.011217713 4278190080
-0.056422688 -0.044185549 -0.011217713 4278190080
-0.056717984 -0.043202743 -0.0092177391 4278190080
-0.057013184 -0.042212248 -0.0072177052 4278190080
-0.057013184 -0.040751249 -0.0072177052 4278190080
-0.057013184 -0.039290354 -0.0072177052 4278190080
-0.057013184 -0.03782934 -0.0072177052 4278190080
-0.057751283 -0.037496954 -0.00221771 4278190080
-0.057751283 -0.036026448 -0.00221771 4278190080
-0.057898887 -0.034777954 -0.0012176037 4278190080
-0.057898887 -0.033305541 -0.0012176037 4278190080
-0.057751283 -0.031615049 -0.00221771 4278190080
-0.057751283 -0.030144647 -0.00221771 4278190080
-0.057751283 -0.028674141 -0.00221771 4278190080
-0.057456084 -0.026778847 -0.0042177439 4278190080
-0.060851283 -0.03015314 0.018782258 4278190080
-0.060851283 -0.028642744 0.018782258 4278190080
-0.060851283 -0.027132243 0.018782258 4278190080
-0.059522688 -0.023778841 0.0097822547 4278190080
-0.059522688 -0.022285551 0.0097822547 4278190080
-0.059522688 -0.020792246 0.0097822547 4278190080
-0.059522688 -0.019298851 0.0097822547 4278190080
-0.059817985 -0.018199846 0.011782289 4278190080
-0.059817985 -0.016702652 0.011782289 4278190080
-0.060113184 -0.015592247 0.013782263 4278190080
-0.060113184 -0.014091253 0.013782263 4278190080
-0.060260788 -0.012779847 0.01478225 4278190080
-0.060260788 -0.011276945 0.01478225 4278190080
-0.060851283 -0.010516942 0.018782258 4278190080
-0.060851283 -0.0090065449 0.018782258 4278190080
-0.061146483 -0.007859841 0.020782292 4278190080
-0.061146483 -0.0063455403 0.020782292 4278190080
-0.061441787 -0.0051874518 0.022782385 4278190080
-0.061441787 -0.0036693513 0.022782385 4278190080
-0.061441787 -0.0021512508 0.022782385 4278190080
-0.061884582 -0.0011503398 0.025782287 4278190080
-0.062179886 3.2559037e-05 0.027782261 4278190080
-0.062770382 0.00088585913 0.031782389 4278190080
-0.063065588 0.002087757 0.033782303 4278190080
-0.063360788 0.0032973588 0.035782397 4278190080
-0.063360788 0.0048401505 0.035782397 4278190080
-0.063656084 0.0060611516 0.037782252 4278190080
-0.063656084 0.007607758 0.037782252 4278190080
-0.063656084 0.0091544539 0.037782252 4278190080
-0.063656084 0.01070115 0.037782252 4278190080
-0.063656084 0.012247756 0.037782252 4278190080
-0.063951284 0.013491556 0.039782286 4278190080
-0.064098887 0.014892556 0.040782392 4278190080
-0.064394183 0.016149655 0.042782247 4278190080
-0.064394183 0.01770585 0.042782247 4278190080
-0.064689383 0.018974453 0.0447824 4278190080
-0.064984582 0.020250656 0.046782255 4278190080
-0.064984582 0.021814451 0.046782255 4278190080
-0.065279886 0.023102053 0.048782289 4278190080
-0.065279886 0.024669655 0.048782289 4278190080
-0.065575086 0.025968753 0.050782263 4278190080
-0.066165589 0.027010657 0.054782391 4278190080
-0.066460788 0.028328754 0.056782246 4278190080
-0.066460788 0.029911555 0.056782246 4278190080
-0.066756085 0.031241156 0.058782399 4278190080
-0.067051284 0.032578252 0.060782254 4278190080
-0.066756085 0.034414455 0.058782399 4278190080
-0.066756085 0.036001153 0.058782399 4278190080
-0.066756085 0.037587777 0.058782399 4278190080
-0.067051284 0.038940176 0.060782254 4278190080
-0.067051284 0.040530644 0.060782254 4278190080
-0.067051284 0.042121112 0.060782254 4278190080
-0.067936987 0.043043025 0.066782296 4278190080
-0.067936987 0.044644929 0.066782296 4278190080
-0.067936987 0.046246834 0.066782296 4278190080
-0.067936987 0.047848731 0.066782296 4278190080
-0.06897039 0.048723973 0.073782265 4278190080
-0.069265582 0.050135404 0.075782299 4278190080
-0.069265582 0.051754452 0.075782299 4278190080
-0.069560789 0.053177305 0.077782393 4278190080
-0.069856085 0.054607786 0.079782248 4278190080
-0.069856085 0.056234457 0.079782248 4278190080
-0.069856085 0.05786112 0.079782248 4278190080
-0.069856085 0.059487782 0.079782248 4278190080
-0.070151292 0.0609373 0.081782401 4278190080
-0.070151292 0.062567785 0.081782401 4278190080
-0.070151292 0.064198256 0.081782401 4278190080
-0.070446484 0.065663025 0.083782256 4278190080
-0.070446484 0.06729731 0.083782256 4278190080
-0.07074178 0.068773493 0.08578229 4278190080
-0.07074178 0.070411593 0.08578229 4278190080
-0.07074178 0.072049692 0.08578229 4278190080
-0.071479879 0.073321126 0.090782404 4278190080
-0.071775086 0.074825883 0.092782259 4278190080
-0.073989384 0.077114448 0.1077823 4278190080
-0.07502269 0.078334451 0.11478239 4278190080
-0.074727483 0.080155402 0.1127823 4278190080
-0.074284591 0.082030639 0.1097824 4278190080
-0.073694192 0.083954453 0.10578239 4278190080
-0.073398881 0.085746832 0.1037823 4278190080
-0.072956093 0.087587789 0.10078239 4278190080
-0.054969385 -0.079065546 -0.011217713 4278190080
-0.054969385 -0.077612251 -0.011217713 4278190080
-0.054969385 -0.076158851 -0.011217713 4278190080
-0.054969385 -0.074705541 -0.011217713 4278190080
-0.054677986 -0.072701752 -0.013217747 4278190080
-0.054532282 -0.07097885 -0.014217615 4278190080
-0.053949386 -0.068445548 -0.018217742 4278190080
-0.053803682 -0.066736042 -0.01921761 4278190080
-0.053512283 -0.064762652 -0.021217704 4278190080
-0.053512283 -0.063328445 -0.021217704 4278190080
-0.053512283 -0.061894149 -0.021217704 4278190080
-0.053512283 -0.060459852 -0.021217704 4278190080
-0.053366482 -0.058765545 -0.022217751 4278190080
-0.053512283 -0.057591245 -0.021217704 4278190080
-0.053366482 -0.055900842 -0.022217751 4278190080
-0.053512283 -0.054722652 -0.021217704 4278190080
-0.053512283 -0.053288445 -0.021217704 4278190080
-0.053803682 -0.052355051 -0.01921761 4278190080
-0.053803682 -0.05091694 -0.01921761 4278190080
-0.053803682 -0.049478844 -0.01921761 4278190080
-0.054240786 -0.048775047 -0.016217709 4278190080
-0.054532282 -0.047816947 -0.014217615 4278190080
-0.054240786 -0.04588744 -0.016217709 4278190080
-0.054532282 -0.044921741 -0.014217615 4278190080
-0.054677986 -0.043711245 -0.013217747 4278190080
-0.054969385 -0.042732254 -0.011217713 4278190080
-0.055260785 -0.041745543 -0.0092177391 4278190080
-0.055260785 -0.040288448 -0.0092177391 4278190080
-0.055260785 -0.038831249 -0.0092177391 4278190080
-0.055260785 -0.037374154 -0.0092177391 4278190080
-0.055260785 -0.035916939 -0.0092177391 4278190080
-0.055552289 -0.034907445 -0.0072177052 4278190080
-0.055552289 -0.033446446 -0.0072177052 4278190080
-0.055552289 -0.031985551 -0.0072177052 4278190080
-0.055552289 -0.030524552 -0.0072177052 4278190080
-0.055552289 -0.029063642 -0.0072177052 4278190080
-0.055697985 -0.027816951 -0.0062177181 4278190080
-0.055989385 -0.026778847 -0.0042177439 4278190080
-0.055697985 -0.024891242 -0.0062177181 4278190080
-0.055697985 -0.02342844 -0.0062177181 4278190080
-0.057446487 -0.022959843 0.0057822466 4278190080
-0.057446487 -0.021474153 0.0057822466 4278190080
-0.057737984 -0.020390347 0.0077823997 4278190080
-0.057737984 -0.018900752 0.0077823997 4278190080
-0.058029383 -0.017805547 0.0097822547 4278190080
-0.058029383 -0.016312242 0.0097822547 4278190080
-0.058320783 -0.015205547 0.011782289 4278190080
-0.058320783 -0.013708442 0.011782289 4278190080
-0.058612287 -0.012590349 0.013782263 4278190080
-0.058612287 -0.01108934 0.013782263 4278190080
-0.058757983 -0.0097741485 0.01478225 4278190080
-0.059049383 -0.0086388439 0.016782284 4278190080
-0.059340782 -0.007496044 0.018782258 4278190080
-0.059632286 -0.0063455403 0.020782292 4278190080
-0.059923686 -0.0051874518 0.022782385 4278190080
-0.059632286 -0.0033169538 0.020782292 4278190080
-0.059632286 -0.0018026531 0.020782292 4278190080
-0.059923686 -0.00063315034 0.022782385 4278190080
-0.059923686 0.00088495016 0.022782385 4278190080
-0.059923686 0.0024030507 0.022782385 4278190080
-0.060360782 0.0034211576 0.025782287 4278190080
-0.061235085 0.0039563477 0.031782389 4278190080
-0.061526485 0.0051658601 0.033782303 4278190080
-0.061817989 0.0063830465 0.035782397 4278190080
-0.061817989 0.0079258531 0.035782397 4278190080
-0.061817989 0.0094687492 0.035782397 4278190080
-0.061817989 0.011011556 0.035782397 4278190080
-0.061817989 0.012554452 0.035782397 4278190080
-0.062109388 0.013794452 0.037782252 4278190080
-0.062109388 0.015341155 0.037782252 4278190080
-0.062400788 0.016592555 0.039782286 4278190080
-0.062837988 0.01770585 0.042782247 4278190080
-0.062837988 0.019262053 0.042782247 4278190080
-0.063129388 0.020534456 0.0447824 4278190080
-0.063129388 0.022094451 0.0447824 4278190080
-0.063420787 0.023378253 0.046782255 4278190080
-0.063420787 0.024942055 0.046782255 4278190080
-0.063712284 0.026237354 0.048782289 4278190080
-0.064003684 0.027540155 0.050782263 4278190080
-0.064295083 0.028850652 0.052782297 4278190080
-0.064586483 0.030168757 0.054782391 4278190080
-0.064586483 0.031747751 0.054782391 4278190080
-0.064877987 0.033077352 0.056782246 4278190080
-0.064877987 0.034660153 0.056782246 4278190080
-0.064877987 0.036243051 0.056782246 4278190080
-0.064877987 0.037825882 0.056782246 4278190080
-0.065169387 0.039174445 0.058782399 4278190080
-0.065169387 0.040761113 0.058782399 4278190080
-0.065169387 0.042347781 0.058782399 4278190080
-0.066335082 0.043043025 0.066782296 4278190080
-0.066335082 0.044644929 0.066782296 4278190080
-0.066335082 0.046246834 0.066782296 4278190080
-0.066335082 0.047848731 0.066782296 4278190080
-0.066335082 0.049450643 0.066782296 4278190080
-0.066917986 0.050644927 0.070782304 4278190080
-0.067355089 0.051954456 0.073782265 4278190080
-0.067646489 0.053373501 0.075782299 4278190080
-0.067937985 0.05480016 0.077782393 4278190080
-0.068229385 0.056234457 0.079782248 4278190080
-0.068229385 0.05786112 0.079782248 4278190080
-0.068229385 0.059487782 0.079782248 4278190080
-0.068229385 0.061114453 0.079782248 4278190080
-0.068520784 0.062567785 0.081782401 4278190080
-0.068520784 0.064198256 0.081782401 4278190080
-0.068520784 0.065828733 0.081782401 4278190080
-0.068520784 0.067459211 0.081782401 4278190080
-0.068812288 0.068931594 0.083782256 4278190080
-0.068812288 0.070565887 0.083782256 4278190080
-0.069103681 0.072049692 0.08578229 4278190080
-0.069832288 0.073321126 0.090782404 4278190080
-0.069832288 0.074968733 0.090782404 4278190080
-0.070706479 0.076199219 0.096782386 4278190080
-0.070997991 0.077723026 0.098782301 4278190080
-0.070997991 0.079385884 0.098782301 4278190080
-0.070997991 0.081048742 0.098782301 4278190080
-0.071726479 0.082402073 0.1037823 4278190080
-0.071726479 0.084074453 0.1037823 4278190080
-0.071289383 0.085921109 0.10078239 4278190080
-0.071289383 0.087587789 0.10078239 4278190080
-0.053228483 -0.078499854 -0.013217747 4278190080
-0.053516082 -0.077612251 -0.011217713 4278190080
-0.053516082 -0.076158851 -0.011217713 4278190080
-0.053516082 -0.074705541 -0.011217713 4278190080
-0.053228483 -0.072701752 -0.013217747 4278190080
-0.053084582 -0.07097885 -0.014217615 4278190080
-0.052509382 -0.068445548 -0.018217742 4278190080
-0.052365586 -0.066736042 -0.01921761 4278190080
-0.052077986 -0.064762652 -0.021217704 4278190080
-0.052077986 -0.063328445 -0.021217704 4278190080
-0.051934183 -0.061630353 -0.022217751 4278190080
-0.051934183 -0.060197949 -0.022217751 4278190080
-0.051934183 -0.058765545 -0.022217751 4278190080
-0.051934183 -0.057333142 -0.022217751 4278190080
-0.051934183 -0.055900842 -0.022217751 4278190080
-0.051646486 -0.053959846 -0.024217606 4278190080
-0.051646486 -0.052531242 -0.024217606 4278190080
-0.051934183 -0.051603645 -0.022217751 4278190080
-0.052077986 -0.050419852 -0.021217704 4278190080
-0.052077986 -0.048985541 -0.021217704 4278190080
-0.052365586 -0.048040852 -0.01921761 4278190080
-0.052365586 -0.046602651 -0.01921761 4278190080
-0.052365586 -0.045164645 -0.01921761 4278190080
-0.052509382 -0.043965548 -0.018217742 4278190080
-0.052796982 -0.042999849 -0.016217709 4278190080
-0.052796982 -0.041556045 -0.016217709 4278190080
-0.053084582 -0.040578842 -0.014217615 4278190080
-0.053516082 -0.039825544 -0.011217713 4278190080
-0.053516082 -0.038372248 -0.011217713 4278190080
-0.053516082 -0.036918849 -0.011217713 4278190080
-0.053516082 -0.035465553 -0.011217713 4278190080
-0.053803682 -0.034459844 -0.0092177391 4278190080
-0.054091282 -0.033446446 -0.0072177052 4278190080
-0.053803682 -0.03154555 -0.0092177391 4278190080
-0.054091282 -0.030524552 -0.0072177052 4278190080
-0.054091282 -0.029063642 -0.0072177052 4278190080
-0.054091282 -0.027602643 -0.0072177052 4278190080
-0.054235086 -0.026354149 -0.0062177181 4278190080
-0.054235086 -0.024891242 -0.0062177181 4278190080
-0.054235086 -0.02342844 -0.0062177181 4278190080
-0.054235086 -0.021965548 -0.0062177181 4278190080
-0.055816986 -0.022755042 0.0047822595 4278190080
-0.055816986 -0.021271244 0.0047822595 4278190080
-0.055816986 -0.019787446 0.0047822595 4278190080
-0.055960782 -0.018502742 0.0057822466 4278190080
-0.056248486 -0.017411247 0.0077823997 4278190080
-0.056248486 -0.015921742 0.0077823997 4278190080
-0.056536086 -0.014818847 0.0097822547 4278190080
-0.056536086 -0.013325542 0.0097822547 4278190080
-0.056823686 -0.012211248 0.011782289 4278190080
-0.056823686 -0.010714144 0.011782289 4278190080
-0.056823686 -0.0092169493 0.011782289 4278190080
-0.057111286 -0.0080874413 0.013782263 4278190080
-0.057255082 -0.0067684501 0.01478225 4278190080
-0.057255082 -0.0052655488 0.01478225 4278190080
-0.057542682 -0.0041188449 0.016782284 4278190080
-0.057830386 -0.0029646456 0.018782258 4278190080
-0.058117986 -0.0018026531 0.020782292 4278190080
-0.058117986 -0.00028844178 0.020782292 4278190080
-0.058117986 0.0012258589 0.020782292 4278190080
-0.058405586 0.0024030507 0.022782385 4278190080
-0.058405586 0.0039211512 0.022782385 4278190080
-0.058836982 0.0049449503 0.025782287 4278190080
-0.059124589 0.0061430484 0.027782261 4278190080
-0.059699886 0.0070268512 0.031782389 4278190080
-0.059987485 0.0082439482 0.033782303 4278190080
-0.059987485 0.0097830594 0.033782303 4278190080
-0.059987485 0.011322051 0.033782303 4278190080
-0.059987485 0.012861155 0.033782303 4278190080
-0.060275085 0.014097251 0.035782397 4278190080
-0.060275085 0.015640154 0.035782397 4278190080
-0.060850382 0.016592555 0.039782286 4278190080
-0.060994186 0.01799725 0.040782392 4278190080
-0.060994186 0.019549653 0.040782392 4278190080
-0.061281785 0.020818256 0.042782247 4278190080
-0.061281785 0.022374451 0.042782247 4278190080
-0.061569385 0.023654453 0.0447824 4278190080
-0.061569385 0.025214456 0.0447824 4278190080
-0.061569385 0.026774451 0.0447824 4278190080
-0.062144585 0.027804956 0.048782289 4278190080
-0.062432282 0.029111557 0.050782263 4278190080
-0.062432282 0.030683056 0.050782263 4278190080
-0.062719882 0.032001153 0.052782297 4278190080
-0.063007489 0.033326857 0.054782391 4278190080
-0.063007489 0.034905851 0.054782391 4278190080
-0.063007489 0.036484957 0.054782391 4278190080
-0.063295089 0.037825882 0.056782246 4278190080
-0.063295089 0.039408736 0.056782246 4278190080
-0.063295089 0.040991597 0.056782246 4278190080
-0.063295089 0.04257445 0.056782246 4278190080
-0.063582689 0.04393445 0.058782399 4278190080
-0.063582689 0.04552111 0.058782399 4278190080
-0.064445585 0.046462066 0.064782262 4278190080
-0.064733185 0.047848731 0.066782296 4278190080
-0.064733185 0.049450643 0.066782296 4278190080
-0.065020785 0.05084873 0.068782389 4278190080
-0.065020785 0.052454457 0.068782389 4278190080
-0.065739885 0.053569697 0.073782265 4278190080
-0.066027485 0.054992542 0.075782299 4278190080
-0.066315085 0.056423016 0.077782393 4278190080
-0.066602685 0.05786112 0.079782248 4278190080
-0.066315085 0.059668735 0.077782393 4278190080
-0.066602685 0.061114453 0.079782248 4278190080
-0.066602685 0.062741116 0.079782248 4278190080
-0.066890389 0.064198256 0.081782401 4278190080
-0.066890389 0.065828733 0.081782401 4278190080
-0.066890389 0.067459211 0.081782401 4278190080
-0.067177989 0.068931594 0.083782256 4278190080
-0.067177989 0.070565887 0.083782256 4278190080
-0.067465588 0.072049692 0.08578229 4278190080
-0.067465588 0.073687784 0.08578229 4278190080
-0.067753188 0.075183019 0.087782264 4278190080
-0.068759888 0.076338261 0.094782293 4278190080
-0.069047488 0.077858262 0.096782386 4278190080
-0.069335081 0.079385884 0.098782301 4278190080
-0.069047488 0.081176355 0.096782386 4278190080
-0.069047488 0.082835406 0.096782386 4278190080
-0.069047488 0.084494457 0.096782386 4278190080
-0.069047488 0.086153492 0.096782386 4278190080
-0.069335081 0.087700173 0.098782301 4278190080
-0.069335081 0.089363024 0.098782301 4278190080
-0.051636986 -0.079664648 -0.014217615 4278190080
-0.051778883 -0.078499854 -0.013217747 4278190080
-0.052062683 -0.077612251 -0.011217713 4278190080
-0.052062683 -0.076158851 -0.011217713 4278190080
-0.051778883 -0.074151248 -0.013217747 4278190080
-0.051636986 -0.072426543 -0.014217615 4278190080
-0.051069386 -0.069885552 -0.018217742 4278190080
-0.050927483 -0.068174154 -0.01921761 4278190080
-0.050643682 -0.066196948 -0.021217704 4278190080
-0.050501786 -0.064495042 -0.022217751 4278190080
-0.050501786 -0.063062742 -0.022217751 4278190080
-0.050217986 -0.061102748 -0.024217606 4278190080
-0.050217986 -0.059674144 -0.024217606 4278190080
-0.050217986 -0.05824554 -0.024217606 4278190080
-0.050217986 -0.05681695 -0.024217606 4278190080
-0.049934186 -0.054876044 -0.026217699 4278190080
-0.049934186 -0.05345124 -0.026217699 4278190080
-0.049934186 -0.052026451 -0.026217699 4278190080
-0.049934186 -0.050601751 -0.026217699 4278190080
-0.050217986 -0.049674153 -0.024217606 4278190080
-0.050501786 -0.048738852 -0.022217751 4278190080
-0.050643682 -0.047551244 -0.021217704 4278190080
-0.050643682 -0.046116948 -0.021217704 4278190080
-0.050927483 -0.045164645 -0.01921761 4278190080
-0.050927483 -0.043726549 -0.01921761 4278190080
-0.051069386 -0.042525545 -0.018217742 4278190080
-0.051069386 -0.041085541 -0.018217742 4278190080
-0.051069386 -0.039645553 -0.018217742 4278190080
-0.051353186 -0.038668454 -0.016217709 4278190080
-0.051353186 -0.03722465 -0.016217709 4278190080
-0.051636986 -0.036236048 -0.014217615 4278190080
-0.051353186 -0.034336939 -0.016217709 4278190080
-0.051636986 -0.033340752 -0.014217615 4278190080
-0.051778883 -0.032115042 -0.013217747 4278190080
-0.052062683 -0.031105548 -0.011217713 4278190080
-0.052062683 -0.029652253 -0.011217713 4278190080
-0.052346483 -0.02863124 -0.0092177391 4278190080
-0.052346483 -0.027174145 -0.0092177391 4278190080
-0.052630387 -0.026141748 -0.0072177052 4278190080
-0.052630387 -0.024680749 -0.0072177052 4278190080
-0.052772284 -0.02342844 -0.0062177181 4278190080
-0.052772284 -0.021965548 -0.0062177181 4278190080
-0.053481787 -0.021526545 -0.0012176037 4278190080
-0.053481787 -0.020054147 -0.0012176037 4278190080
-0.053765588 -0.018983647 0.00078225136 4278190080
-0.054333188 -0.018303648 0.0047822595 4278190080
-0.054475084 -0.017016947 0.0057822466 4278190080
-0.054475084 -0.015531242 0.0057822466 4278190080
-0.054475084 -0.014045551 0.0057822466 4278190080
-0.054758884 -0.012942746 0.0077823997 4278190080
-0.054758884 -0.011453152 0.0077823997 4278190080
-0.054758884 -0.0099636465 0.0077823997 4278190080
-0.055042684 -0.0088455528 0.0097822547 4278190080
-0.055326484 -0.0077198446 0.011782289 4278190080
-0.055610389 -0.0065865517 0.013782263 4278190080
-0.055610389 -0.0050855428 0.013782263 4278190080
-0.055752285 -0.0037626475 0.01478225 4278190080
-0.056036085 -0.0026122481 0.016782284 4278190080
-0.056319885 -0.0014541447 0.018782258 4278190080
-0.056319885 5.6356192e-05 0.018782258 4278190080
-0.056319885 0.0015668571 0.018782258 4278190080
-0.056603685 0.0027401596 0.020782292 4278190080
-0.056603685 0.0042544603 0.020782292 4278190080
-0.056887485 0.0054392517 0.022782385 4278190080
-0.057029389 0.0067944527 0.023782253 4278190080
-0.057313189 0.0079925507 0.025782287 4278190080
-0.057596989 0.0091982484 0.027782261 4278190080
-0.057596989 0.010725856 0.027782261 4278190080
-0.057596989 0.012253456 0.027782261 4278190080
-0.057880782 0.01347445 0.029782295 4278190080
-0.057880782 0.015005857 0.029782295 4278190080
-0.058164582 0.01623825 0.031782389 4278190080
-0.058732286 0.017183051 0.035782397 4278190080
-0.059299886 0.01814305 0.039782286 4278190080
-0.059299886 0.019693457 0.039782286 4278190080
-0.059441783 0.021102056 0.040782392 4278190080
-0.059441783 0.022654451 0.040782392 4278190080
-0.059441783 0.024206854 0.040782392 4278190080
-0.059725583 0.025486857 0.042782247 4278190080
-0.059725583 0.027043052 0.042782247 4278190080
-0.060009383 0.028334454 0.0447824 4278190080
-0.060293183 0.029633455 0.046782255 4278190080
-0.060009383 0.031454451 0.0447824 4278190080
-0.060576983 0.032507755 0.048782289 4278190080
-0.060576983 0.03407535 0.048782289 4278190080
-0.060860783 0.035397351 0.050782263 4278190080
-0.061144583 0.036726855 0.052782297 4278190080
-0.061144583 0.038302071 0.052782297 4278190080
-0.061428487 0.039643012 0.054782391 4278190080
-0.061428487 0.041222066 0.054782391 4278190080
-0.061712287 0.04257445 0.056782246 4278190080
-0.061712287 0.044157304 0.056782246 4278190080
-0.061996087 0.04552111 0.058782399 4278190080
-0.062279887 0.046892546 0.060782254 4278190080
-0.062279887 0.048483022 0.060782254 4278190080
-0.062563688 0.049865887 0.062782288 4278190080
-0.062563688 0.051460177 0.062782288 4278190080
-0.062847488 0.052854456 0.064782262 4278190080
-0.062847488 0.054452546 0.064782262 4278190080
-0.063698888 0.055473506 0.070782304 4278190080
-0.064124584 0.056800164 0.073782265 4278190080
-0.064124584 0.058415405 0.073782265 4278190080
-0.064124584 0.060030647 0.073782265 4278190080
-0.064692289 0.06129159 0.077782393 4278190080
-0.064976089 0.062741116 0.079782248 4278190080
-0.064976089 0.064367786 0.079782248 4278190080
-0.064976089 0.065994456 0.079782248 4278190080
-0.064976089 0.067621127 0.079782248 4278190080
-0.065259889 0.069089696 0.081782401 4278190080
-0.065259889 0.070720166 0.081782401 4278190080
-0.065543689 0.072200164 0.083782256 4278190080
-0.065543689 0.073834457 0.083782256 4278190080
-0.065827489 0.075325884 0.08578229 4278190080
-0.067104585 0.076338261 0.094782293 4278190080
-0.067388482 0.077858262 0.096782386 4278190080
-0.067388482 0.079517312 0.096782386 4278190080
-0.067104585 0.081303969 0.094782293 4278190080
-0.067104585 0.082959212 0.094782293 4278190080
-0.067104585 0.084614456 0.094782293 4278190080
-0.067388482 0.086153492 0.096782386 4278190080
-0.067388482 0.087812543 0.096782386 4278190080
-0.067672282 0.089363024 0.098782301 4278190080
-0.067388482 0.091130644 0.096782386 4278190080
-0.044869386 -0.083971247 -0.052217603 4278190080
-0.045009382 -0.082899854 -0.051217735 4278190080
-0.044869386 -0.08122085 -0.052217603 4278190080
-0.044869386 -0.079845548 -0.052217603 4278190080
-0.045009382 -0.078768447 -0.051217735 4278190080
-0.045009382 -0.077391252 -0.051217735 4278190080
-0.049629383 -0.079965547 -0.018217742 4278190080
-0.050189383 -0.079664648 -0.014217615 4278190080
-0.050329387 -0.078499854 -0.013217747 4278190080
-0.050329387 -0.077050343 -0.013217747 4278190080
-0.050609387 -0.076158851 -0.011217713 4278190080
-0.050329387 -0.074151248 -0.013217747 4278190080
-0.050189383 -0.072426543 -0.014217615 4278190080
-0.049629383 -0.069885552 -0.018217742 4278190080
-0.049489386 -0.068174154 -0.01921761 4278190080
-0.049209386 -0.066196948 -0.021217704 4278190080
-0.048789382 -0.063959852 -0.024217606 4278190080
-0.048509382 -0.061999843 -0.026217699 4278190080
-0.048369385 -0.060311243 -0.027217746 4278190080
-0.048369385 -0.05888845 -0.027217746 4278190080
-0.048369385 -0.057465553 -0.027217746 4278190080
-0.048369385 -0.056042746 -0.027217746 4278190080
-0.048369385 -0.054619849 -0.027217746 4278190080
-0.048369385 -0.053196952 -0.027217746 4278190080
-0.048369385 -0.051774144 -0.027217746 4278190080
-0.048369385 -0.050351247 -0.027217746 4278190080
-0.048509382 -0.049176946 -0.026217699 4278190080
-0.048509382 -0.047752246 -0.026217699 4278190080
-0.049069382 -0.047306553 -0.022217751 4278190080
-0.049069382 -0.045874149 -0.022217751 4278190080
-0.049209386 -0.044682652 -0.021217704 4278190080
-0.049209386 -0.043248445 -0.021217704 4278190080
-0.049489386 -0.042288452 -0.01921761 4278190080
-0.049489386 -0.040850341 -0.01921761 4278190080
-0.049489386 -0.039412245 -0.01921761 4278190080
-0.049489386 -0.037974149 -0.01921761 4278190080
-0.049629383 -0.036765546 -0.018217742 4278190080
-0.049629383 -0.035325542 -0.018217742 4278190080
-0.049909383 -0.034336939 -0.016217709 4278190080
-0.049909383 -0.032893151 -0.016217709 4278190080
-0.050189383 -0.031893149 -0.014217615 4278190080
-0.050329387 -0.030665547 -0.013217747 4278190080
-0.050329387 -0.029216051 -0.013217747 4278190080
-0.050609387 -0.028198853 -0.011217713 4278190080
-0.050609387 -0.026745543 -0.011217713 4278190080
-0.050889388 -0.025716946 -0.0092177391 4278190080
-0.050889388 -0.02425985 -0.0092177391 4278190080
-0.050889388 -0.022802651 -0.0092177391 4278190080
-0.051169388 -0.021758839 -0.0072177052 4278190080
-0.051169388 -0.020297945 -0.0072177052 4278190080
-0.052009389 -0.020054147 -0.0012176037 4278190080
-0.051869385 -0.018380746 -0.00221771 4278190080
-0.052289382 -0.017507449 0.00078225136 4278190080
-0.052849382 -0.01681985 0.0047822595 4278190080
-0.052289382 -0.014555052 0.00078225136 4278190080
-0.052849382 -0.013852254 0.0047822595 4278190080
-0.052989386 -0.012559846 0.0057822466 4278190080
-0.052989386 -0.011074141 0.0057822466 4278190080
-0.052989386 -0.0095884502 0.0057822466 4278190080
-0.053269386 -0.0084741414 0.0077823997 4278190080
-0.053549387 -0.0073522478 0.0097822547 4278190080
-0.053829387 -0.0062226504 0.011782289 4278190080
-0.053829387 -0.0047255456 0.011782289 4278190080
-0.054109387 -0.0035845488 0.013782263 4278190080
-0.054109387 -0.0020836443 0.013782263 4278190080
-0.054249384 -0.00075694919 0.01478225 4278190080
-0.054529384 0.00040115416 0.016782284 4278190080
-0.054529384 0.001907751 0.016782284 4278190080
-0.054809384 0.0030772537 0.018782258 4278190080
-0.054809384 0.0045877546 0.018782258 4278190080
-0.055089384 0.0057687461 0.020782292 4278190080
-0.055089384 0.0072830468 0.020782292 4278190080
-0.055369385 0.0084753484 0.022782385 4278190080
-0.055369385 0.0099934489 0.022782385 4278190080
-0.055369385 0.011511549 0.022782385 4278190080
-0.055789389 0.012563951 0.025782287 4278190080
-0.056069382 0.013781153 0.027782261 4278190080
-0.056349382 0.015005857 0.029782295 4278190080
-0.056349382 0.016537353 0.029782295 4278190080
-0.056629382 0.017773457 0.031782389 4278190080
-0.056629382 0.019308753 0.031782389 4278190080
-0.056909382 0.020556353 0.033782303 4278190080
-0.057469383 0.021527752 0.037782252 4278190080
-0.057749383 0.022794455 0.039782286 4278190080
-0.057749383 0.024344951 0.039782286 4278190080
-0.057889387 0.02575925 0.040782392 4278190080
-0.057889387 0.027311556 0.040782392 4278190080
-0.057889387 0.028863952 0.040782392 4278190080
-0.058169387 0.03015545 0.042782247 4278190080
-0.058169387 0.031711556 0.042782247 4278190080
-0.058449388 0.033014454 0.0447824 4278190080
-0.058449388 0.034574457 0.0447824 4278190080
-0.059009388 0.035643056 0.048782289 4278190080
-0.059289388 0.03696873 0.050782263 4278190080
-0.059289388 0.038540162 0.050782263 4278190080
-0.059569389 0.03987731 0.052782297 4278190080
-0.059849389 0.041222066 0.054782391 4278190080
-0.059849389 0.042801112 0.054782391 4278190080
-0.059849389 0.044380166 0.054782391 4278190080
-0.059849389 0.045959212 0.054782391 4278190080
-0.060129382 0.047323026 0.056782246 4278190080
-0.060129382 0.048905887 0.056782246 4278190080
-0.060129382 0.05048874 0.056782246 4278190080
-0.060409382 0.051867783 0.058782399 4278190080
-0.060689382 0.05325444 0.060782254 4278190080
-0.060969383 0.054648742 0.062782288 4278190080
-0.061249383 0.056050636 0.064782262 4278190080
-0.061249383 0.057648733 0.064782262 4278190080
-0.061529383 0.059062071 0.066782296 4278190080
-0.061529383 0.060663976 0.066782296 4278190080
-0.062509388 0.06164588 0.073782265 4278190080
-0.063069388 0.062914446 0.077782393 4278190080
-0.063069388 0.064537317 0.077782393 4278190080
-0.063349389 0.065994456 0.079782248 4278190080
-0.063349389 0.067621127 0.079782248 4278190080
-0.063629389 0.069089696 0.081782401 4278190080
-0.063629389 0.070720166 0.081782401 4278190080
-0.063909382 0.072200164 0.083782256 4278190080
-0.063909382 0.073834457 0.083782256 4278190080
-0.064189382 0.075325884 0.08578229 4278190080
-0.064889386 0.076616354 0.090782404 4278190080
-0.065169387 0.078128733 0.092782259 4278190080
-0.065169387 0.079780161 0.092782259 4278190080
-0.064889386 0.081559211 0.090782404 4278190080
-0.064889386 0.083206832 0.090782404 4278190080
-0.065169387 0.084734455 0.092782259 4278190080
-0.065169387 0.086385883 0.092782259 4278190080
-0.065449387 0.087924935 0.094782293 4278190080
-0.065729387 0.089471593 0.096782386 4278190080
-0.065729387 0.091130644 0.096782386 4278190080
-0.043217957 -0.092959851 -0.054217696 4278190080
-0.043494157 -0.09222275 -0.052217603 4278190080
-0.043494157 -0.090847448 -0.052217603 4278190080
-0.043494157 -0.089472249 -0.052217603 4278190080
-0.043494157 -0.088096946 -0.052217603 4278190080
-0.043494157 -0.086721748 -0.052217603 4278190080
-0.043494157 -0.08534655 -0.052217603 4278190080
-0.043494157 -0.083971247 -0.052217603 4278190080
-0.043494157 -0.082596049 -0.052217603 4278190080
-0.043494157 -0.08122085 -0.052217603 4278190080
-0.043494157 -0.079845548 -0.052217603 4278190080
-0.043632247 -0.078768447 -0.051217735 4278190080
-0.043494157 -0.077095047 -0.052217603 4278190080
-0.043494157 -0.075719848 -0.052217603 4278190080
-0.048741788 -0.081112251 -0.014217615 4278190080
-0.048741788 -0.079664648 -0.014217615 4278190080
-0.048879884 -0.078499854 -0.013217747 4278190080
-0.048879884 -0.077050343 -0.013217747 4278190080
-0.048879884 -0.075600743 -0.013217747 4278190080
-0.048879884 -0.074151248 -0.013217747 4278190080
-0.048741788 -0.072426543 -0.014217615 4278190080
-0.048189387 -0.069885552 -0.018217742 4278190080
-0.048051283 -0.068174154 -0.01921761 4278190080
-0.047636986 -0.065927446 -0.022217751 4278190080
-0.047360785 -0.063959852 -0.024217606 4278190080
-0.047084585 -0.061999843 -0.026217699 4278190080
-0.046946488 -0.060311243 -0.027217746 4278190080
-0.046946488 -0.05888845 -0.027217746 4278190080
-0.046670385 -0.056945547 -0.029217601 4278190080
-0.046670385 -0.05552654 -0.029217601 4278190080
-0.046670385 -0.054107442 -0.029217601 4278190080
-0.046670385 -0.05268845 -0.029217601 4278190080
-0.046670385 -0.051269352 -0.029217601 4278190080
-0.046670385 -0.049850345 -0.029217601 4278190080
-0.046670385 -0.048431247 -0.029217601 4278190080
-0.046670385 -0.04701224 -0.029217601 4278190080
-0.046946488 -0.046082646 -0.027217746 4278190080
-0.047084585 -0.044902742 -0.026217699 4278190080
-0.047636986 -0.044441745 -0.022217751 4278190080
-0.047636986 -0.043009341 -0.022217751 4278190080
-0.047636986 -0.041576952 -0.022217751 4278190080
-0.047636986 -0.040144548 -0.022217751 4278190080
-0.047775082 -0.038945541 -0.021217704 4278190080
-0.047775082 -0.037511244 -0.021217704 4278190080
-0.047775082 -0.036076948 -0.021217704 4278190080
-0.047775082 -0.034642652 -0.021217704 4278190080
-0.048051283 -0.033659846 -0.01921761 4278190080
-0.048189387 -0.03244555 -0.018217742 4278190080
-0.048465587 -0.031449348 -0.016217709 4278190080
-0.048465587 -0.030005544 -0.016217709 4278190080
-0.048741788 -0.028997943 -0.014217615 4278190080
-0.048879884 -0.027766541 -0.013217747 4278190080
-0.048879884 -0.026316941 -0.013217747 4278190080
-0.049156085 -0.025292248 -0.011217713 4278190080
-0.049432285 -0.02425985 -0.0092177391 4278190080
-0.049156085 -0.022385553 -0.011217713 4278190080
-0.049432285 -0.021345541 -0.0092177391 4278190080
-0.049708389 -0.020297945 -0.0072177052 4278190080
-0.049708389 -0.018836945 -0.0072177052 4278190080
-0.050398886 -0.018380746 -0.00221771 4278190080
-0.050398886 -0.016910344 -0.00221771 4278190080
-0.050536983 -0.015636951 -0.0012176037 4278190080
-0.050536983 -0.014164552 -0.0012176037 4278190080
-0.050813183 -0.013078853 0.00078225136 4278190080
-0.050813183 -0.011602744 0.00078225136 4278190080
-0.051089384 -0.010505542 0.0027822852 4278190080
-0.051089384 -0.0090255439 0.0027822852 4278190080
-0.051089384 -0.0075455457 0.0027822852 4278190080
-0.051503688 -0.00661695 0.0057822466 4278190080
-0.051779889 -0.0054950416 0.0077823997 4278190080
-0.052056082 -0.0043655485 0.0097822547 4278190080
-0.052056082 -0.0028722435 0.0097822547 4278190080
-0.052332282 -0.0017312467 0.011782289 4278190080
-0.052608483 -0.0005826503 0.013782263 4278190080
-0.052608483 0.00091825426 0.013782263 4278190080
-0.052608483 0.0024192482 0.013782263 4278190080
-0.052746482 0.0037515461 0.01478225 4278190080
-0.053022683 0.0049211532 0.016782284 4278190080
-0.053298883 0.0060982555 0.018782258 4278190080
-0.053575084 0.0072830468 0.020782292 4278190080
-0.053575084 0.0087973475 0.020782292 4278190080
-0.053575084 0.010311648 0.020782292 4278190080
-0.053575084 0.011825852 0.020782292 4278190080
-0.053851284 0.01302965 0.022782385 4278190080
-0.054265589 0.014087752 0.025782287 4278190080
-0.054265589 0.015611552 0.025782287 4278190080
-0.054265589 0.017135456 0.025782287 4278190080
-0.054541782 0.018363953 0.027782261 4278190080
-0.054817982 0.019600153 0.029782295 4278190080
-0.054817982 0.021131553 0.029782295 4278190080
-0.055094182 0.022379257 0.031782389 4278190080
-0.055094182 0.023914456 0.031782389 4278190080
-0.055370383 0.025173455 0.033782303 4278190080
-0.055370383 0.026712552 0.033782303 4278190080
-0.055370383 0.028251551 0.033782303 4278190080
-0.056198888 0.028996356 0.039782286 4278190080
-0.056336984 0.030416355 0.040782392 4278190080
-0.056336984 0.03196875 0.040782392 4278190080
-0.056336984 0.033521153 0.040782392 4278190080
-0.056613185 0.034823954 0.042782247 4278190080
-0.056889385 0.036134452 0.0447824 4278190080
-0.057165585 0.037452541 0.046782255 4278190080
-0.057165585 0.039016351 0.046782255 4278190080
-0.057441786 0.04034587 0.048782289 4278190080
-0.057441786 0.041913502 0.048782289 4278190080
-0.057441786 0.043481126 0.048782289 4278190080
-0.057717986 0.044825874 0.050782263 4278190080
-0.057717986 0.046397306 0.050782263 4278190080
-0.057994187 0.047753491 0.052782297 4278190080
-0.057994187 0.04932873 0.052782297 4278190080
-0.057994187 0.050903976 0.052782297 4278190080
-0.058270387 0.052275404 0.054782391 4278190080
-0.058546484 0.05365444 0.056782246 4278190080
-0.058822684 0.055041127 0.058782399 4278190080
-0.059375085 0.056243025 0.062782288 4278190080
-0.059375085 0.057837315 0.062782288 4278190080
-0.059651285 0.059246831 0.064782262 4278190080
-0.059651285 0.060844921 0.064782262 4278190080
-0.059927486 0.06226588 0.066782296 4278190080
-0.060479887 0.06352111 0.070782304 4278190080
-0.060479887 0.065130644 0.070782304 4278190080
-0.060479887 0.06674017 0.070782304 4278190080
-0.061170384 0.067944936 0.075782299 4278190080
-0.061446488 0.069405876 0.077782393 4278190080
-0.061722688 0.070874453 0.079782248 4278190080
-0.061722688 0.072501116 0.079782248 4278190080
-0.061998889 0.073981121 0.081782401 4278190080
-0.062275082 0.075468734 0.083782256 4278190080
-0.062275082 0.077103019 0.083782256 4278190080
-0.062551282 0.078602076 0.08578229 4278190080
-0.062551282 0.08024016 0.08578229 4278190080
-0.062551282 0.08187826 0.08578229 4278190080
-0.062551282 0.083516352 0.08578229 4278190080
-0.062827483 0.085034452 0.087782264 4278190080
-0.063241787 0.086502075 0.090782404 4278190080
-0.063517988 0.088037312 0.092782259 4278190080
-0.063794188 0.089580163 0.094782293 4278190080
-0.063794188 0.091235399 0.094782293 4278190080
-0.041846536 -0.09433125 -0.054217696 4278190080
-0.042118914 -0.093597949 -0.052217603 4278190080
-0.042118914 -0.09222275 -0.052217603 4278190080
-0.042255104 -0.091162741 -0.051217735 4278190080
-0.042255104 -0.089785546 -0.051217735 4278190080
-0.042255104 -0.08840844 -0.051217735 4278190080
-0.042255104 -0.087031245 -0.051217735 4278190080
-0.042255104 -0.08565414 -0.051217735 4278190080
-0.042527482 -0.084888443 -0.049217701 4278190080
-0.042255104 -0.082899854 -0.051217735 4278190080
-0.042255104 -0.081522748 -0.051217735 4278190080
-0.042255104 -0.080145553 -0.051217735 4278190080
-0.042255104 -0.078768447 -0.051217735 4278190080
-0.042118914 -0.077095047 -0.052217603 4278190080
-0.042118914 -0.075719848 -0.052217603 4278190080
-0.042255104 -0.074636951 -0.051217735 4278190080
-0.042255104 -0.073259845 -0.051217735 4278190080
-0.047294185 -0.081112251 -0.014217615 4278190080
-0.047294185 -0.079664648 -0.014217615 4278190080
-0.047294185 -0.07821694 -0.014217615 4278190080
-0.047430389 -0.077050343 -0.013217747 4278190080
-0.047430389 -0.075600743 -0.013217747 4278190080
-0.047294185 -0.073874146 -0.014217615 4278190080
-0.047021784 -0.071876049 -0.016217709 4278190080
-0.046749383 -0.069885552 -0.018217742 4278190080
-0.046340786 -0.067631245 -0.021217704 4278190080
-0.045932285 -0.065388441 -0.024217606 4278190080
-0.045659885 -0.063424647 -0.026217699 4278190080
-0.045523688 -0.06173414 -0.027217746 4278190080
-0.045523688 -0.060311243 -0.027217746 4278190080
-0.045523688 -0.05888845 -0.027217746 4278190080
-0.045251288 -0.056945547 -0.029217601 4278190080
-0.045251288 -0.05552654 -0.029217601 4278190080
-0.044978887 -0.053595051 -0.031217754 4278190080
-0.044978887 -0.052179843 -0.031217754 4278190080
-0.044978887 -0.050764546 -0.031217754 4278190080
-0.044978887 -0.049349353 -0.031217754 4278190080
-0.045251288 -0.048431247 -0.029217601 4278190080
-0.045251288 -0.04701224 -0.029217601 4278190080
-0.045251288 -0.045593143 -0.029217601 4278190080
-0.045523688 -0.044659853 -0.027217746 4278190080
-0.045523688 -0.043236941 -0.027217746 4278190080
-0.045659885 -0.042053148 -0.026217699 4278190080
-0.045659885 -0.040628448 -0.026217699 4278190080
-0.045659885 -0.039203644 -0.026217699 4278190080
-0.045659885 -0.037778839 -0.026217699 4278190080
-0.045932285 -0.03681694 -0.024217606 4278190080
-0.045932285 -0.03538844 -0.024217606 4278190080
-0.045932285 -0.033959851 -0.024217606 4278190080
-0.046340786 -0.033208445 -0.021217704 4278190080
-0.046340786 -0.031774148 -0.021217704 4278190080
-0.046613187 -0.030783653 -0.01921761 4278190080
-0.046749383 -0.029565543 -0.018217742 4278190080
-0.046749383 -0.028125539 -0.018217742 4278190080
-0.047021784 -0.027117953 -0.016217709 4278190080
-0.047294185 -0.026102751 -0.014217615 4278190080
-0.047430389 -0.024867445 -0.013217747 4278190080
-0.047430389 -0.02341795 -0.013217747 4278190080
-0.047430389 -0.021968454 -0.013217747 4278190080
-0.047702685 -0.020932242 -0.011217713 4278190080
-0.047702685 -0.019478843 -0.011217713 4278190080
-0.047702685 -0.018025547 -0.011217713 4278190080
-0.047975086 -0.016974151 -0.0092177391 4278190080
-0.048383683 -0.016114146 -0.0062177181 4278190080
-0.048656084 -0.015045553 -0.0042177439 4278190080
-0.048928387 -0.013969347 -0.00221771 4278190080
-0.048928387 -0.012498841 -0.00221771 4278190080
-0.049064584 -0.011219844 -0.0012176037 4278190080
-0.049064584 -0.0097474456 -0.0012176037 4278190080
-0.049064584 -0.0082750469 -0.0012176037 4278190080
-0.049336985 -0.0071741492 0.00078225136 4278190080
-0.049609385 -0.0060655475 0.0027822852 4278190080
-0.049881786 -0.0049493462 0.0047822595 4278190080
-0.049881786 -0.0034655482 0.0047822595 4278190080
-0.050017983 -0.0021598488 0.0057822466 4278190080
-0.050017983 -0.00067414343 0.0057822466 4278190080
-0.050562687 0.00011445582 0.0097822547 4278190080
-0.050562687 0.0016077459 0.0097822547 4278190080
-0.050835088 0.002760157 0.011782289 4278190080
-0.050835088 0.0042573512 0.011782289 4278190080
-0.051107489 0.0054211468 0.013782263 4278190080
-0.051516086 0.00642775 0.016782284 4278190080
-0.051788487 0.0076087564 0.018782258 4278190080
