# .PCD v0.7 - Point Cloud Data file format
VERSION 0.7
FIELDS x y z rgb
SIZE 4 4 4 4
TYPE F F F U
COUNT 1 1 1 1
WIDTH 1020
HEIGHT 1
VIEWPOINT 0 0 0 1 0 0 0
POINTS 1020
DATA ascii
-0.022899725 -0.0017007049 0.018165827 7827820
-0.022263162 -0.0016549844 0.01738593 7101012
-0.021629155 -0.0016093403 0.016607344 5647911
-0.02099742 -0.0015638601 0.01583153 5118228
-0.020367943 -0.0015185401 0.015058488 5118228
-0.019740708 -0.001473384 0.014288217 5118228
-0.019115709 -0.0014283881 0.013520658 5118228
-0.018489309 -0.0013846066 0.012773842 5118229
-0.017857246 -0.0013432372 0.012068182 5118228
-0.01722303 -0.0013032164 0.0113855 5118228
-0.016590513 -0.0012634117 0.010706514 5118229
-0.01596 -0.0012237336 0.010029674 5052951
-0.015331477 -0.0011841804 0.0093549788 4008503
-0.014704935 -0.00114475 0.0086824 4204594
-0.014080368 -0.0011054482 0.0080119669 4857117
-0.01345776 -0.0010662656 0.0073436201 5118228
-0.012837119 -0.0010272078 0.0066773593 5118228
-0.012218416 -0.00098827295 0.0060132146 5118228
-0.011601649 -0.00094945915 0.0053511262 5118228
-0.011000283 -0.00090722181 0.0046306551 5118228
-0.01041238 -0.00086214952 0.0038618147 5118228
-0.0098345801 -0.0008151792 0.0030605793 5118228
-0.0092589781 -0.00076838583 0.0022623837 5250841
-0.0086829141 -0.00072244368 0.0014787018 6111285
-0.0081086531 -0.00067676045 0.00069946051 6574146
-0.007536523 -0.00063124858 -7.6889992e-05 6574403
-0.0069665164 -0.00058590434 -0.00085034966 6574403
-0.0063986182 -0.00054073147 -0.0016209185 6574403
-0.0058170706 -0.00049958751 -0.0023227632 6574403
-0.0052259043 -0.00046139956 -0.0029741526 6574403
-0.0046365932 -0.00042333268 -0.0036234856 6574403
-0.0040491223 -0.00038538501 -0.004270792 6574403
-0.0034634918 -0.00034755655 -0.0049160719 6574403
-0.0028796941 -0.0003098473 -0.0055593252 6574403
-0.0022976995 -0.00027225353 -0.0062005818 6574403
-0.0017297119 -0.0002319403 -0.0068882704 6574403
-0.0011708513 -0.00019008666 -0.007602185 6574403
-0.00061392784 -0.00014838018 -0.0083136261 6574403
-5.4627657e-05 -0.00010780431 -0.0090057552 6574403
0.00056601316 -8.168444e-05 -0.0094512999 6574403
0.0011853129 -5.5622309e-05 -0.0098958611 6574403
0.0018032491 -2.9617921e-05 -0.010339469 6574403
0.0024198368 -3.6694109e-06 -0.010782093 6574403
0.0030350983 2.2223219e-05 -0.011223763 6574403
0.0036490187 4.805997e-05 -0.01166448 6574403
0.0042758659 7.0737675e-05 -0.012051314 6574403
0.0049139932 9.0682879e-05 -0.012391537 6574403
0.0055510327 0.00011059642 -0.012731224 6574403
0.0061869994 0.00013047457 -0.013070315 6574403
0.0068219081 0.00015032105 -0.01340884 6838863
0.0074557364 0.00017013587 -0.013746828 7367269
0.0080885217 0.00018991344 -0.01408422 7697263
0.0087854862 0.00019611046 -0.014189929 6574404
0.0095466822 0.00018897839 -0.014068246 6510156
0.010302663 0.00018300489 -0.013966352 6315096
0.011058569 0.00017711706 -0.013865918 6315870
0.01181487 0.00017122552 -0.013765424 6381920
0.012571536 0.00016533211 -0.013664901 6316128
0.013328597 0.00015943311 -0.013564289 6184542
0.014080033 0.00015472621 -0.013484001 5526612
0.01483123 0.00015012175 -0.013405442 4079166
0.015582733 0.00014551543 -0.013326854 2368548
0.016334511 0.00014090538 -0.013248235 1381653
0.017086603 0.00013629533 -0.013169587 394758
0.017838962 0.00013168342 -0.013090909 723723
0.018581688 0.00012897514 -0.013044715 723723
0.019292057 0.00013246574 -0.01310426 855309
0.020002231 0.00013595447 -0.013163775 592137
0.020858154 0.00011194125 -0.012754172 1184274
0.021748468 8.1764534e-05 -0.012239397 3750201
0.022641033 5.1509589e-05 -0.01172334 5197647
0.023535892 2.1178275e-05 -0.011205941 2960684
0.024453327 -1.296401e-05 -0.010623544 4473924
0.025396034 -5.1353127e-05 -0.009968698 4408131
0.026341796 -8.9865178e-05 -0.0093117654 6381921
0.027291581 -0.00012867711 -0.0086497068 6381921
0.028254285 -0.00016938709 -0.0079552829 3026478
0.029220268 -0.0002102349 -0.0072585046 3684408
0.030189559 -0.00025122426 -0.0065593123 5658198
0.033331782 -0.00067661703 0.00069701672 6313292
0.035988599 -0.001011895 0.0064161718 5524292
-0.029521577 -0.0015938859 0.03010115 7630183
-0.028906435 -0.0015300959 0.028978467 6706247
-0.02829437 -0.0014666263 0.027861446 6574403
-0.027685374 -0.0014034715 0.026749969 6574660
-0.027079403 -0.0013406351 0.025644064 6706247
-0.02647645 -0.0012781098 0.024543643 6970450
-0.025876485 -0.0012158938 0.023448676 7366238
-0.025279485 -0.001153985 0.022359133 7564132
-0.024685435 -0.0010923818 0.021274954 7563876
-0.024094313 -0.0010310821 0.02019611 7564133
-0.023458548 -0.00098455325 0.019377232 7498082
-0.022818767 -0.0009401273 0.018595338 7432032
-0.022182003 -0.00089563988 0.017812401 7102293
-0.021547526 -0.00085131265 0.017032266 6110515
-0.020915315 -0.00080714561 0.016254961 5382684
-0.020285368 -0.00076313503 0.015480399 5118228
-0.019657671 -0.00071928278 0.014708608 5118228
-0.01903221 -0.00067558698 0.013939589 5118228
-0.018406227 -0.00063281879 0.013186902 5118228
-0.017769076 -0.00059394352 0.0125027 5118228
-0.017134018 -0.00055516884 0.011820287 5118228
-0.016500995 -0.0005165115 0.011139929 5118228
-0.01586999 -0.00047797523 0.010461718 5118229
-0.015240975 -0.00043956004 0.0097856522 4987673
-0.014613941 -0.00040126778 0.0091117322 4857373
-0.01398889 -0.00036309659 0.0084399283 5052951
-0.013365805 -0.00032504462 0.0077702403 5118229
-0.01274468 -0.00028711185 0.0071026385 5118228
-0.012125507 -0.00024929829 0.0064371526 5118228
-0.011508264 -0.00021160394 0.0057737529 5118228
-0.010898374 -0.00017264672 0.0050881207 5118228
-0.010315418 -0.00012749992 0.004293561 5118228
-0.0097346306 -8.2528219e-05 0.0035020709 5118228
-0.0091556311 -3.7822872e-05 0.0027152896 5118228
-0.0085787848 6.7148358e-06 0.0019314587 5581860
-0.0080040917 5.1084906e-05 0.0011505485 6309691
-0.0074315444 9.5292926e-05 0.00037252903 6574403
-0.0068611205 0.00013933517 -0.00040259957 6574403
-0.0062928125 0.00018321536 -0.0011748672 6574403
-0.0057019517 0.0002210699 -0.0018410981 6574403
-0.0051102787 0.00025816821 -0.0024940073 6574403
-0.004520461 0.00029514916 -0.0031448305 6574403
-0.0039324909 0.00033201277 -0.003793627 6574403
-0.0033463687 0.00036876276 -0.004440397 6574403
-0.0027720034 0.00040766969 -0.0051251352 6574403
-0.0022089183 0.00044858456 -0.0058452189 6574403
-0.0016478002 0.00048935413 -0.0065627396 6574403
-0.0010886416 0.00052998401 -0.0072777867 6574403
-0.00053142756 0.00057047233 -0.0079903603 6574403
4.0329993e-05 0.00060717575 -0.0086363256 6574403
0.00066143274 0.00063253753 -0.009082675 6574403
0.0012811795 0.00065784156 -0.0095280409 6574403
0.0018995777 0.00068309158 -0.0099724233 6574403
0.0025166273 0.00070828758 -0.010415852 6574403
0.0031323284 0.00073342957 -0.010858327 6574403
0.0037467033 0.00075851567 -0.011299819 6574403
0.0043597221 0.00078354776 -0.011740386 6574403
0.0049714223 0.00080852583 -0.012179971 6574403
0.0055817962 0.00083344802 -0.012618601 6574403
0.0062068701 0.00085501 -0.012998074 6574403
0.0068418831 0.00087425113 -0.013336718 6772554
0.0074758083 0.00089346245 -0.013674825 7301216
0.0081086904 0.00091264024 -0.014012337 7697262
0.0087999105 0.00091982819 -0.014138848 6574404
0.0095579699 0.00091355853 -0.014028519 6574918
0.010313593 0.00090785511 -0.013928115 6379859
0.011069581 0.0009021461 -0.013827652 6250076
0.011822186 0.0008971747 -0.013740152 6381921
0.012572467 0.00089271739 -0.013661712 6447714
0.013323046 0.00088825636 -0.013583213 6447714
0.014073923 0.00088379718 -0.013504714 6052956
0.014825076 0.00087933242 -0.013426155 5592405
0.015576541 0.00087486766 -0.013347566 3158064
0.016328283 0.0008704029 -0.013268977 1776411
0.017080322 0.00086593442 -0.013190329 789516
0.017832659 0.00086146221 -0.013111651 328965
0.018548131 0.00086389668 -0.013154477 263172
0.019258313 0.00086727738 -0.013213992 131586
0.019968286 0.00087065808 -0.013273478 263172
0.02080825 0.00085026398 -0.012914568 3684408
0.021698132 0.00082104094 -0.01240024 5592405
0.022590294 0.00079173967 -0.01188457 6052956
0.023484722 0.00076236576 -0.011367589 4210752
0.024381444 0.00073291548 -0.010849297 4802889
0.025283486 0.00070285611 -0.010320246 6052956
0.026228249 0.00066559203 -0.0096644163 6316128
0.027182877 0.00062701106 -0.00898543 6381921
0.028144613 0.00058761798 -0.0082921386 3815994
0.029109597 0.00054809451 -0.0075965226 2368548
0.030077904 0.00050843135 -0.0068984926 4013373
0.032425493 0.00023243017 -0.002041012 5919566
0.035267577 -0.00012500398 0.0042496324 6969419
-0.029311717 -0.00085583143 0.031345457 7367527
-0.028727286 -0.00078342855 0.030029446 6838348
-0.028146282 -0.00071145035 0.028721124 6574403
-0.027568668 -0.00063989125 0.027420431 6574403
-0.026994415 -0.00056874938 0.026127309 6574403
-0.026391625 -0.00050788559 0.025021046 6640453
-0.02579122 -0.0004475154 0.023923725 6772298
-0.025193796 -0.00038744323 0.022831827 6706504
-0.024599321 -0.00032766908 0.021745324 6838348
-0.024007775 -0.00026818924 0.020664185 6772040
-0.023377478 -0.00022127666 0.019811481 6838091
-0.022737928 -0.00017796271 0.019024193 6772298
-0.022100687 -0.00013480335 0.018239707 6574403
-0.021465532 -9.1856346e-05 0.017459095 6375997
-0.020831771 -4.9311668e-05 0.016685784 5713703
-0.020200275 -6.9178641e-06 0.015915185 5118228
-0.019571014 3.5325065e-05 0.015147358 5118228
-0.01894398 7.7420846e-05 0.014382213 5118228
-0.018314056 0.00011796877 0.013645202 5118228
-0.017682262 0.00015728921 0.012930483 5118228
-0.01704663 0.0001948867 0.012247115 5118228
-0.016413018 0.00023236498 0.011565894 5118228
-0.015781417 0.00026972219 0.010886848 5118228
-0.015151806 0.00030696392 0.010209948 5118228
-0.014524192 0.00034408458 0.0095351934 5118228
-0.013898551 0.00038109161 0.008862555 5118229
-0.013274886 0.0004179813 0.0081920326 5118229
-0.012653172 0.00045475364 0.0075236261 5118228
-0.012033418 0.00049141236 0.0068573058 5118228
-0.011415608 0.00052795559 0.0061930716 5118228
-0.010807857 0.00056639127 0.0054944456 5118228
-0.010212757 0.00060730986 0.0047506988 5118228
-0.009631142 0.00065085292 0.0039592385 5118228
-0.0090517029 0.00069423206 0.0031707585 5184020
-0.0084744319 0.00073745102 0.0023851991 5118228
-0.0078993142 0.00078050606 0.0016025901 5978415
-0.0073263422 0.00082340278 0.00082290173 6442303
-0.0067554936 0.00086613931 4.6104193e-05 6574403
-0.0061806142 0.000907287 -0.00070184469 6574403
-0.0055865645 0.00094340555 -0.0013583302 6574403
-0.0049943849 0.00097940676 -0.0020127296 6574403
-0.004404068 0.0010152981 -0.0026651025 6574403
-0.0038232803 0.0010528024 -0.0033468008 6574403
-0.0032559335 0.0010927599 -0.0040730834 6574403
-0.0026905611 0.0011325758 -0.004796803 6574403
-0.002127178 0.0011722557 -0.0055180192 6574403
-0.0015657619 0.0012117941 -0.0062367022 6574403
-0.0010062978 0.0012511965 -0.0069528818 6574403
-0.00044879317 0.0012904592 -0.007666558 6574403
0.00013546646 0.0013234504 -0.0082662106 6574403
0.00075703114 0.0013480503 -0.0087133646 6574403
0.0013772324 0.0013725981 -0.0091595352 6574403
0.0019960925 0.00139709 -0.0096047223 6574403
0.0026135817 0.0014215298 -0.010048956 6574403
0.0032297298 0.0014459174 -0.010492235 6574403
0.0038445368 0.001470251 -0.010934532 6574403
0.0044580176 0.0014945325 -0.011375874 6574403
0.0050701723 0.001518758 -0.011816233 6574403
0.0056809932 0.0015429351 -0.012255669 6574403
0.006290473 0.0015670583 -0.01269415 6574403
0.006898649 0.0015911292 -0.013131678 6574403
0.0075055063 0.001615148 -0.013568252 7168859
0.0081288591 0.0016356241 -0.013940424 7697005
0.0088135079 0.0016438905 -0.014090687 6640195
0.009567216 0.0016386788 -0.013995975 6705989
0.010316588 0.0016343687 -0.013917625 6575951
0.011066243 0.0016300566 -0.013839245 6380890
0.011816196 0.0016257428 -0.013760835 6381663
0.01256644 0.001621427 -0.013682395 6381921
0.013316989 0.0016171094 -0.013603896 6447714
0.014067806 0.0016127899 -0.013525397 6184542
0.014818937 0.0016084705 -0.013446867 5066061
0.01557035 0.0016041473 -0.013368309 3552822
0.016322061 0.0015998222 -0.01328969 723723
0.017074056 0.0015954971 -0.013211071 1973790
0.017804392 0.0015951451 -0.013204664 1513239
0.018514588 0.0015984196 -0.013264179 1052688
0.019224592 0.0016016904 -0.013323635 263172
0.019934386 0.0016049612 -0.01338309 263172
0.020758361 0.0015880037 -0.013074875 4276545
0.021647841 0.0015597288 -0.012560934 6118749
0.022539571 0.0015313812 -0.012045681 6513507
0.023433596 0.0015029628 -0.011529118 5066061
0.024329886 0.0014744718 -0.011011243 5789784
0.025228485 0.0014459062 -0.010492027 6513507
0.026130766 0.0014170315 -0.0099671781 5723991
0.027074352 0.0013814587 -0.0093206167 6447714
0.028035104 0.0013433788 -0.0086284578 6250335
0.02899912 0.0013051722 -0.0079339743 2829099
0.029966429 0.0012668334 -0.0072371066 2763306
0.031531021 0.0011296365 -0.0047433674 5591890
0.034553885 0.00075285882 0.0021051466 6575948
0.036566764 0.00054620393 0.0058614016 6246983
-0.028417677 -7.3697418e-05 0.031845778 7102036
-0.027835228 -3.5129488e-06 0.030526817 6640196
-0.027256191 6.6261739e-05 0.029215574 6574403
-0.026680537 0.00013562851 0.027911991 6574403
-0.026108235 0.00020458922 0.026616037 6574403
-0.025539264 0.00027315132 0.025327563 6574404
-0.024973579 0.00034131482 0.0240466 6574403
-0.024411164 0.0004090853 0.022772998 6574660
-0.023851991 0.00047646649 0.021506757 6574660
-0.023295023 0.0005431734 0.020253152 6574403
-0.022653922 0.00058485381 0.019469857 6574403
-0.022015117 0.00062638521 0.018689364 6574403
-0.021378592 0.00066776946 0.017911643 6574403
-0.020744331 0.0007090047 0.017136723 6110771
-0.020112336 0.00075009651 0.016364515 5383198
-0.019482583 0.00079103932 0.015595078 5118228
-0.018851407 0.00083086453 0.014846683 5118228
-0.018220678 0.00087009184 0.014109492 5118228
-0.017592095 0.00090918504 0.013374805 5118228
-0.016959153 0.00094645657 0.012674391 5118228
-0.016325049 0.00098277815 0.011991829 5118228
-0.015692957 0.0010189824 0.011311442 5118228
-0.015062861 0.001055073 0.0106332 5118228
-0.01443477 0.0010910518 0.0099570751 5118228
-0.013808653 0.0011269134 0.0092831254 5118228
-0.013184518 0.001162665 0.0086112618 5118228
-0.012562335 0.001198303 0.0079415441 5118228
-0.011942118 0.0012338292 0.0072739124 5118228
-0.011331663 0.0012711268 0.0065729916 5118228
-0.010733746 0.001310816 0.0058271289 5118228
-0.010137931 0.0013503656 0.0050838888 5118484
-0.0095442012 0.0013897754 0.0043432713 5118228
-0.008952558 0.0014290474 0.0036052465 5250067
-0.0083698556 0.0014697723 0.0028399229 5645328
-0.0077943131 0.0015115067 0.0020556152 5580829
-0.0072209165 0.0015530866 0.0012742281 6243128
-0.0066496506 0.0015945099 0.00049576163 6574403
-0.0060654655 0.0016324073 -0.00021642447 6574403
-0.0054709092 0.0016674213 -0.00087442994 6574403
-0.0048836768 0.0017035287 -0.001552999 6574403
-0.0043120012 0.001742512 -0.0022855997 6574403
-0.0037423372 0.0017813575 -0.0030156076 6574403
-0.00317467 0.0018200669 -0.0037430525 6574403
-0.0026089922 0.0018586405 -0.0044679344 6574403
-0.002045311 0.0018970799 -0.0051903129 6574403
-0.001483582 0.0019353814 -0.0059101284 6574403
-0.00092381984 0.0019735526 -0.0066274405 6574403
-0.00036600977 0.0020115897 -0.007342279 6574403
0.00023078173 0.0020410232 -0.0078954101 6574403
0.00085280091 0.0020648614 -0.0083433688 6574403
0.0014734566 0.0020886455 -0.008790344 6574403
0.0020927563 0.0021123793 -0.0092363656 6574403
0.0027107224 0.002136061 -0.0096814036 6574403
0.0033273175 0.0021596905 -0.010125458 6574403
0.003942579 0.0021832678 -0.010568559 6574403
0.004556492 0.0022067968 -0.011010706 6574403
0.0051690862 0.0022302717 -0.01145187 6574403
0.0057803467 0.0022536963 -0.01189208 6574403
0.006390281 0.0022770688 -0.012331337 6574403
0.0069988891 0.0023003928 -0.012769639 6574403
0.0076061785 0.0023236666 -0.013207018 6706504
0.0081838369 0.0023522638 -0.013744414 7498853
0.0088123083 0.0023709163 -0.014094949 6970191
0.0095613524 0.0023667477 -0.014016628 6705988
0.01031068 0.0023625791 -0.013938278 6640968
0.011060297 0.0023584105 -0.013859928 6445910
0.011810206 0.0023542363 -0.013781518 6250077
0.01256042 0.002350064 -0.013703078 6184541
0.013310917 0.0023458879 -0.013624609 6381921
0.014061697 0.00234171 -0.013546109 6316128
0.01481279 0.0023375321 -0.01346758 5789784
0.015564166 0.0023333523 -0.013389021 2631720
0.016315833 0.0023291688 -0.013310432 2039583
0.017060831 0.0023262128 -0.013254851 1381653
0.017771058 0.0023293775 -0.013314337 3223857
0.018481083 0.0023325421 -0.013373792 2039583
0.019190893 0.0023357049 -0.013433248 592137
0.019900486 0.0023388676 -0.013492674 197379
0.020708531 0.0023251567 -0.013235033 2500134
0.021597579 0.0022978317 -0.012721509 6579300
0.022488907 0.0022704359 -0.012206674 6513507
0.0233825 0.0022429712 -0.011690527 4079166
0.024278373 0.0022154339 -0.01117304 5460819
0.02517654 0.0021878295 -0.010654271 6184542
0.026082337 0.0021592695 -0.010117561 5789784
0.026993915 0.00213008 -0.0095690191 5723991
0.027925774 0.0020978991 -0.0089642406 6579300
0.028888822 0.0020610038 -0.0082708895 5789784
0.029855147 0.0020239837 -0.0075751841 4737096
0.030824766 0.001986837 -0.0068770945 4473924
0.033847436 0.0016218256 -1.758337e-05 5854802
0.035843715 0.0014239773 0.0037005246 6903883
-0.027521648 0.00071018562 0.032347172 6574660
-0.02694118 0.00077814236 0.031025261 6574403
-0.026364125 0.0008457005 0.029711127 6574403
-0.025790446 0.00091286376 0.028404653 6574403
-0.025220104 0.00097963586 0.027105808 6574403
-0.024653085 0.0010460187 0.025814533 6574403
-0.024089351 0.0011120178 0.024530709 6574403
-0.023713566 0.0012289882 0.022255421 6574403
-0.023209438 0.0013083555 0.020711541 6574403
-0.022567824 0.0013487078 0.019926608 6574403
-0.021928504 0.0013889167 0.019144475 6574403
-0.021291472 0.0014289804 0.018365145 6574403
-0.020656712 0.0014689025 0.017588586 6442304
-0.02002421 0.0015086811 0.016814798 5780009
-0.01939176 0.0015477464 0.016054899 5184022
-0.018758342 0.0015858579 0.015313566 5118228
-0.018127099 0.0016238391 0.014574766 5118228
-0.017498009 0.00166169 0.01383847 5118228
-0.016871057 0.0016994122 0.013104707 5118228
-0.016236901 0.0017346833 0.012418628 5118228
-0.015604325 0.0017697308 0.01173687 5118228
-0.014973752 0.0018046685 0.011057258 5118228
-0.014345169 0.0018394943 0.010379821 5118228
-0.013718575 0.0018742103 0.0097045302 5118228
-0.013093963 0.0019088164 0.0090313554 5118228
-0.012471318 0.0019433144 0.0083602965 5118228
-0.01185815 0.0019794684 0.0076570511 5118228
-0.011257775 0.0020180084 0.0069073737 5579537
-0.010659516 0.0020564105 0.0061603487 5777423
-0.010063358 0.0020946804 0.0054159462 5447954
-0.0094693005 0.0021328162 0.0046741366 5250068
-0.0088773295 0.0021708161 0.0039349496 5777167
-0.0082874224 0.0022086836 0.0031983554 7425026
-0.0076995715 0.002246419 0.0024643242 5909262
-0.0071152523 0.0022843461 0.0017265677 5845799
-0.0065435693 0.0023244526 0.00094640255 6375997
-0.0059533194 0.0023599248 0.00025638938 6574403
-0.0053772554 0.0023979153 -0.00048258901 6574403
-0.0048032328 0.0024357699 -0.0012189448 6574403
-0.0042312369 0.0024734922 -0.0019527078 6574403
-0.00366126 0.0025110822 -0.0026839077 6574403
-0.0030932873 0.0025485381 -0.0034125149 6574403
-0.002527304 0.0025858637 -0.0041385591 6574403
-0.0019633025 0.002623057 -0.0048620701 6574403
-0.0014012679 0.0026601218 -0.0055830479 6574403
-0.0008412078 0.0026970562 -0.0063014925 6574403
-0.00028310716 0.0027338639 -0.0070174634 6574403
0.00032626092 0.0027599018 -0.0075239539 6574403
0.00094874203 0.0027829707 -0.0079727173 6574403
0.0015698522 0.002805993 -0.008420527 6574403
0.0021896213 0.0028289612 -0.0088673234 6574403
0.0028080195 0.0028518829 -0.0093131661 6640454
0.0034250692 0.0028747525 -0.0097580552 6706247
0.0040407926 0.0028975718 -0.010201931 6640453
0.0046551526 0.0029203445 -0.010644883 6574660
0.0052681789 0.002943065 -0.011086851 6574403
0.0058798864 0.0029657353 -0.011527836 6574403
0.0064754114 0.0029911306 -0.01202184 6574403
0.007052429 0.0030196346 -0.012576282 6574403
0.0076278672 0.0030480586 -0.013129205 6574403
0.0082291067 0.0030713882 -0.013583004 7102808
0.0088395327 0.003092749 -0.013998508 7432546
0.0095554814 0.0030947421 -0.014037281 6705988
0.010304756 0.003090715 -0.013958961 6705989
0.011054352 0.0030866861 -0.013880581 6444879
0.011804231 0.0030826554 -0.013802171 6183768
0.012554392 0.0030786246 -0.013723761 6052955
0.013304852 0.0030745901 -0.013645291 6250335
0.01405561 0.0030705556 -0.013566792 6316128
0.014806651 0.0030665174 -0.013488263 5395026
0.015557982 0.0030624811 -0.013409734 4737096
0.016309611 0.003058441 -0.013331145 1118481
0.017027706 0.0030601546 -0.013364494 1052688
0.017737739 0.0030632112 -0.013423949 3881787
0.018447571 0.003066266 -0.013483375 2500134
0.019157186 0.0030693207 -0.013542801 1118481
0.019866601 0.0030723754 -0.013602197 855309
0.020658731 0.0030617267 -0.013395071 855309
0.021547362 0.0030353479 -0.012881964 5987163
0.022438273 0.0030089021 -0.012367517 6579300
0.023331448 0.0029823892 -0.011851788 5197647
0.024226904 0.0029558074 -0.011334717 5066061
0.025125235 0.0029290635 -0.010814518 5987163
0.026033968 0.0029009599 -0.010267824 6184542
0.026945129 0.0028727818 -0.0097196996 5592405
0.027858764 0.0028445274 -0.0091700852 6513507
0.028778702 0.0028155912 -0.0086072385 6645092
0.029744044 0.0027798843 -0.0079126656 5789784
0.030712664 0.0027440563 -0.0072157383 3158064
0.033148095 0.002482038 -0.0021189451 6250076
0.035128042 0.0022928249 0.0015616417 6313549
0.037143409 0.0021002255 0.0053080916 6246727
-0.027205497 0.0014297105 0.034182429 6575948
-0.026623607 0.0014958195 0.032849729 6574403
-0.026045136 0.0015615392 0.031524867 6574403
-0.025470071 0.0016268734 0.030207783 6574403
-0.024898373 0.0016918238 0.028898418 6574403
-0.024330013 0.0017563961 0.027596682 6574403
-0.023946725 0.0018698387 0.025309741 6574403
-0.023588218 0.0019877162 0.022933394 6574403
-0.023123682 0.002075145 0.021170884 6574403
-0.022481546 0.0021141637 0.020384312 6574403
-0.02184172 0.0021530427 0.01960054 6574403
-0.021204174 0.002191782 0.018819571 6574403
-0.020568907 0.0022303835 0.018041402 6574403
-0.019935146 0.0022686534 0.01726988 6177078
-0.01929903 0.0023056343 0.016524374 5515040
-0.01866509 0.0023424886 0.015781432 5118228
-0.018033318 0.0023792163 0.015041023 5118228
-0.017403707 0.0024158154 0.014303178 5118228
-0.016776241 0.0024522934 0.013567805 5118228
-0.016148582 0.0024880879 0.012846231 5118228
-0.015515514 0.0025219731 0.012163132 5118228
-0.014884457 0.0025557503 0.011482179 5118228
-0.014255397 0.0025894213 0.010803401 5118228
-0.013628326 0.0026229862 0.01012677 5118228
-0.013003238 0.0026564449 0.0094522536 5118228
-0.012387335 0.002691444 0.0087466836 5118228
-0.011784486 0.0027288236 0.0079931617 5447954
-0.011183769 0.002766069 0.0072422922 6502409
-0.010585159 0.0028031822 0.0064941049 6897926
-0.009988673 0.0028401688 0.0057485104 6633992
-0.0093942806 0.0028770231 0.0050055385 5579537
-0.0088019744 0.002913747 0.0042651892 5975054
-0.0082117394 0.0029503442 0.0035274327 7227395
-0.0076235607 0.0029868111 0.002792269 6700040
-0.0070333406 0.0030222815 0.0020772219 5514522
-0.00644508 0.0030576214 0.0013647974 6309690
-0.0058711842 0.0030954275 0.00060263276 6574146
-0.0052970052 0.0031326041 -0.00014680624 6574403
-0.0047226623 0.0031691901 -0.00088435411 6574403
-0.0041503534 0.0032056458 -0.0016192794 6574660
-0.0035800487 0.003241973 -0.0023516417 6640454
-0.0030117631 0.0032781735 -0.0030814111 6574403
-0.0024454668 0.0033142474 -0.0038086474 6640197
-0.0018811673 0.0033501945 -0.0045332909 6640197
-0.0013188422 0.0033860151 -0.0052554309 6574403
-0.00075848401 0.0034217108 -0.0059750378 6574403
-0.00020006299 0.0034572817 -0.0066921115 6574403
0.00042191893 0.0034800842 -0.0071518123 6574403
0.001044862 0.0035023857 -0.0076013803 6574403
0.0016664267 0.0035246387 -0.0080499947 6574660
0.0022866502 0.0035468433 -0.0084976256 6706504
0.0029055029 0.0035689995 -0.008944273 7102036
0.003523007 0.0035911072 -0.0093899369 7564133
0.0041391701 0.0036131665 -0.0098346472 7168344
0.0047523379 0.003635481 -0.010284483 6772040
0.005334191 0.0036632195 -0.010843694 6574404
0.0059144497 0.0036908817 -0.011401355 6574403
0.0064931065 0.0037184693 -0.011957496 6574403
0.0070701912 0.0037459806 -0.012512118 6574403
0.0076671019 0.0037696082 -0.012988418 6574403
0.0082790032 0.0037902799 -0.013405144 6706504
0.0088896379 0.0038109086 -0.013821006 7366752
0.0095496103 0.0038226619 -0.014057934 6970190
0.010298863 0.0038187765 -0.013979614 6705988
0.011048406 0.0038148873 -0.013901234 6575433
0.01179824 0.0038109999 -0.013822854 6182995
0.012548372 0.0038071088 -0.013744414 6052697
0.013298802 0.0038032178 -0.013665974 6250334
0.0140495 0.0037993249 -0.013587505 6250335
0.014800496 0.0037954301 -0.013508976 6184542
0.015551798 0.0037915353 -0.013430446 4605510
0.016284533 0.0037907511 -0.013414651 1250067
0.016994603 0.0037936997 -0.013474077 1052688
0.017704442 0.0037966464 -0.013533503 855309
0.018414088 0.0037995931 -0.013592899 1447446
0.019123517 0.0038025398 -0.013652295 4013373
0.019832738 0.0038054846 -0.013711661 2565927
0.020608976 0.0037977137 -0.01355499 3026478
0.02149719 0.0037722792 -0.013042271 5131854
0.022387668 0.0037467834 -0.01252827 6579300
0.023280427 0.0037212186 -0.012012929 6184542
0.024175465 0.0036955904 -0.011496276 4934475
0.025077283 0.0036692005 -0.010964274 5723991
0.025985613 0.0036421027 -0.010417998 6118749
0.026896372 0.0036149323 -0.009870261 6118749
0.027809605 0.0035876893 -0.009321034 6381921
0.028725311 0.0035603717 -0.0087703466 6579300
0.029643476 0.0035329815 -0.0082181692 6250335
0.030600756 0.0035000276 -0.0075538456 4934475
0.032455772 0.0033336226 -0.0041992366 5921112
0.034419581 0.0031528827 -0.0005556345 5920852
0.036418363 0.002968926 0.0031528473 6903883
-0.026303433 0.0022193678 0.034689069 6575435
-0.025723554 0.0022832137 0.033353388 6574403
-0.025147103 0.002346687 0.032025546 6574403
-0.024574026 0.0024097841 0.030705541 6574403
-0.024183139 0.0025196634 0.028406858 6574403
-0.023820862 0.0026348475 0.025997192 6574403
-0.023462474 0.0027487911 0.023613483 6574403
-0.023037747 0.0028435457 0.021631211 6574403
-0.022395089 0.0028812233 0.020842969 6574403
-0.021754742 0.0029187668 0.020057559 6574403
-0.021116696 0.0029561762 0.01927495 6574403
-0.020480923 0.0029934514 0.018495142 6574403
-0.019842744 0.0030294526 0.017742008 6574403
-0.019206092 0.0030651651 0.016994894 5912622
-0.018571623 0.0031007547 0.016250342 5250842
-0.017939337 0.003136225 0.015508324 5118228
-0.017309204 0.0031715706 0.014768869 5118228
-0.016681224 0.0032067988 0.014031917 5118228
-0.01605539 0.0032419059 0.013297468 5118228
-0.015426524 0.0032757111 0.012590259 5118228
-0.01479499 0.003308326 0.011907935 5118228
-0.014165439 0.0033408366 0.011227816 5184276
-0.013537891 0.0033732448 0.010549843 5777423
-0.01291924 0.0034070835 0.0098419189 5909262
-0.012313902 0.0034432877 0.0090845227 5250323
-0.011710703 0.0034793634 0.0083298087 5184020
-0.011109643 0.0035153143 0.0075777471 6700040
-0.010510698 0.0035511348 0.0068283677 7161604
-0.0099138692 0.0035868306 0.0060816109 6370314
-0.0093175024 0.0036220551 0.0053447187 5447954
-0.0087204352 0.0036565755 0.004622519 5711376
-0.0081254169 0.0036909804 0.0039027631 7095812
-0.0075324252 0.0037252698 0.003185451 6766087
-0.0069414526 0.00375944 0.0024705827 5381907
-0.0063529164 0.0037935842 0.0017563105 5978672
-0.0057786629 0.0038300846 0.00099271536 6574146
-0.0052064881 0.0038664509 0.00023192167 6574403
-0.0046363994 0.0039026868 -0.0005261302 6640197
-0.0040683672 0.0039387885 -0.0012814105 6838348
-0.0034987181 0.003974041 -0.0020188689 7036499
-0.0029301196 0.0040089805 -0.0027498305 7299930
-0.0023635179 0.004043797 -0.0034781992 7365981
-0.001798898 0.0040784925 -0.004204005 7102293
-0.0012362674 0.0041130669 -0.0049273074 6904142
-0.00067560375 0.0041475184 -0.0056480467 6574660
-0.00010702014 0.0041800011 -0.0063275695 6640453
0.0005177483 0.004201578 -0.0067789853 6640454
0.0011411458 0.0042231083 -0.0072293878 6640453
0.0017631873 0.0042445902 -0.0076788068 6772041
0.0023838505 0.0042660274 -0.0081272721 7036499
0.0030031577 0.0042874161 -0.0085747242 7563875
0.0036011711 0.004312342 -0.0090961754 7828077
0.0041863099 0.0043392293 -0.0096586645 7695976
0.0047698319 0.004366044 -0.010219604 7036243
0.005351752 0.0043927822 -0.010778993 6706247
0.0059320778 0.0044194479 -0.011336833 6574403
0.0065108165 0.0044460408 -0.011893153 6574403
0.0071034208 0.0044698901 -0.012392104 6574403
0.0077168122 0.0044898689 -0.012810051 6574403
0.0083289295 0.0045098066 -0.013227135 6574403
0.0089397803 0.0045297034 -0.013643384 6904655
0.0095493868 0.0045495573 -0.014058739 7366238
0.010292962 0.0045467615 -0.014000267 6705988
0.011042468 0.0045430157 -0.013921887 6640453
0.011792272 0.0045392681 -0.013843507 6182221
0.012542352 0.0045355204 -0.013765097 5920852
0.01329273 0.0045317709 -0.013686657 5921111
0.014043398 0.0045280214 -0.013608187 5789527
0.014794357 0.0045242682 -0.013529688 6118749
0.015541539 0.0045211669 -0.013464808 4737096
0.016251631 0.0045240056 -0.013524204 2368548
0.0169615 0.0045268461 -0.013583601 592137
0.01767116 0.0045296848 -0.013642997 526344
0.01838062 0.0045325216 -0.013702363 1315860
0.01908987 0.0045353584 -0.013761699 5329233
0.019798912 0.0045381952 -0.013821036 5789784
0.020559251 0.0045331158 -0.01371479 5592405
0.021447062 0.0045086257 -0.013202459 5592405
0.022337139 0.0044840761 -0.012688845 6579300
0.023229465 0.0044594612 -0.012173921 6513507
0.024124071 0.0044347867 -0.011657715 5592405
0.025029376 0.0044087917 -0.011113912 5329233
0.025937289 0.0043826997 -0.010568053 5987163
0.026847675 0.0043565352 -0.010020703 5658198
0.027760491 0.0043303017 -0.0094718933 5855577
0.02867578 0.0043039992 -0.0089216232 6513507
0.029593542 0.0042776223 -0.0083698332 6579300
0.030513793 0.0042511746 -0.0078165531 6381921
0.031770349 0.0041767117 -0.0062587559 5789784
0.033718258 0.0040042866 -0.002651602 6316126
0.035700694 0.0038288031 0.0010195076 6051150
0.037718564 0.0036501847 0.004756242 6181191
-0.025399335 0.0030107982 0.035196871 6574403
-0.02482149 0.0030723736 0.03385818 6574403
-0.024422891 0.0031786524 0.031547636 6574403
-0.024056762 0.0032910537 0.029103965 6574403
-0.023694605 0.0034022368 0.026686788 6574403
-0.023336343 0.0035122205 0.024295688 6574403
-0.022951625 0.0036135614 0.022092491 6574403
-0.022308454 0.003649896 0.021302581 6574403
-0.021667592 0.0036860965 0.020515531 6574403
-0.021029033 0.0037221704 0.019731283 6574403
-0.020389527 0.0037573501 0.018966466 6574403
-0.019750141 0.0037919078 0.01821515 6574403
-0.01911296 0.0038263481 0.017466396 6309947
-0.018477969 0.0038606692 0.016720235 5647397
-0.017845146 0.003894873 0.015976638 5118228
-0.017214499 0.0039289612 0.015235543 5118228
-0.016586006 0.0039629322 0.014497012 5118228
-0.01595965 0.0039967857 0.013761014 5118228
-0.015335433 0.0040305257 0.013027489 5118228
-0.014705338 0.0040623974 0.012334555 5118228
-0.014075309 0.0040937457 0.011653066 5316115
-0.013453893 0.0041264147 0.010942817 6963973
-0.012846038 0.0041614324 0.010181516 6897670
-0.01224035 0.0041963253 0.0094228983 6436617
-0.011636809 0.0042310953 0.0086669922 5645328
-0.011031814 0.0042649955 0.0079299808 5975053
-0.010428153 0.0042986237 0.0071989 6963717
-0.0098265707 0.0043321364 0.0064703226 5909262
-0.0092270523 0.0043655336 0.0057442486 5118484
-0.0086295903 0.0043988172 0.0050206482 5184020
-0.0080341622 0.0044319853 0.0042995512 6172940
-0.0074407682 0.0044650417 0.003580898 6370826
-0.0068493932 0.0044979844 0.0028646886 5777682
-0.0062605813 0.0045309234 0.0021485686 5713959
-0.0056859553 0.0045661125 0.001383543 6574403
-0.0051134229 0.0046011731 0.00062131882 6574403
-0.0045429692 0.0046361051 -0.00013813376 6772554
-0.0039745942 0.0046709124 -0.00089484453 7431775
-0.0034082681 0.004705593 -0.0016488135 7827820
-0.0028439909 0.0047401469 -0.0024000406 7894128
-0.0022814274 0.0047745146 -0.0031472147 7893871
-0.0017165095 0.0048079547 -0.0038742125 7893614
-0.0011535734 0.0048412774 -0.0045986474 7695977
-0.00059259683 0.0048744828 -0.005320549 7432032
-1.1481345e-05 0.0049035847 -0.0059532523 7234138
0.00061375648 0.0049243849 -0.0064054728 7168087
0.0012376159 0.0049451403 -0.0068567097 7168086
0.001853168 0.0049670748 -0.0073335767 7300188
0.0024432465 0.0049931724 -0.0079009235 7695977
0.0030317008 0.0050191972 -0.0084667206 7894128
0.0036185309 0.0050451495 -0.0090309381 7959665
0.0042037368 0.0050710291 -0.0095935762 7893871
0.0047873259 0.0050968379 -0.010154694 7432032
0.005369328 0.0051225778 -0.010714263 6838348
0.0059497207 0.005148245 -0.011272281 6574403
0.0065380931 0.0051722415 -0.011794001 6574403
0.0071529597 0.0051915236 -0.0122132 6574403
0.0077665672 0.0052107647 -0.012631506 6574403
0.0083789006 0.0052299667 -0.013048977 6574403
0.0089899823 0.0052491296 -0.013465583 6574403
0.00959979 0.0052682534 -0.013881326 7168344
0.010287061 0.0052746721 -0.01402089 6705988
0.011036523 0.0052710697 -0.013942569 6705988
0.011786282 0.0052674655 -0.013864189 6378569
0.012536332 0.0052638575 -0.013785779 5920336
0.013286673 0.0052602496 -0.01370734 5526353
0.014037296 0.0052566417 -0.01362887 5460562
0.014788233 0.00525303 -0.013550371 6118749
0.015508853 0.0052541327 -0.013574332 5460819
0.016218737 0.0052568633 -0.013633698 3158064
0.016928427 0.0052595939 -0.013693064 1315860
0.017637901 0.0052623246 -0.013752431 2763306
0.018347166 0.0052650534 -0.013811767 4276545
0.019056231 0.0052677821 -0.013871074 6316128
0.019765079 0.005270509 -0.01393038 6579300
0.020509571 0.0052679367 -0.013874441 6447714
0.021396965 0.0052443892 -0.013362527 6645093
0.022286624 0.0052207839 -0.012849331 6645093
0.023178533 0.005197119 -0.012334824 6513507
0.024076402 0.0051728599 -0.011807442 5723991
0.024981499 0.0051478371 -0.01126343 4473924
0.025889024 0.0051227491 -0.010717988 5131854
0.026798993 0.0050975904 -0.010171056 4539717
0.027711406 0.0050723664 -0.0096226633 4868682
0.028626293 0.0050470736 -0.0090727806 5789784
0.029543653 0.0050217118 -0.0085214078 6579300
0.030450344 0.0049981102 -0.0080082715 6645093
0.03135848 0.0049745627 -0.007496357 6645093
0.032838568 0.0048726443 -0.0052806139 6579300
0.034843624 0.0047000442 -0.0015281737 6118232
0.03688556 0.0045242682 0.0022932887 6707276
-0.025072455 0.0037443619 0.037055522 5787207
-0.024666056 0.0038470011 0.034732997 6574403
-0.024296001 0.0039565284 0.032254636 6574403
-0.023929991 0.0040648617 0.029803276 6574403
-0.023567952 0.0041720197 0.027378559 6574403
-0.023209825 0.0042780191 0.024979979 6574403
-0.022855535 0.0043828823 0.022607177 6574403
-0.022221632 0.0044201817 0.021763176 6574403
-0.021580257 0.0044550374 0.020974457 6574403
-0.020939395 0.0044893567 0.020197868 6574403
-0.020297259 0.0045227483 0.01944229 6574403
-0.019657336 0.0045560244 0.018689334 6574403
-0.019019619 0.0045891851 0.017938972 6574403
-0.018384099 0.0046222322 0.017191172 6111028
-0.017750762 0.0046551675 0.016445935 5383198
-0.017119586 0.0046879891 0.015703261 5118228
-0.016490579 0.0047206972 0.01496312 5250067
-0.015863717 0.0047532953 0.014225513 5843215
-0.015238985 0.0047857799 0.013490438 5250067
-0.014615506 0.004817972 0.01276201 5118484
-0.013991311 0.0048494637 0.012049407 5118228
-0.013379738 0.004883036 0.011289746 6238475
-0.01276724 0.0049158577 0.010547072 6897926
-0.012156874 0.0049485657 0.0098069608 6107148
-0.011548609 0.0049811602 0.0090694129 5447954
-0.010942452 0.0050136428 0.0083343983 5184276
-0.010338373 0.0050460137 0.0076019168 6700295
-0.009736374 0.0050782729 0.0068719685 6568201
-0.0091364384 0.0051104203 0.0061445236 5513745
-0.0085385665 0.0051424596 0.0054195523 5118228
-0.0079427361 0.0051743872 0.0046970844 5249812
-0.0073489323 0.0052062068 0.0039770901 5381906
-0.0067571625 0.0052379183 0.0032595098 5843216
-0.0061680749 0.0052696485 0.0025415421 5977897
-0.0055930838 0.0053035207 0.0017750859 6508097
-0.0050201789 0.00533727 0.0010114312 6838348
-0.0044493675 0.0053708944 0.00025054812 7563876
-0.0038806275 0.0054043978 -0.00050756335 7894128
-0.0033139512 0.0054377802 -0.001262933 7894128
-0.0027493238 0.0054710414 -0.0020155311 7894128
-0.002186738 0.0055041816 -0.0027654469 7894128
-0.0016261786 0.0055372026 -0.0035126507 7894128
-0.0010676533 0.0055701062 -0.0042571723 7894128
-0.0005094707 0.0056026038 -0.0049925148 7893872
8.4236264e-05 0.005628489 -0.0055782497 7828077
0.00068508834 0.0056527816 -0.0061279535 7828077
0.0012785271 0.0056780018 -0.0066986382 7894128
0.0018703267 0.0057031531 -0.0072677433 7894128
0.0024604797 0.0057282355 -0.0078352988 7959664
0.0030490011 0.0057532471 -0.0084012449 7959665
0.0036358982 0.0057781879 -0.0089656413 7959665
0.0042211786 0.0058030635 -0.0095284879 7959665
0.0048048422 0.0058278684 -0.010089785 7630183
0.0053868964 0.0058526061 -0.010649532 7036499
0.0059710667 0.0058766734 -0.01119414 6574403
0.0065874532 0.0058952533 -0.011614561 6574403
0.0072025359 0.005913794 -0.012034118 6574403
0.0078163669 0.0059322976 -0.012452811 6574403
0.0084289163 0.0059507638 -0.01287064 6574403
0.0090402067 0.0059691928 -0.013287634 6574403
0.0096502379 0.0059875809 -0.013703734 6706504
0.010281153 0.00600251 -0.014041543 6903883
0.011030577 0.0059990492 -0.013963223 6705988
0.011780299 0.0059955847 -0.013884842 6640454
0.012530297 0.0059921201 -0.013806462 6116686
0.0132806 0.0059886537 -0.013728023 5789268
0.014031202 0.0059851855 -0.013649553 5658197
0.014766246 0.0059840754 -0.01362443 6381921
0.015476167 0.0059866998 -0.013683796 5987163
0.01618588 0.0059893224 -0.013743132 5921370
0.016895376 0.005991945 -0.013802469 5526612
0.017604657 0.0059945658 -0.013861805 5855577
0.018313743 0.0059971865 -0.013921112 6316128
0.019022606 0.0059998073 -0.013980389 6645093
0.019731268 0.0060024261 -0.014039665 6645093
0.020459935 0.0060021747 -0.014033973 6579300
0.021346912 0.0059795696 -0.013522476 6645093
0.022236153 0.0059569068 -0.013009667 6645093
0.023127645 0.0059341881 -0.012495577 6447714
0.024028957 0.005910363 -0.011956453 5921370
0.024933651 0.0058863387 -0.011412859 4013373
0.025840774 0.0058622509 -0.010867804 3684408
0.026750341 0.0058380999 -0.010321289 3618615
0.027662367 0.0058138818 -0.0097732842 3289650
0.028576836 0.0057895985 -0.0092238188 4868682
0.029464155 0.0057692267 -0.0087628663 6645093
0.030347794 0.0057495702 -0.0083180666 6645093
0.031266749 0.0057254359 -0.0077719688 6579556
0.032216713 0.0056974683 -0.0071391165 6579300
0.033841118 0.0055812001 -0.0045081973 6316127
0.035859108 0.0054147411 -0.00074160099 5854803
0.037914306 0.0052452162 0.0030944049 6181191
-0.024349913 0.0045864452 0.036512315 5851969
-0.024168715 0.0047368631 0.032963842 6574403
-0.023802817 0.0048411004 0.030504793 6574403
-0.023440912 0.0049442071 0.028072447 6574403
-0.023082905 0.0050461963 0.025666416 6574403
-0.022728756 0.0051470902 0.023286253 6574403
-0.022134632 0.005192088 0.022224724 6574403
-0.021492377 0.0052255113 0.021436244 6574403
-0.02084747 0.0052577201 0.020676404 6574403
-0.02020479 0.005289821 0.019919157 6574403
-0.019564331 0.0053218063 0.019164562 6574403
-0.018926084 0.0053536855 0.01841253 6574403
-0.018290028 0.0053854529 0.017663121 6507840
-0.017656162 0.0054171104 0.016916275 5780266
-0.017024472 0.0054486599 0.016171992 5184535
-0.016394943 0.0054801032 0.015430242 5514001
-0.015772089 0.0055123661 0.01466915 6634248
-0.015154898 0.0055452213 0.013894051 6436362
-0.01453431 0.0055768285 0.013148397 5513745
-0.013907731 0.0056066997 0.012443721 5118228
-0.013292171 0.0056382511 0.011699408 5250067
-0.012678988 0.0056697428 0.010956496 6634248
-0.01206819 0.0057011768 0.010214955 6238731
-0.0114595 0.0057324991 0.009476006 5447953
-0.010852918 0.005763717 0.0087395906 5118228
-0.010248415 0.0057948232 0.0080057383 5711631
-0.0096459985 0.005825825 0.0072743893 6700039
-0.0090456605 0.0058567207 0.0065455437 6107148
-0.0084473714 0.0058875084 0.0058192313 5250323
-0.0078511313 0.0059181917 0.0050953925 5184020
-0.0072569326 0.0059487708 0.0043739974 5118228
-0.006664753 0.0059792455 0.0036551058 5382424
-0.0060753971 0.0060097594 0.0029352605 6044718
-0.0055000335 0.0060423091 0.0021673739 6574147
-0.0049267635 0.0060747415 0.0014022887 6970449
-0.0043555871 0.0061070547 0.00063997507 7696233
-0.0037864894 0.0061392505 -0.00011953712 7894128
-0.0032194629 0.0061713289 -0.00087630749 7894128
-0.002654478 0.0062032919 -0.001630336 7894128
-0.0020915419 0.0062351394 -0.0023816228 7894128
-0.0015306398 0.0062668715 -0.0031302273 7894128
-0.0009663105 0.0062975716 -0.0038544536 7894128
-0.00040116906 0.006327698 -0.0045651793 7894128
0.00016049296 0.006357979 -0.0052795112 7894128
0.0007250011 0.0063873623 -0.0059726834 7894128
0.0012956187 0.0064153373 -0.0066326261 7894128
0.0018874928 0.0064394679 -0.00720191 7959665
0.0024777129 0.0064635333 -0.0077696145 7959665
0.0030663088 0.0064875316 -0.0083357692 7959665
0.003653273 0.0065114647 -0.0089003444 7959665
0.0042386204 0.0065353308 -0.0094633698 7828078
0.004822351 0.0065591317 -0.010024846 7432031
0.0054044873 0.0065828655 -0.010584742 6772298
0.0060202628 0.0066010673 -0.011014163 6640196
0.0066368505 0.0066189058 -0.011434972 6574403
0.0072521567 0.0066367071 -0.011854917 6574403
0.0078662112 0.0066544693 -0.012273967 6574403
0.0084789768 0.006672198 -0.012692183 6574403
0.0090904906 0.0066898875 -0.013109505 6574403
0.0097007379 0.0067075435 -0.013525993 6574403
0.010309726 0.0067251604 -0.013941616 6838604
0.011024632 0.0067269523 -0.013983876 6705988
0.011774309 0.0067236312 -0.013905525 6705989
0.012524277 0.0067203082 -0.013827115 6313035
0.013274543 0.0067169834 -0.013748705 5986132
0.01402384 0.0067138374 -0.013674498 6315870
0.014733776 0.0067163538 -0.013733864 6513506
0.015443496 0.0067188703 -0.0137932 6513507
0.016153023 0.0067213848 -0.013852537 6447714
0.016862333 0.0067238994 -0.013911843 6513507
0.017571427 0.0067264121 -0.01397112 6513507
0.01828032 0.0067289248 -0.014030397 6579300
0.018989012 0.0067314357 -0.014089644 6645093
0.019697487 0.0067339465 -0.014148861 6645093
0.020410329 0.0067358334 -0.014193386 6579300
0.021296903 0.0067141671 -0.013682276 6579300
0.022185713 0.0066924468 -0.013169885 6645093
0.023079664 0.0066702887 -0.012647122 6513507
0.023981541 0.0066473242 -0.012105376 5987163
0.024885848 0.0066242982 -0.011562169 4473924
0.025792569 0.0066012107 -0.011017531 3026478
0.026701733 0.0065780599 -0.010471404 3618615
0.027602568 0.006556252 -0.0099569261 1973790
0.028481603 0.0065375064 -0.0095147192 3158064
0.029362544 0.0065187197 -0.0090715289 5790040
0.030245408 0.006499894 -0.0086273849 6645092
0.031175137 0.0064753015 -0.0080472529 6381920
0.032124311 0.006448511 -0.007415235 6250591
0.033076435 0.0064216368 -0.0067812502 6250335
0.034847423 0.0062924176 -0.0037328601 6118747
0.036878467 0.0061321482 4.7981739e-05 6051408
-0.023595169 0.0054188427 0.036159426 5851969
-0.023437425 0.0055665374 0.032520384 6574403
-0.0232822 0.0057118777 0.028939307 6574403
-0.022955596 0.0058167633 0.026354998 6574403
-0.022601582 0.0059136637 0.023967445 6574403
-0.022047445 0.0059656203 0.022687256 6574403
-0.021400794 0.0059968624 0.021917492 6574403
-0.020755343 0.0060277693 0.021155953 6574403
-0.02011212 0.00605857 0.020397067 6574403
-0.019471124 0.0060892627 0.019640803 6574403
-0.018836163 0.0061206371 0.018867791 6574403
-0.018207423 0.0061527081 0.018077552 6574403
-0.017580964 0.0061846655 0.017290175 6177334
-0.016956761 0.0062165055 0.016505629 5515040
-0.016334809 0.006248232 0.015723944 5447698
-0.015715107 0.0062798448 0.01494503 6634248
-0.01509501 0.0063108336 0.014181495 7095556
-0.014458492 0.0063381176 0.013509214 5777167
-0.013823956 0.0063653197 0.012838989 5250067
-0.013206221 0.0063952506 0.012101501 5184276
-0.01259236 0.0064254105 0.01135838 5513745
-0.011980616 0.0064554662 0.010617852 5975054
-0.011370994 0.0064854193 0.0098798275 6106892
-0.010763466 0.0065152664 0.0091443956 5315859
-0.010158293 0.0065450612 0.0084103048 5118484
-0.009555459 0.0065748002 0.0076775551 5711376
-0.0089547038 0.0066044368 0.0069473386 6304523
-0.0083559975 0.006633969 0.0062196553 6238731
-0.007759355 0.0066634044 0.0054944158 5382165
-0.007164754 0.0066927373 0.0047716796 5316378
-0.0065721795 0.0067219697 0.0040514171 5581346
-0.005982548 0.0067512598 0.0033296943 6309434
-0.0054068118 0.0067824833 0.0025603771 6574403
-0.0048331767 0.0068135932 0.0017938614 7168086
-0.0042616278 0.0068445895 0.0010301471 7828078
-0.0036921799 0.006875474 0.00026917458 7894128
-0.0031247884 0.0069062449 -0.00048899651 7894128
-0.0025543869 0.0069360677 -0.0012238324 7893871
-0.0019828975 0.0069652814 -0.0019436181 7893871
-0.0014133975 0.0069943946 -0.0026609302 7893871
-0.00084585696 0.0070234071 -0.0033757687 7828078
-0.00028348714 0.0070528351 -0.0041008592 7894128
0.00027708709 0.0070821289 -0.0048226416 7894128
0.00084204227 0.0071103238 -0.0055173635 7894128
0.0014050826 0.0071384255 -0.0062097311 7894128
0.0019662306 0.0071664322 -0.0068998039 7894128
0.0025255084 0.007194344 -0.0075875223 7894128
0.0030836165 0.0072220527 -0.0082702637 7893871
0.0036706626 0.0072449744 -0.0088350177 7762027
0.0042560697 0.0072678309 -0.009398222 7366238
0.0048398823 0.0072906259 -0.0099598765 6772298
0.0054513887 0.0073089749 -0.010411978 6640197
0.0060694814 0.0073261056 -0.010834038 6574403
0.0066863 0.0073431991 -0.011255205 6574403
0.0073018298 0.0073602572 -0.011675537 6574403
0.0079160929 0.0073772818 -0.012094975 6574403
0.0085290968 0.0073942672 -0.012513518 6574403
0.0091408193 0.007411221 -0.012931228 6574403
0.0097512826 0.0074281394 -0.013348073 6574403
0.010360487 0.0074450225 -0.013764054 6574403
0.011018686 0.0074547809 -0.014004529 6837833
0.011768326 0.0074516013 -0.013926178 6705988
0.012518257 0.0074484199 -0.013847798 6574919
0.013268478 0.0074452385 -0.013769388 6117202
0.013991557 0.007445829 -0.013783932 6381662
0.014701322 0.0074482355 -0.013843238 6447713
0.015410863 0.0074506421 -0.013902545 6513507
0.016120188 0.0074530505 -0.013961852 6579300
0.016829312 0.0074554551 -0.014021128 6579300
0.017538227 0.0074578598 -0.014080375 6579300
0.018246926 0.0074602645 -0.014139622 6579300
0.018955417 0.0074626673 -0.01419884 6579300
0.019663721 0.0074650701 -0.014258027 6579300
0.020371795 0.0074674729 -0.014317214 6579300
0.02124691 0.0074481852 -0.013841987 6579300
0.022135317 0.0074274056 -0.013329983 6579300
0.02303268 0.0074057132 -0.012795538 6513507
0.023934171 0.0073837433 -0.012254179 6184541
0.024838075 0.0073617138 -0.011711389 5460818
0.025744393 0.0073396247 -0.011167139 2829099
0.026626304 0.0073208418 -0.010704368 3618615
0.027502671 0.0073029604 -0.010263771 3487029
0.02838093 0.0072850399 -0.0098222196 3026478
0.029261097 0.0072670802 -0.0093797147 5921369
0.030143186 0.0072490834 -0.0089362562 6381920
0.031083658 0.0072241575 -0.0083221197 5790039
0.032032058 0.0071985424 -0.0076909661 5658454
0.032983378 0.0071728453 -0.0070578456 5723990
0.033937648 0.0071470719 -0.0064227879 5789782
0.035857528 0.0070063137 -0.0029546022 5855317
0.03831251 0.0068035051 0.0020424426 5262408
-0.02284161 0.0062499493 0.035807073 6574403
-0.022690028 0.0063908584 0.032173663 6574403
-0.022540875 0.0065295268 0.02859807 6574403
-0.022394069 0.0066660047 0.025078982 6574403
-0.02196043 0.0067408569 0.023148894 6574403
-0.021319807 0.0067721084 0.022343069 6574403
-0.02068153 0.0068032444 0.021540195 6574403
-0.020045578 0.0068342686 0.020740241 6574403
-0.019411936 0.0068651792 0.019943208 6574403
-0.018780604 0.006895978 0.019149065 6574403
-0.018151566 0.0069266632 0.018357813 6574403
-0.017524801 0.0069572385 0.017569423 6507840
-0.016900301 0.006987704 0.016783863 5780266
-0.016278058 0.0070180595 0.016001165 5184278
-0.015658058 0.0070483051 0.015221268 6041101
-0.015019469 0.0070745684 0.01454407 6832134
-0.014382541 0.0071006846 0.013870627 6370826
-0.013747588 0.0071267206 0.0131993 6304779
-0.013120107 0.0071536712 0.012504369 5975054
-0.012505822 0.0071825441 0.011759847 5250067
-0.01189366 0.0072113182 0.011017919 5315859
