# .PCD v0.7 - Point Cloud Data file format
VERSION 0.7
FIELDS x y z rgb
SIZE 4 4 4 4
TYPE F F F U
COUNT 1 1 1 1
WIDTH 1018
HEIGHT 1
VIEWPOINT 0 0 0 1 0 0 0
POINTS 1018
DATA ascii
-0.0083407313 -0.047856942 0.0060496926 526398
-0.0074260235 -0.047815919 0.0065186024 526142
-0.0065281689 -0.047767613 0.0070707798 591679
-0.0056607425 -0.047706474 0.0077696443 591680
-0.0047911629 -0.047645181 0.0084702373 526402
-0.0039194375 -0.04758374 0.0091725588 592196
-0.0030442029 -0.047522694 0.0098703504 723781
-0.0021704435 -0.047460012 0.010586858 855366
-0.0013016388 -0.04739422 0.01133889 1118538
-0.00044356287 -0.047322828 0.012154937 1315916
0.00036899 -0.047231089 0.013203561 1776207
0.0011714995 -0.04713349 0.014319181 2171473
0.0018903017 -0.046998404 0.015863299 1973840
0.0025634766 -0.046841241 0.017659724 1907535
0.0032119006 -0.0466705 0.019611418 1775948
0.0037876368 -0.046464764 0.02196312 1907784
0.0043171272 -0.046234787 0.024591863 2828867
0.0045378283 -0.045862533 0.02884692 1913158
-0.034699142 -0.047220606 0.001752615 7238008
-0.033331558 -0.047336701 0.00045239925 3028033
-0.0322887 -0.047347534 0.0003310442 3685954
-0.031272873 -0.047349565 0.00030833483 3882559
-0.030291468 -0.047340143 0.00041383505 4013374
-0.029319152 -0.047327545 0.00055491924 3486782
-0.028348833 -0.047314104 0.00070548058 2697275
-0.027365267 -0.047304988 0.00080758333 1841721
-0.026379406 -0.047296524 0.00090235472 1249338
-0.025397435 -0.047286604 0.0010134578 789304
-0.024457425 -0.047261965 0.0012894273 657721
-0.023516908 -0.047237158 0.0015672445 723006
-0.022530451 -0.047228184 0.001667738 723006
-0.021565452 -0.047211468 0.0018549562 591932
-0.020591632 -0.047197659 0.0020096302 526393
-0.019593269 -0.047192488 0.0020675063 526392
-0.018605933 -0.047183242 0.0021710992 657720
-0.017626017 -0.047171149 0.0023065209 657977
-0.016645625 -0.047159053 0.0024420023 658489
-0.015665278 -0.047146752 0.0025797486 1119034
-0.014700577 -0.047128428 0.0027849674 1974076
-0.013736174 -0.047109712 0.002994597 2368830
-0.01277104 -0.047090985 0.0032043457 1974077
-0.011805177 -0.047072243 0.0034142137 1381434
-0.010849729 -0.047049198 0.0036723018 986428
-0.0099338144 -0.047010452 0.0041062832 789054
-0.009016484 -0.046971641 0.0045409203 657725
-0.0080977231 -0.046932776 0.004976213 591678
-0.0071785599 -0.046893448 0.0054166913 591935
-0.0062793642 -0.046845477 0.005953908 526399
-0.0054124296 -0.046783689 0.0066459179 526400
-0.004544273 -0.046721384 0.0073437095 526658
-0.0036739707 -0.046658926 0.0080432296 789574
-0.0028015077 -0.046596315 0.0087444782 1183819
-0.0019265339 -0.0465337 0.0094457269 1381709
-0.0010822117 -0.046457101 0.010303617 1842510
-0.00026400387 -0.046368096 0.011300445 2763600
0.00055710226 -0.046278786 0.01230067 3552850
0.0013682768 -0.046183627 0.013366401 3881810
0.0021021664 -0.046053085 0.014828444 3421521
0.0027980059 -0.045903478 0.01650399 3092048
0.0034584329 -0.045735467 0.018385649 2434126
0.0040753931 -0.045544945 0.020519435 1973579
0.0046491995 -0.045331437 0.022910655 3026759
0.0051251426 -0.045069337 0.025846064 2960959
-0.035368085 -0.046321291 0.00051265955 5264733
-0.034282714 -0.04634624 0.00023877621 3685699
-0.033238828 -0.046357691 0.00011307001 3882818
-0.032229856 -0.046357576 0.00011432171 4013887
-0.031244755 -0.046349399 0.0002040863 3552828
-0.03026925 -0.04633785 0.00033086538 2894394
-0.029296219 -0.046325292 0.00046873093 1973303
-0.028314084 -0.046315707 0.00057393312 1249589
-0.027321562 -0.04630959 0.00064110756 920884
-0.026328802 -0.046303477 0.00070822239 723767
-0.025336191 -0.046297222 0.00077688694 657724
-0.024359182 -0.046285354 0.00090718269 723773
-0.023370415 -0.046277508 0.00099331141 657981
-0.022380352 -0.04627002 0.0010755062 526650
-0.021385193 -0.046264268 0.0011386275 460858
-0.020384699 -0.046260383 0.0011813045 395065
-0.019387111 -0.046255372 0.0012363195 592185
-0.018396258 -0.046247791 0.0013195276 789818
-0.017417774 -0.046235494 0.0014545321 1250619
-0.016438901 -0.046223156 0.0015899539 1908798
-0.015460253 -0.04621055 0.0017283559 2236988
-0.014487579 -0.046195477 0.0018938184 2105402
-0.013524324 -0.04617656 0.002101481 2368318
-0.012560353 -0.046157628 0.0023093224 2039614
-0.011595652 -0.046138685 0.002517283 986684
-0.010662094 -0.046107214 0.0028627515 789565
-0.0097414106 -0.046070147 0.0032696724 723518
-0.0088278055 -0.046029665 0.0037140846 657727
-0.0079127699 -0.045989119 0.0041592121 591935
-0.0070006102 -0.045946758 0.0046242476 526143
-0.006112203 -0.045893986 0.0052035451 526400
-0.0052364916 -0.04583513 0.0058496594 723779
-0.0043633729 -0.045774221 0.0065183043 986695
-0.0034882128 -0.045713164 0.0071886182 1315659
-0.002610974 -0.045651961 0.0078604817 1775951
-0.0017461106 -0.045584444 0.0086016655 2631504
-0.00091799349 -0.045499995 0.0095287561 3684688
-9.4883144e-05 -0.045411915 0.010495663 4408654
0.00073102862 -0.04532354 0.011465847 4671565
0.0015582666 -0.045234207 0.012446523 4737102
0.0022967607 -0.045103811 0.013877988 4539725
0.0030045062 -0.044957303 0.01548636 4671310
0.0037039295 -0.044804391 0.017165005 3816271
0.004324846 -0.044612832 0.019267917 2763341
0.0049408898 -0.044415526 0.02143389 3092297
0.005460836 -0.044169862 0.024130762 3618883
0.0057755262 -0.043823205 0.027936339 3289664
-0.037576884 -0.045248754 0.0011855364 5067356
-0.036347076 -0.04532161 0.00040125847 3423042
-0.035253018 -0.045349866 9.7095966e-05 3948866
-0.034217432 -0.045358755 1.4305115e-06 3948351
-0.033208564 -0.045358669 2.3245811e-06 3684413
-0.032214582 -0.045353491 5.8054924e-05 3025977
-0.031224996 -0.045346737 0.00013077259 2170679
-0.030247644 -0.045335643 0.0002502203 1315636
-0.029274985 -0.045322757 0.00038892031 986675
-0.028284565 -0.045315947 0.00046223402 789302
-0.027283445 -0.045312822 0.00049585104 920637
-0.026263073 -0.045316521 0.00045603514 723518
-0.025212079 -0.045331255 0.00029742718 591935
-0.024177656 -0.045340214 0.00020098686 526137
-0.023183212 -0.045334749 0.00025981665 395063
-0.0221944 -0.045327138 0.00034177303 460600
-0.021199286 -0.045321744 0.00039982796 526392
-0.02019161 -0.045320947 0.00040841103 592183
-0.019183904 -0.04532015 0.00041699409 1316411
-0.01818724 -0.045315173 0.00047057867 1908541
-0.017210528 -0.045302536 0.00060659647 1974332
-0.016233787 -0.045289721 0.00074452162 2237246
-0.015256584 -0.045276899 0.00088256598 2500161
-0.014278889 -0.045264076 0.0010206103 1645116
-0.01331535 -0.04524551 0.0012204647 1249851
-0.012352809 -0.045226261 0.0014276505 920637
-0.011421099 -0.045194458 0.0017700195 526141
-0.010489523 -0.045162112 0.0021182299 591677
-0.0095567703 -0.045129724 0.0024668574 789055
-0.0086437166 -0.045088813 0.0029072762 526655
-0.0077298284 -0.045047581 0.0033510923 461120
-0.0068400651 -0.044995718 0.003909409 723780
-0.0059526265 -0.04494204 0.0044872165 1118279
-0.0050660968 -0.044887107 0.0050785542 1447244
-0.004193984 -0.044825159 0.0057454109 2105167
-0.0033198074 -0.044763062 0.006413877 2631761
-0.0024538934 -0.044696372 0.0071317554 3026767
-0.0016082525 -0.044619735 0.0079567432 3947856
-0.00077374279 -0.044536922 0.0088481903 4474190
4.9799681e-05 -0.044447839 0.0098071694 4539726
0.00087495148 -0.044357926 0.01077503 4737103
0.0017029196 -0.044267714 0.011746168 4934734
0.0024934486 -0.044158921 0.01291728 4802893
0.0032017231 -0.044010539 0.014514565 4868685
0.0039117187 -0.043860298 0.016131878 4802892
0.004577063 -0.043686517 0.01800257 4408394
0.0051945001 -0.043487038 0.020149887 4144969
0.0057980418 -0.043277286 0.02240783 4079430
0.0062737465 -0.043002389 0.025367022 3552834
0.006050989 -0.042384572 0.032017648 1588816
-0.038487673 -0.044271208 0.00082969666 2895936
-0.037359133 -0.044311024 0.00040924549 3816768
-0.036268696 -0.044338413 0.00012004375 3948094
-0.035234988 -0.044346757 3.194809e-05 3750715
-0.034219056 -0.044349086 7.3313713e-06 3092025
-0.033199817 -0.044352591 -2.9683113e-05 2302263
-0.03221041 -0.04434574 4.2676926e-05 1512759
-0.031225786 -0.044337116 0.00013375282 1052467
-0.030241668 -0.044328198 0.00022792816 723763
-0.029212564 -0.044335172 0.00015425682 854844
-0.028192654 -0.044338945 0.00011444092 854849
-0.027172908 -0.044342708 7.468462e-05 723518
-0.026117906 -0.044359338 -0.00010091066 526394
-0.025053814 -0.044379517 -0.00031399727 460343
-0.024026141 -0.044386566 -0.00038844347 460344
-0.022999376 -0.044393379 -0.00046038628 525879
-0.022008926 -0.044386718 -0.0003900528 723512
-0.021013871 -0.0443817 -0.00033706427 1052985
-0.020007506 -0.044380888 -0.0003284812 1316408
-0.019001126 -0.044380076 -0.00031989813 1908282
-0.017998472 -0.044377819 -0.00029605627 1974074
-0.017015949 -0.044367727 -0.00018948317 2237502
-0.016035289 -0.04435676 -7.3671341e-05 1645115
-0.015054211 -0.044345785 4.2200089e-05 1184316
-0.014077246 -0.044333022 0.00017696619 789565
-0.013107017 -0.044317376 0.00034219027 723262
-0.012177169 -0.044285242 0.00068151951 526143
-0.011247858 -0.044252396 0.0010283589 526400
-0.0103174 -0.044219505 0.0013756752 591680
-0.0093857795 -0.044186581 0.0017233491 723522
-0.0084601343 -0.044150654 0.0021027327 855107
-0.0075646043 -0.044101555 0.0026211739 1052744
-0.0066799372 -0.044047087 0.0031963587 1447245
-0.0057934672 -0.043992504 0.0037727356 2170960
-0.0049051791 -0.04393781 0.0043503046 3092050
-0.0040250495 -0.043878686 0.0049746037 3947857
-0.0031580105 -0.043812882 0.0056694746 4277072
-0.0023155883 -0.043735161 0.006490171 4408399
-0.0014707074 -0.043657217 0.0073132515 4408398
-0.00063025206 -0.043575969 0.0081712008 4342351
0.00019290298 -0.043485526 0.009126246 4013136
0.0010185391 -0.043394655 0.010085821 3881299
0.0018457621 -0.043302912 0.011054575 3947345
0.0026442781 -0.043196283 0.012180567 4144977
0.0034006983 -0.043068111 0.013534009 4539729
0.0041100383 -0.042915471 0.015145838 4605518
0.0048142225 -0.042757623 0.016812682 4671309
0.0054478571 -0.042563058 0.018867195 4342346
0.006069459 -0.042359095 0.021021008 4342599
0.0066088066 -0.042111162 0.023639083 4079428
0.006975539 -0.041773476 0.027204931 3421248
-0.04073678 -0.043183681 0.0016268492 5001569
-0.039535433 -0.043247987 0.00096046925 3159103
-0.038430467 -0.043280166 0.00062704086 3882304
-0.037331104 -0.043310829 0.0003092885 4013629
-0.036277756 -0.043325957 0.00015252829 3223607
-0.035248637 -0.043332838 8.1241131e-05 2368309
-0.034226164 -0.043337472 3.3199787e-05 1578807
-0.033214152 -0.043338481 2.2768974e-05 1052469
-0.032212391 -0.043335859 4.9948692e-05 920373
-0.031215757 -0.043331359 9.6559525e-05 789049
-0.030169159 -0.043344807 -4.2796135e-05 854591
-0.029110849 -0.043362681 -0.00022798777 657469
-0.028081506 -0.043370221 -0.00030612946 591931
-0.027022421 -0.043388806 -0.00049871206 460597
-0.025958747 -0.04340934 -0.00071150064 460598
-0.024900898 -0.043427993 -0.00090479851 460343
-0.023874953 -0.043434925 -0.0009766221 591672
-0.022849292 -0.043441854 -0.0010484457 592182
-0.021823943 -0.043448757 -0.0011199713 920888
-0.020828933 -0.043444127 -0.0010719895 1710909
-0.019826278 -0.043442387 -0.0010539293 2236733
-0.018825099 -0.04344004 -0.0010296106 1907514
-0.01782386 -0.043437686 -0.0010052323 1973822
-0.016838789 -0.043428913 -0.00091433525 1513533
-0.015859336 -0.043417774 -0.00079888105 855355
-0.01487951 -0.043406621 -0.00068330765 657468
-0.013899267 -0.043395467 -0.00056773424 723261
-0.012956738 -0.043368794 -0.0002913475 526141
-0.012026995 -0.043336473 4.3570995e-05 460861
-0.011096865 -0.043303818 0.00038194656 526399
-0.010165602 -0.043271117 0.00072079897 657473
-0.0092332214 -0.043238383 0.001060009 789572
-0.0083153397 -0.043198992 0.0014681816 1249863
-0.0074263364 -0.043146666 0.0020104051 1776205
-0.0065383911 -0.043093041 0.0025660992 2499921
-0.0056487173 -0.043039296 0.0031229854 3486800
-0.0047572628 -0.042985458 0.0036808848 4276815
-0.0038640574 -0.042931497 0.004240036 4539981
-0.0030192733 -0.042855151 0.0050311685 4605773
-0.0021776035 -0.04277613 0.0058500171 4671565
-0.0013334826 -0.042696878 0.0066712499 4671566
-0.00048710406 -0.04261731 0.0074957609 4079182
0.00033529848 -0.042525355 0.0084486008 3092304
0.0011604726 -0.042433098 0.0094045997 2631507
0.0019882396 -0.042340443 0.010364711 2697555
0.0027947128 -0.04223612 0.011445761 3092305
0.0035591424 -0.04210994 0.012753248 3421010
0.0043076798 -0.041973881 0.014163136 3552594
0.0050193071 -0.04181749 0.015783727 4079185
0.0057038963 -0.041645024 0.017570853 4276557
0.0063212588 -0.041436229 0.019734442 4408392
0.0069470704 -0.041227758 0.021894693 4276805
0.0074230209 -0.040940091 0.024875581 3816002
0.0075769424 -0.040483665 0.02960521 1781063
-0.04330343 -0.041987404 0.0035009384 7106425
-0.041785583 -0.042159077 0.0017546415 2896191
-0.040628687 -0.042208809 0.0012487769 4079941
-0.039516002 -0.042243872 0.00089210272 4079427
-0.038433909 -0.042268731 0.00063925982 3552572
-0.037368432 -0.042288084 0.00044238567 2565430
-0.036316156 -0.042303029 0.00029033422 1710133
-0.035274863 -0.042314276 0.00017595291 1052469
-0.034248859 -0.042320199 0.00011569262 920630
-0.03321144 -0.042330313 1.2814999e-05 789302
-0.032193467 -0.042333513 -1.9729137e-05 723516
-0.031115025 -0.042358801 -0.00027698278 723261
-0.030057758 -0.042376664 -0.00045865774 591932
-0.028992802 -0.042397603 -0.00067168474 460343
-0.027925611 -0.042419665 -0.00089609623 394549
-0.026862383 -0.042440545 -0.0011084676 460343
-0.025799945 -0.042461414 -0.0013207793 526390
-0.024748921 -0.042478237 -0.0014919043 657974
-0.023724094 -0.042485282 -0.001563549 1316154
-0.02269952 -0.042492326 -0.0016351938 1053239
-0.021672562 -0.042500395 -0.0017172694 789560
-0.020652622 -0.042505838 -0.0017726421 1447738
-0.01964958 -0.042504713 -0.001761198 2302783
-0.018649668 -0.042502329 -0.001736939 1644859
-0.01764968 -0.042499937 -0.0017126203 855354
-0.016662061 -0.042492542 -0.0016373992 592443
-0.01568386 -0.042481214 -0.0015221834 657725
-0.014708132 -0.042468712 -0.0013949871 789055
-0.013767466 -0.042441592 -0.0011191368 526144
-0.012825891 -0.042414445 -0.00084298849 460863
-0.011890769 -0.042384181 -0.0005351305 723520
-0.010961518 -0.042350985 -0.00019747019 920387
-0.010031134 -0.042317744 0.00014066696 1052232
-0.0091167539 -0.04227715 0.00055360794 1315657
-0.0082198679 -0.042228375 0.001049757 1775950
-0.0073257387 -0.042177618 0.0015660524 2236238
-0.0064384192 -0.042123072 0.0021209121 3157841
-0.0055493414 -0.042068414 0.0026769042 4079437
-0.0046584979 -0.042013649 0.0032339692 4408140
-0.0037682578 -0.041957721 0.0038028955 4473936
-0.0028991103 -0.041891318 0.0044783354 4605775
-0.0020489991 -0.041815121 0.0052534342 4474190
-0.0011965707 -0.041738708 0.0060307384 4539983
-0.00035074353 -0.041657932 0.0068523884 4079439
0.00047736615 -0.041567478 0.0077725053 3158352
0.0013018027 -0.041473716 0.0087262392 2237010
0.0021289811 -0.041379638 0.0096832514 2368338
0.0029453561 -0.041278705 0.010709941 2565713
0.0037085414 -0.041150209 0.012017012 2697297
0.0044758171 -0.041021418 0.013327122 2828882
0.005216673 -0.040877249 0.014793634 2960466
0.0059107319 -0.040707167 0.016523719 3486800
0.0065757185 -0.040519346 0.018434286 4276556
0.0071972981 -0.040306021 0.020604253 3552840
0.0077617913 -0.040059477 0.023112118 3355461
0.008177653 -0.039731476 0.026448607 2368063
-0.044144154 -0.04103202 0.0029012561 4672602
-0.042920724 -0.041104324 0.0021790266 3554116
-0.041751698 -0.041158602 0.0016368628 4343111
-0.040646762 -0.041191127 0.0013119578 4013635
-0.039571106 -0.041213743 0.0010860562 3092026
-0.038492441 -0.041237719 0.00084656477 2105143
-0.037416711 -0.041260947 0.00061452389 1249592
-0.036355481 -0.041279279 0.00043141842 789301
-0.035290286 -0.041299276 0.00023168325 723510
-0.034230486 -0.041317575 4.8875809e-05 657978
-0.033156842 -0.041341189 -0.00018697977 591931
-0.032068402 -0.041370563 -0.00048041344 591676
-0.030976951 -0.041401457 -0.00078898668 460599
-0.029900432 -0.041427184 -0.0010460019 460598
-0.028826118 -0.041452434 -0.0012981892 526135
-0.027763307 -0.041473664 -0.0015102625 460854
-0.026702285 -0.041494507 -0.0017184615 592438
-0.025641486 -0.041515552 -0.0019286871 1118263
-0.024597272 -0.041530475 -0.0020777583 1578807
-0.023571864 -0.041538287 -0.0021557808 2105660
-0.022540659 -0.041548479 -0.0022575855 1513529
-0.021509826 -0.041558672 -0.0023593903 921145
-0.020494223 -0.041562956 -0.0024021864 921145
-0.019484624 -0.041564889 -0.0024214983 921144
-0.018475115 -0.041566815 -0.0024407506 657977
-0.017475948 -0.041564561 -0.00241822 526397
-0.01648581 -0.041558582 -0.0023584962 723520
-0.015514687 -0.041544665 -0.0022194982 855360
-0.014575809 -0.041517135 -0.0019444823 526400
-0.013636008 -0.041489571 -0.0016691685 592192
-0.012695298 -0.041461978 -0.0013935566 723520
-0.011754826 -0.041433856 -0.0011126399 920899
-0.010826454 -0.04140012 -0.00077563524 1183816
-0.0099155605 -0.041358307 -0.0003579855 1447242
-0.0090208352 -0.041308798 0.00013655424 1644364
-0.0081245452 -0.041259192 0.00063204765 1841486
-0.0072266608 -0.041209504 0.0011283755 2631247
-0.0063385963 -0.041154638 0.0016764402 4013393
-0.0054501295 -0.041099068 0.0022315383 4342604
-0.0045598969 -0.041043386 0.0027877092 4408398
-0.0036726072 -0.040985446 0.0033664703 4276815
-0.0027868226 -0.040925853 0.0039617419 4473935
-0.0019361675 -0.040848944 0.0047299862 3947599
-0.0010843575 -0.040771276 0.0055058002 3947855
-0.0002322495 -0.040692434 0.0062933564 4210768
0.00060410798 -0.040604729 0.0071694255 3355725
0.0014232323 -0.040507227 0.0081433654 2368591
0.0022451729 -0.040409382 0.0091207027 2171218
0.0030680075 -0.040310256 0.010110855 2368337
0.0038643628 -0.040196303 0.011249125 2500177
0.0046268478 -0.040063445 0.012576222 2565713
0.0053943619 -0.039930709 0.013902128 2499922
0.0061137676 -0.039771166 0.015495777 3026514
0.006804429 -0.03959398 0.017265677 4342604
0.0074501485 -0.039390292 0.019300282 3947596
0.0080759674 -0.039172407 0.021476686 2565702
0.0085728988 -0.038882595 0.024371624 2499906
0.0087819919 -0.038434356 0.028849006 1452103
-0.046695486 -0.039837074 0.0046734214 4803930
-0.045319349 -0.039961755 0.003450036 3225154
-0.044091642 -0.040036052 0.0027210116 4145734
-0.042911544 -0.040094521 0.0021473169 4342598
-0.041802689 -0.040128484 0.0018140674 3684414
-0.040719196 -0.040153831 0.0015653372 2565688
-0.039636075 -0.040179372 0.0013147593 1710137
-0.038550571 -0.040206101 0.0010524988 1051960
-0.037466258 -0.040232737 0.00079113245 789048
-0.03637445 -0.040262461 0.00049948692 723256
-0.035273388 -0.040295973 0.0001706481 657465
-0.034165204 -0.040332567 -0.00018841028 657723
-0.033036277 -0.040377378 -0.00062811375 591928
-0.031927481 -0.040415231 -0.00099951029 460599
-0.030828208 -0.040449988 -0.0013405681 394805
-0.029732838 -0.040483732 -0.0016716719 526390
-0.028661996 -0.040508535 -0.0019150376 592437
-0.027601391 -0.040529732 -0.0021229982 724277
-0.026541591 -0.040550906 -0.00233078 1645114
-0.025483295 -0.040571779 -0.0025355816 1974073
-0.024437457 -0.040588047 -0.0026952028 1644341
-0.023407087 -0.040598404 -0.0027968287 2039358
-0.022377089 -0.04060876 -0.0028984547 1250106
-0.021347478 -0.040619113 -0.003000021 723515
-0.020336151 -0.040622205 -0.0030303597 657723
-0.019327715 -0.04062416 -0.0030495524 657467
-0.018319339 -0.040626124 -0.0030688047 460605
-0.017311037 -0.040628079 -0.0030879974 460606
-0.016318858 -0.040623344 -0.0030415654 789309
-0.015381753 -0.040595405 -0.0027673841 657725
-0.01444374 -0.040567428 -0.0024929047 657982
-0.013504803 -0.040539425 -0.0022181273 723774
-0.012564957 -0.040511392 -0.0019430518 921152
-0.011624157 -0.040483333 -0.001667738 1315399
-0.010711774 -0.040442452 -0.0012665987 1644107
-0.0098192096 -0.040392213 -0.00077366829 1775436
-0.0089250803 -0.04034188 -0.0002797842 1841485
-0.0080293566 -0.040291466 0.00021487474 1907786
-0.0071320534 -0.040240955 0.00071048737 3355728
-0.0062389374 -0.040187743 0.0012326241 4473931
-0.0053510666 -0.04013126 0.001786828 4605515
-0.0044614524 -0.040074661 0.0023421645 4276560
-0.0035771206 -0.040014677 0.0029307604 4276560
-0.0026919097 -0.039954107 0.0035250783 4408142
-0.0018235296 -0.039884564 0.0042074323 3749967
-0.0009765774 -0.039803632 0.005001545 3552590
-0.00013054162 -0.039720882 0.0058134794 4013647
0.00070934743 -0.039633729 0.0066686273 3487054
0.0015397966 -0.039540455 0.0075838566 2631502
0.0023611262 -0.039441049 0.008559227 2105169
0.0031830594 -0.039340187 0.0095489025 2302546
0.0040031224 -0.03923659 0.0105654 2433873
0.004785113 -0.039111853 0.011789322 2499921
0.0055504665 -0.038976349 0.013118923 2500177
0.0063145906 -0.038837731 0.014479041 2894674
0.0070061386 -0.038658768 0.016235054 4144974
0.0077004433 -0.038477924 0.018009484 4144972
0.008327201 -0.038257848 0.0201689 2697547
0.0089092627 -0.038009662 0.022604108 3026246
0.0093798116 -0.03769644 0.025677502 1776192
-0.047943026 -0.038739141 0.0054485798 2896190
-0.046584398 -0.038858604 0.0042967796 3685445
-0.045338407 -0.038939681 0.0035150647 4276805
-0.044133618 -0.039007097 0.0028650761 4144963
-0.04300794 -0.03904701 0.0024802685 3486781
-0.041909039 -0.039077766 0.0021837354 2302522
-0.040800437 -0.039112434 0.0018494725 1184057
-0.039710924 -0.039140571 0.0015782118 920634
-0.038587466 -0.039181538 0.0011832118 854328
-0.037467703 -0.039221667 0.00079631805 723000
-0.036321476 -0.039272171 0.00030940771 526135
-0.035184443 -0.039319884 -0.00015062094 591672
-0.034027025 -0.039375905 -0.00069075823 526133
-0.032893524 -0.039423589 -0.0011504889 526134
-0.031765506 -0.03946982 -0.0015962124 460599
-0.030670941 -0.039503794 -0.0019237995 592182
-0.029577643 -0.039537735 -0.002251029 1118264
-0.028500631 -0.03956579 -0.0025215149 1645112
-0.027442634 -0.039586764 -0.0027237535 1513783
-0.026385397 -0.03960773 -0.0029258728 1909047
-0.025328934 -0.039628673 -0.0031278133 2368572
-0.024286538 -0.039644279 -0.0032782555 1644346
-0.023244694 -0.039659876 -0.003428638 1118265
-0.022213891 -0.039671201 -0.0035378337 658235
-0.021185815 -0.03968158 -0.0036379099 461116
-0.020178437 -0.039683573 -0.0036571026 591933
-0.019171134 -0.039685562 -0.0036762953 591935
-0.018171892 -0.039684214 -0.0036633015 460863
-0.017181665 -0.039679047 -0.003613472 526653
-0.016196534 -0.039671633 -0.003542006 789053
-0.015262276 -0.039642375 -0.0032598972 789052
-0.014324874 -0.039614022 -0.0029865503 920637
-0.013386548 -0.039585646 -0.002712965 1118273
-0.012447298 -0.039557241 -0.0024390817 1315652
-0.011531681 -0.039517984 -0.0020605922 1578056
-0.010627985 -0.039472833 -0.0016252995 1709642
-0.0097251832 -0.039426573 -0.0011792779 1710154
-0.0088294595 -0.039376404 -0.0006955862 1776715
-0.007934317 -0.039325174 -0.00020164251 2566475
-0.0070376098 -0.039273843 0.00029325485 4013644
-0.0061394423 -0.039222367 0.00078958273 4408138
-0.0052521676 -0.039164975 0.0013428926 4539471
-0.0043645278 -0.039106827 0.0019035339 3947088
-0.0034817606 -0.039045416 0.0024956465 4276560
-0.0025971383 -0.038983867 0.0030890703 4079183
-0.0017163903 -0.038919423 0.0037103891 3355470
-0.00087424368 -0.038835168 0.0045227408 3355213
-2.899766e-05 -0.038750984 0.0053343773 3816015
0.00081274658 -0.038663629 0.0061765909 3618638
0.0016439632 -0.038569525 0.0070838928 2763085
0.0024768561 -0.038474623 0.0079988837 2236496
0.0032978877 -0.038372032 0.0089880228 2236754
0.0041173324 -0.038266804 0.010002553 2368081
0.0049396977 -0.038161203 0.01102072 2433872
0.0057076067 -0.038025349 0.012330532 2565713
0.006475836 -0.037887186 0.013662636 2829137
0.0072122663 -0.037729621 0.01518178 4144975
0.0079007968 -0.037543502 0.016976237 4671565
0.0085790828 -0.037348352 0.018857777 3026509
0.0092053413 -0.037121158 0.021048248 3026506
0.0097144768 -0.036825165 0.023902059 2039363
0.01003623 -0.036419351 0.027814686 1254727
-0.05102326 -0.037353966 0.0089192986 6974579
-0.049312294 -0.037596371 0.0066221356 2566712
-0.047937572 -0.037722144 0.0054302216 3619137
-0.046673834 -0.037809744 0.0046000481 4276804
-0.0454624 -0.037879597 0.0039380789 3947328
-0.044283271 -0.037938613 0.0033788085 3092027
-0.043132797 -0.037987918 0.0029115677 1776185
-0.042008176 -0.038028363 0.0025283098 1183545
-0.040885314 -0.038068667 0.0021463633 920634
-0.039726153 -0.038122963 0.0016317964 657720
-0.038566828 -0.038178019 0.0011100769 525879
-0.037377536 -0.038245052 0.0004748106 591671
-0.036218703 -0.038301419 -5.9366226e-05 460599
-0.035041884 -0.038365379 -0.00066548586 460341
-0.033877999 -0.038425215 -0.0012325048 591669
-0.032739908 -0.038475875 -0.0017126203 591671
-0.031608924 -0.038524453 -0.0021729469 789048
-0.030503422 -0.03856371 -0.0025449991 1249591
-0.029421732 -0.038594108 -0.0028330684 1908027
-0.028345615 -0.038622715 -0.0031041503 1513780
-0.027286232 -0.038645029 -0.0033156276 2171710
-0.026230186 -0.038666308 -0.0035172701 1776439
-0.02517952 -0.038685698 -0.0037010312 1315639
-0.024138242 -0.038701542 -0.0038511753 854842
-0.0230975 -0.038717382 -0.0040012598 591676
-0.022057325 -0.03873321 -0.0041512847 526141
-0.021027327 -0.038745031 -0.0042632818 591935
-0.02003324 -0.038741954 -0.0042341352 591936
-0.019044191 -0.038736708 -0.0041844249 591936
-0.018054947 -0.038731471 -0.0041347742 657983
-0.017065391 -0.038726285 -0.00408566 657979
-0.01607421 -0.038721733 -0.0040425062 1051965
-0.015140921 -0.03869193 -0.0037600994 1052478
-0.014206514 -0.038662169 -0.0034780502 1249859
-0.013268963 -0.03863335 -0.0032049417 1381445
-0.012359664 -0.038591519 -0.0028085113 1513031
-0.011456758 -0.038546182 -0.002378881 1709895
-0.010552466 -0.038500778 -0.001948595 1841224
-0.0096500814 -0.038453795 -0.0015033484 1775945
-0.0087463111 -0.038406704 -0.0010570884 2105418
-0.0078410953 -0.038359541 -0.00061017275 3750221
-0.0069432855 -0.038308177 -0.00012338161 4473928
-0.006045565 -0.038255945 0.00037157536 4539466
-0.0051534176 -0.038200226 0.0008996129 4210512
-0.0042687431 -0.038140036 0.0014700294 3684175
-0.0033859536 -0.038077936 0.002058506 4211279
-0.0024902076 -0.038021099 0.0025971532 3947856
-0.0016202703 -0.03795068 0.0032644868 3289679
-0.00076205283 -0.037873283 0.0039979219 3289678
7.9080462e-05 -0.037786067 0.0048244596 3881807
0.00092078 -0.037697632 0.0056625009 3684688
0.001751177 -0.037601948 0.0065692663 2894672
0.0025842562 -0.037505962 0.0074788928 2236752
0.0034135729 -0.037406333 0.0084230304 2302290
0.0042313188 -0.037298933 0.0094408393 2302801
0.0050530806 -0.037191708 0.010456979 2302800
0.0058643222 -0.037076972 0.011544287 2499920
0.0066318586 -0.036936786 0.012872756 2829137
0.0073874071 -0.036787558 0.014286935 3947600
0.0081072971 -0.036616154 0.015911281 4605773
0.0087977797 -0.036425363 0.017719328 3618638
0.0094571412 -0.036213711 0.019725084 3223628
0.010060467 -0.035966635 0.022066534 2631239
0.010523289 -0.035635363 0.025205851 1776192
0.010241747 -0.034872808 0.032432318 996942
-0.052477747 -0.036176279 0.010340154 4803669
-0.050848067 -0.036391385 0.008335948 2435125
-0.049389333 -0.036547627 0.0068801641 3158589
-0.048086807 -0.036649264 0.0059331656 3947843
-0.046842664 -0.036730908 0.0051724911 3487037
-0.045614183 -0.03680782 0.0044558644 2368060
-0.044422045 -0.03687229 0.0038551688 1380922
-0.043260708 -0.036926147 0.0033533573 986170
-0.042071477 -0.036991086 0.0027483106 789048
-0.040891379 -0.037053414 0.0021675825 526135
-0.039672866 -0.037131049 0.0014442205 395061
-0.038464069 -0.037205979 0.00074607134 394807
-0.037265435 -0.037277985 7.5161457e-05 525878
-0.036063373 -0.037352242 -0.00061672926 460598
-0.034886822 -0.037417576 -0.0012254715 592182
-0.033726856 -0.037477303 -0.0017819405 723509
-0.032590792 -0.037528429 -0.0022583008 921144
-0.031459242 -0.037578449 -0.0027243495 987191
-0.030349702 -0.037620373 -0.0031149983 1579574
-0.02927196 -0.037650127 -0.0033922195 1974072
-0.028197005 -0.037679158 -0.0036627054 2105659
-0.027130172 -0.037705291 -0.0039061904 1447738
-0.026075289 -0.037726894 -0.0041074753 986681
-0.025030419 -0.037744671 -0.0042731166 789051
-0.023990229 -0.037760753 -0.0044229627 526140
-0.022950605 -0.037776828 -0.0045727491 526398
-0.021930933 -0.037784744 -0.0046464801 658244
-0.020923868 -0.037787423 -0.0046714544 724294
-0.019918784 -0.037789304 -0.0046889782 723779
-0.018926635 -0.037785657 -0.0046550035 657726
-0.017938226 -0.037780333 -0.0046054125 723769
-0.016948804 -0.037775379 -0.0045592189 920890
-0.015958756 -0.037770618 -0.004514873 1249855
-0.015028566 -0.03773931 -0.0042231679 1315648
-0.014101982 -0.037705928 -0.0039121509 1316162
-0.013185441 -0.037667528 -0.0035543442 1381956
-0.012284383 -0.037621547 -0.003125906 1513287
-0.011381924 -0.037575491 -0.0026968122 1841224
-0.010478079 -0.037529361 -0.0022670031 1841224
-0.0095750391 -0.037482142 -0.0018270612 1776201
-0.0086717457 -0.037434306 -0.0013813376 2632010
-0.0077669919 -0.037386391 -0.00093489885 4079434
-0.0068607926 -0.037338406 -0.00048780441 4473928
-0.005953148 -0.037290338 -3.9935112e-05 4473930
-0.0050548315 -0.037237 0.00045704842 3552334
-0.0041697621 -0.037176352 0.0010221004 3421006
-0.0032772124 -0.037118368 0.0015623569 4211023
-0.0023895279 -0.03705702 0.0021339655 3684431
-0.001519084 -0.036986068 0.0027950406 3092557
-0.00065973401 -0.036908343 0.003519237 3289677
0.00018817931 -0.036823504 0.0043097138 3816271
0.0010285228 -0.036733344 0.0051497817 3750224
0.001866281 -0.03664029 0.0060167909 3026000
0.0026991367 -0.03654306 0.0069227219 2236753
0.003534779 -0.03644558 0.0078309774 2236754
0.0043508559 -0.036336023 0.0088517666 2237266
0.0051662326 -0.036224123 0.009894371 2237264
0.0059903264 -0.03611489 0.01091212 2434384
0.0067874268 -0.035989001 0.01208508 2828881
0.0075477287 -0.035840601 0.013467789 4013393
0.008300297 -0.035685167 0.014916003 4737357
0.0090046078 -0.035499848 0.01664269 3947598
0.0096970722 -0.035304338 0.018464327 3486798
0.010316581 -0.03506355 0.020707846 3026505
0.01087182 -0.034781158 0.023338974 2565701
0.011286072 -0.034411415 0.026784003 2171198
-0.054491609 -0.034794457 0.013584554 4474195
-0.052517772 -0.03513407 0.010472596 2566458
-0.05092591 -0.035338953 0.0085951686 2960955
-0.049556091 -0.035465151 0.0074387789 3881796
-0.048268676 -0.035562571 0.0065460801 3025985
-0.046989217 -0.035658244 0.005669415 1973308
-0.045755669 -0.035737995 0.0049386024 1117756
-0.044532835 -0.035814725 0.0042355061 920380
-0.043256849 -0.035912447 0.0033400655 657721
-0.04202649 -0.035994086 0.0025919676 525879
-0.040796712 -0.036076531 0.0018364787 394807
-0.039563775 -0.036161244 0.0010602474 460598
-0.03832446 -0.0362495 0.0002515316 526134
-0.037115201 -0.036327198 -0.00046044588 526389
-0.035914361 -0.036402598 -0.0011513829 592182
-0.034724146 -0.036474802 -0.0018129945 1118520
-0.033580631 -0.036529422 -0.0023134947 1381686
-0.032443464 -0.036582232 -0.0027974248 1448248
-0.031310663 -0.036633983 -0.0032716393 1250357
-0.030210882 -0.036673069 -0.0036298037 1907771
-0.029128671 -0.03670552 -0.0039271712 1447223
-0.028048679 -0.036737498 -0.0042201877 1053239
-0.026975915 -0.036766931 -0.0044898987 789562
-0.025921226 -0.036789257 -0.0046944618 723005
-0.024881601 -0.036805581 -0.0048440695 591933
-0.023856595 -0.036815971 -0.0049392581 526913
-0.022849515 -0.036818892 -0.0049660206 790346
-0.021842539 -0.036821812 -0.0049927831 1184846
-0.020836145 -0.036824524 -0.0050176382 1052742
-0.019831672 -0.036826435 -0.005035162 657721
-0.018827274 -0.03682835 -0.0050526857 789304
-0.017822936 -0.036830261 -0.0050702095 986680
-0.016862616 -0.036812693 -0.0049092174 1184059
-0.015903637 -0.036794271 -0.004740417 1381183
-0.014963672 -0.036767017 -0.0044906735 1446978
-0.014040098 -0.036731925 -0.0041691065 1315905
-0.013119906 -0.036694761 -0.0038285851 1381954
-0.012209177 -0.036652677 -0.0034429431 1578820
-0.01130718 -0.036605902 -0.0030143261 1841223
-0.010403782 -0.036559056 -0.0025850534 1841224
-0.0095000863 -0.036511622 -0.0021504164 2105160
-0.0085972697 -0.036463033 -0.0017051697 3421258
-0.0076929778 -0.036414374 -0.0012592673 4408392
-0.0067872554 -0.036365632 -0.00081264973 4539719
-0.0058800727 -0.036316816 -0.00036531687 4276556
-0.004973717 -0.036266807 9.2923641e-05 3025996
-0.0040796697 -0.036209896 0.00061440468 3289422
-0.0031943172 -0.036147725 0.0011841059 4079438
-0.0023071617 -0.036085423 0.0017549992 3618639
-0.001433827 -0.036015082 0.0023995638 2960974
-0.00056747347 -0.035939999 0.0030875802 3355469
0.00029744208 -0.035862885 0.0037941933 4013390
0.0011384711 -0.035772048 0.0046265721 3750224
0.0019824877 -0.035681203 0.0054590106 2894928
0.0028139129 -0.03558211 0.0063670278 2237009
0.0036489069 -0.035483189 0.0072734952 2105682
0.0044774711 -0.035379041 0.0082278252 2237010
0.0052895769 -0.035264097 0.0092810988 2302802
0.0061047003 -0.035148725 0.010338306 2434385
0.0069290772 -0.035036355 0.011367977 2697808
0.0077076033 -0.034896348 0.012650907 3750225
0.008459501 -0.034738757 0.014095008 4803150
0.0092137009 -0.034579508 0.015554249 4539727
0.0099041983 -0.034380712 0.017375886 3421006
0.010571502 -0.034164675 0.019355476 3552588
0.011173151 -0.033906095 0.021724939 3421256
0.011681303 -0.033587277 0.024646401 3487299
0.011796586 -0.033028014 0.029771149 1715780
-0.054885536 -0.033617079 0.014880598 4474194
-0.052798271 -0.034003086 0.011400998 2434617
-0.051248506 -0.034195192 0.0096692443 3092287
-0.049878106 -0.03432297 0.0085174441 2631487
-0.048528105 -0.034444675 0.007420361 1907518
-0.0471991 -0.034559965 0.0063810349 1446972
-0.04582414 -0.034694068 0.0051721931 1052220
-0.044506818 -0.034807891 0.0041461587 723256
-0.043219939 -0.034911461 0.0032125711 526134
-0.041944265 -0.03501201 0.0023061633 723254
-0.040656686 -0.035118446 0.0013467073 658485
-0.039405167 -0.035212155 0.00050199032 525879
-0.038171202 -0.035300165 -0.0002913475 526133
-0.036951184 -0.035383787 -0.0010451674 592437
-0.035755679 -0.035458736 -0.0017207861 1184311
-0.034596875 -0.035519961 -0.0022726655 1842232
-0.033445135 -0.035579134 -0.0028060675 1974329
-0.032305777 -0.035634067 -0.0033012629 1908282
-0.031170234 -0.035688166 -0.0037889481 1644857
-0.030075088 -0.035726372 -0.0041333437 1184312
-0.028992862 -0.035759743 -0.0044341683 855098
-0.027911812 -0.035793077 -0.0047346354 526393
-0.026832342 -0.035826195 -0.005033195 591931
-0.025780231 -0.035848215 -0.0052316785 591933
-0.024773598 -0.035851177 -0.0052583814 592450
-0.023767054 -0.035854146 -0.0052851439 987209
-0.02276063 -0.035857107 -0.0053118467 1382223
-0.021754265 -0.035860077 -0.0053386092 986942
-0.020748511 -0.03586283 -0.0053634048 723252
-0.019744679 -0.035864767 -0.0053808689 854839
-0.018747091 -0.035863966 -0.0053736567 1117755
-0.017783999 -0.03584772 -0.0052272081 1249597
-0.016816065 -0.035833418 -0.0050982833 1315391
-0.015853241 -0.035816588 -0.0049465895 1446978
-0.014920339 -0.035785824 -0.0046692491 1447233
-0.013981342 -0.035757411 -0.0044131279 1447232
-0.013060004 -0.035720367 -0.0040792227 1513282
-0.012144789 -0.035679895 -0.0037143826 1710148
-0.011233717 -0.035636857 -0.003326416 1841479
-0.010329589 -0.035589851 -0.0029026866 1841735
-0.0094252676 -0.035542209 -0.0024732351 2433863
-0.0085228682 -0.03549289 -0.0020286441 4013130
-0.0076190531 -0.035443485 -0.0015832782 4539720
-0.0067137927 -0.035393998 -0.001137197 4474184
-0.0058099777 -0.035342999 -0.00067746639 3816010
-0.004906714 -0.035290901 -0.0002078414 2630988
-0.004001148 -0.035239108 0.00025904179 3025996
-0.0031115338 -0.035178386 0.00080639124 4079182
-0.0022248998 -0.035115141 0.0013765097 3486799
-0.0013502538 -0.03504467 0.002011776 2960719
-0.00048106164 -0.034970168 0.0026833415 3487053
0.00038647652 -0.034893539 0.0033740997 4013646
0.0012458563 -0.034811288 0.0041155815 3553103
0.0020952374 -0.034722283 0.00491786 2829135
0.0029300675 -0.034623913 0.0058045983 2237009
0.0037633926 -0.034522995 0.006714344 2237010
0.0045998693 -0.034422003 0.0076246858 2302802
0.0054152608 -0.034307577 0.0086562037 2302801
0.006229721 -0.03419055 0.0097110868 2434130
0.0070472062 -0.034073092 0.010769904 2632016
0.0078663528 -0.033954404 0.011839807 3684690
0.008618243 -0.033795036 0.013276398 4671567
0.0093732625 -0.033634484 0.014723659 4605775
0.010111846 -0.03346131 0.016284704 4013391
0.010804623 -0.033257857 0.018118739 3749965
0.011426508 -0.033008352 0.020367861 3618634
0.01203274 -0.032744586 0.02274555 4013382
0.012476601 -0.032377236 0.026056945 3618879
-0.053309709 -0.032782577 0.01309371 2105142
-0.051598877 -0.033037126 0.010835886 2236731
-0.050132498 -0.033202425 0.0093696117 1775931
-0.04867591 -0.033366024 0.0079184771 1447227
-0.047199801 -0.033539087 0.006383419 1183803
-0.045727685 -0.033712737 0.0048431158 723511
-0.044415876 -0.0338265 0.0038340092 525878
-0.043098405 -0.033943884 0.0027927756 591414
-0.041806161 -0.034052864 0.0018261671 1052471
-0.04051654 -0.034162179 0.00085651875 394804
-0.039240152 -0.034267627 -7.8856945e-05 526132
-0.038015351 -0.03435383 -0.00084346533 855349
-0.036798105 -0.034438096 -0.0015909076 1579065
-0.035630643 -0.034503318 -0.0021694303 1908022
-0.034470826 -0.034566283 -0.0027279258 2039606
-0.033314362 -0.034628689 -0.0032814741 1973816
-0.032177985 -0.03468363 -0.0037688613 1446968
-0.031061321 -0.034731127 -0.0041901469 1118265
-0.029950276 -0.034776904 -0.0045961738 657724
-0.028869033 -0.034810759 -0.004896462 591932
-0.027788937 -0.034844577 -0.0051964521 591675
-0.026724473 -0.034872197 -0.0054414272 591677
-0.025700688 -0.034882717 -0.0055347681 591935
-0.024691388 -0.03488712 -0.0055738091 855363
-0.023680076 -0.034892462 -0.0056211948 921151
-0.022671819 -0.034896534 -0.0056573153 592181
-0.021666124 -0.034899537 -0.0056839585 854836
-0.020660996 -0.034902327 -0.0057086945 1052214
-0.01967141 -0.034898199 -0.0056720972 1118009
-0.018709078 -0.034881711 -0.0055258274 1184060
-0.01774624 -0.034865208 -0.0053794384 1315390
-0.016781092 -0.034849521 -0.0052403212 1381182
-0.015810996 -0.034835894 -0.0051194429 1381694
-0.014875248 -0.034806095 -0.0048550963 1381439
-0.01393573 -0.034777611 -0.0046024919 1578305
-0.013001978 -0.034745991 -0.0043219924 1644098
-0.01208052 -0.034708038 -0.0039853454 1644356
-0.011169851 -0.03466434 -0.0035977364 1775941
-0.0102579 -0.034620583 -0.0032095909 1973574
-0.0093515962 -0.034573399 -0.0027910471 3026503
-0.0084485561 -0.034523875 -0.0023517609 4276809
-0.0075452179 -0.034473717 -0.0019068718 4539720
-0.0066439509 -0.034421727 -0.0014457107 4474185
-0.0057426244 -0.034368932 -0.00097739697 3289418
-0.0048397928 -0.034316041 -0.00050824881 2433866
-0.0039317012 -0.034264967 -5.5253506e-05 2499658
-0.0030312538 -0.034209125 0.00044006109 4079181
-0.0021427274 -0.034146167 0.00099849701 3552846
-0.001267001 -0.034075476 0.0016255975 3092303
-0.00039681792 -0.034000657 0.0022892356 3882061
0.00047463179 -0.033925243 0.0029581785 4145229
0.0013410226 -0.033845812 0.0036627054 3552847
0.0021945387 -0.033758044 0.0044412017 2829135
0.0030483529 -0.033668905 0.0052319169 2434384
0.0038810372 -0.033566564 0.0061396956 2302545
0.0047164112 -0.033463895 0.007050395 2434386
0.0055479109 -0.03335721 0.0079966784 2434129
0.0063627586 -0.033239178 0.0090436339 2434130
0.0071806088 -0.033120699 0.010094523 2566226
0.0080014989 -0.033001795 0.011149228 3421521
0.0087833181 -0.032857962 0.012425065 4803152
0.0095308796 -0.032691322 0.013903201 4934735
0.010289028 -0.032527797 0.01535368 4144975
0.011012286 -0.032340273 0.017017007 3881806
0.011682406 -0.032117032 0.018997192 3750220
0.01228492 -0.031848222 0.021381617 4079431
0.012849286 -0.031550616 0.024021387 3684674
0.013073392 -0.031035483 0.028590679 2110533
-0.054087445 -0.03145501 0.015667856 4210771
-0.051976413 -0.031864487 0.012092948 1513015
-0.050318927 -0.032104895 0.0099940896 1381432
-0.048699409 -0.032333568 0.0079976916 1118265
-0.047165364 -0.032531843 0.0062666535 723256
-0.045677334 -0.032714568 0.0046713352 460341
-0.04430978 -0.032852195 0.0034698248 459828
-0.042973205 -0.032979287 0.0023602843 525877
-0.041668013 -0.033095464 0.0013459921 789302
-0.040383041 -0.03320501 0.00038957596 460341
-0.039112955 -0.033309951 -0.00052660704 657973
-0.037860513 -0.033409074 -0.0013919473 1842490
-0.036677137 -0.033481263 -0.0020222068 2566204
-0.035509527 -0.033547908 -0.0026040673 1841972
-0.034350723 -0.033611782 -0.0031616688 1841722
-0.033206359 -0.03367047 -0.0036740899 1184056
-0.032075241 -0.03372439 -0.0041448474 854584
-0.030954748 -0.033774547 -0.0045827031 591674
-0.029838458 -0.033823587 -0.0050108433 525883
-0.028745398 -0.033863351 -0.0053579807 460347
-0.027687907 -0.03388834 -0.0055761933 657469
-0.02663371 -0.033912241 -0.0057848692 657469
-0.025617182 -0.033920042 -0.0058529377 657722
-0.024618179 -0.033920236 -0.0058546662 723510
-0.023607388 -0.03392566 -0.0059019923 855098
-0.022596762 -0.033931084 -0.0059493184 986426
-0.021586314 -0.033936501 -0.0059966445 1183801
-0.020595267 -0.03393323 -0.0059680939 1118519
-0.019633144 -0.033916742 -0.0058241487 1315642
-0.018671066 -0.033899993 -0.0056779385 1315642
-0.01770851 -0.033883236 -0.0055316091 1381181
-0.016745403 -0.033866473 -0.0053852797 1381438
-0.015775353 -0.033852726 -0.0052652359 1381438
-0.014826253 -0.033828884 -0.0050570965 1447232
-0.0138928 -0.033797234 -0.0047807693 1578305
-0.012953535 -0.033767894 -0.0045246482 1578562
-0.012022302 -0.03373424 -0.0042307973 1579074
-0.011106029 -0.033692777 -0.0038688183 1710660
-0.010194495 -0.033648357 -0.0034810305 2170437
-0.00928168 -0.033603877 -0.0030927062 3749961
-0.0083743334 -0.033555977 -0.00267452 4473672
-0.0074756145 -0.033502989 -0.0022118688 4605511
-0.0065762401 -0.033449486 -0.0017448068 4210760
-0.0056753457 -0.033395901 -0.0012769699 2960200
-0.0047729537 -0.03334222 -0.00080829859 2302283
-0.0038673505 -0.033289321 -0.0003464818 2236236
-0.0029602274 -0.033236347 0.00011599064 3816012
-0.0020607114 -0.033178486 0.00062114 3947597
-0.0011838973 -0.033107594 0.0012400746 3553102
-0.00031416863 -0.033031709 0.0019025803 4210766
0.00055720657 -0.03295543 0.002568543 3947598
0.0014304519 -0.032878846 0.0032371283 3158094
0.0022907034 -0.032793805 0.0039796233 2697551
0.0031487718 -0.03270606 0.0047456622 2434383
0.0040006489 -0.032613307 0.0055554509 2499921
0.0048353523 -0.032509208 0.0064642429 2697297
0.0056713372 -0.032403976 0.0073829889 2960720
0.0064999163 -0.032292582 0.0083554983 3157840
0.0073170289 -0.032172501 0.0094038248 2632017
0.0081371665 -0.03205198 0.010456026 3289681
0.0089501813 -0.031925008 0.011564553 4539985
0.0097046122 -0.03176073 0.012998819 5000527
0.010447539 -0.031586401 0.014520764 4737104
0.011206813 -0.031418674 0.015985072 4144975
0.011899568 -0.031206898 0.017834008 3816012
0.012557521 -0.030969426 0.019907236 4210761
0.013146453 -0.030684091 0.022398293 3223876
0.013614632 -0.030316785 0.025605083 3421503
-0.052245721 -0.030729242 0.01298964 1118261
-0.050427452 -0.031035468 0.010357618 1052727
-0.04864122 -0.03133285 0.0078015924 657719
-0.047088623 -0.031541705 0.0060064793 460087
-0.045607358 -0.031724818 0.0044326186 394549
-0.044194758 -0.031882778 0.003074944 394293
-0.042851478 -0.032014839 0.0019398332 525877
-0.041535631 -0.032137468 0.00088584423 591670
-0.040259376 -0.032245532 -4.2974949e-05 525877
-0.038991064 -0.032351717 -0.00095564127 789301
-0.03777276 -0.032438643 -0.0017027855 2170940
-0.036577761 -0.032517023 -0.0023764968 1841976
-0.035395995 -0.032590896 -0.0030114055 1052468
-0.034252957 -0.032649457 -0.0035147667 789303
-0.033112511 -0.032707691 -0.0040152669 723256
-0.031979188 -0.03276366 -0.004496336 657466
-0.030859485 -0.032814533 -0.0049335957 394811
-0.029749364 -0.032861963 -0.0053412318 460605
-0.028662756 -0.032899804 -0.0056664944 591932
-0.027596578 -0.032929234 -0.0059194565 657466
-0.026543066 -0.032953486 -0.0061278939 723256
-0.02553378 -0.032958463 -0.0061706901 855096
-0.024539948 -0.032956623 -0.0061548352 1117756
-0.023534775 -0.032959834 -0.0061824918 1315137
-0.02252467 -0.03296534 -0.0062298179 1446723
-0.021537811 -0.032960325 -0.0061866641 1315388
-0.020566717 -0.032948002 -0.0060807467 1249848
-0.019596487 -0.03293509 -0.0059698224 1381434
-0.018633097 -0.032918818 -0.0058299303 1381436
-0.01767078 -0.032901809 -0.0056837201 1381183
-0.016707942 -0.032884791 -0.0055374503 1381695
-0.015740648 -0.032869637 -0.0054072142 1447231
-0.014785185 -0.032848589 -0.0052263141 1513023
-0.013846815 -0.032818973 -0.0049717426 1447232
-0.012908876 -0.032788694 -0.0047115088 1578563
-0.011974216 -0.032756351 -0.0044335127 1578818
-0.011045635 -0.032720506 -0.0041254163 1710149
-0.010134339 -0.03267549 -0.0037385225 2434372
-0.0092217773 -0.032630421 -0.0033511519 3947847
-0.0083080232 -0.032585241 -0.0029628277 4473927
-0.0074075609 -0.032532573 -0.0025101304 4539974
-0.0065086037 -0.032478288 -0.0020435452 3947591
-0.0056081265 -0.032423921 -0.0015762448 2696775
-0.0047061592 -0.032369457 -0.00110811 2236490
-0.0038026795 -0.032314889 -0.00063914061 2170443
-0.002889283 -0.032264695 -0.00020772219 3026252
-0.0019902289 -0.032205991 0.00029689074 4144973
-0.0011009127 -0.032141045 0.00085508823 4079182
-0.00023168325 -0.032064073 0.0015166402 4013391
0.00063946843 -0.031986848 0.0021804571 3421007
0.0015122071 -0.031909168 0.0028480887 2829135
0.002386637 -0.031831093 0.0035191774 2566223
0.0032444298 -0.031742275 0.0042825341 2368847
0.0041042566 -0.031653062 0.0050493479 2697552
0.0049540475 -0.031556495 0.0058793426 3487312
0.0057898164 -0.031450093 0.0067938566 4211023
0.0066259205 -0.031341955 0.0077233315 4408400
0.0074531287 -0.031226605 0.0087147951 3750481
0.0082725212 -0.031104483 0.0097644329 3223632
0.009088397 -0.030977979 0.010851741 4539986
0.0098783523 -0.030833393 0.012094438 5132110
0.010627776 -0.0306613 0.013573647 4868944
0.011373892 -0.030483864 0.015098691 4078928
0.012115851 -0.030300409 0.016675532 3684174
0.01277858 -0.030063517 0.018711627 4474184
0.013417333 -0.029806718 0.020918787 3684167
0.014011003 -0.029515877 0.023418605 3816259
0.014351107 -0.029054828 0.027381361 2368576
-0.052485555 -0.029602364 0.013788164 986677
-0.050451815 -0.029998042 0.010439217 591926
-0.048617944 -0.030318938 0.0077231526 526135
-0.04698588 -0.03056293 0.0056580901 460086
-0.045482665 -0.030757979 0.0040072203 394551
-0.044088989 -0.030911021 0.0027118921 394294
-0.042750314 -0.031043515 0.0015904307 525877
-0.041434795 -0.03116817 0.00053536892 460086
-0.04014647 -0.031283163 -0.00043785572 591670
-0.038884327 -0.031388722 -0.0013313293 920630
-0.037686899 -0.031468548 -0.002006948 1381178
-0.036492363 -0.03154818 -0.0026809573 855351
-0.035323545 -0.031617939 -0.0032714009 526392
-0.034171909 -0.031681277 -0.0038074851 591929
-0.033022478 -0.031744495 -0.004342556 591930
-0.03188327 -0.031804137 -0.0048473477 591675
-0.030784622 -0.031846911 -0.0052093863 460347
-0.029693931 -0.031886771 -0.0055467486 526653
-0.028604567 -0.031926587 -0.0058837533 723514
-0.027532116 -0.031959437 -0.0061617494 920378
-0.026476458 -0.031985216 -0.006379962 1052218
-0.025462493 -0.031992584 -0.0064423084 1184061
-0.024457201 -0.031996123 -0.0064722896 1380931
-0.023462236 -0.031994998 -0.0064627528 1512514
-0.022479817 -0.031988092 -0.0064042807 1446977
-0.02150929 -0.031975582 -0.0062984228 1381183
-0.02053839 -0.031963065 -0.0061925054 1249851
-0.019567683 -0.03195028 -0.0060842633 1315642
-0.018597737 -0.031936958 -0.0059714913 1381181
-0.01763308 -0.03192091 -0.005835712 1446975
-0.016670495 -0.031903639 -0.0056895018 1447231
-0.015705973 -0.031887054 -0.0055491328 1381437
-0.014747456 -0.031867296 -0.0053818822 1447230
-0.01379925 -0.031842172 -0.0051692724 1512768
-0.012863874 -0.031810336 -0.0048997998 1513279
-0.011926159 -0.031779177 -0.0046361089 1644608
-0.01099585 -0.031743824 -0.0043368936 1841730
-0.010075554 -0.031702861 -0.0039901733 2894916
-0.0091633797 -0.03165713 -0.0036031008 4211271
-0.0082499087 -0.031611338 -0.0032154918 4408389
-0.0073395669 -0.0315632 -0.002808094 4474183
-0.0064410418 -0.031508133 -0.0023419857 3552838
-0.0055410117 -0.031452976 -0.0018751621 2368071
-0.0046394616 -0.031397723 -0.0014075041 2170954
-0.0037363917 -0.031342387 -0.00093913078 2039371
-0.0028244704 -0.031290904 -0.00050342083 2104907
