# .PCD v0.7 - Point Cloud Data file format
VERSION 0.7
FIELDS x y z rgb
SIZE 4 4 4 4
TYPE F F F U
COUNT 1 1 1 1
WIDTH 1004
HEIGHT 1
VIEWPOINT 0 0 0 1 0 0 0
POINTS 1004
DATA ascii
-0.0098074451 -0.041441515 0.0022884607 6317158
-0.00904545 -0.041443773 0.0024811924 7171952
-0.0082827657 -0.041446034 0.0026741028 7961211
-0.0075193928 -0.041448299 0.002867192 8684933
-0.0067553283 -0.041450564 0.0030604601 9145227
-0.0059905709 -0.041452833 0.0032538772 9079434
-0.0052251215 -0.041455101 0.0034475029 9013641
-0.0044616475 -0.041458569 0.0037433207 9079435
-0.0036984724 -0.041462697 0.0040952861 8947848
-0.00293404 -0.041466832 0.004447788 8816005
-0.0021683485 -0.041470971 0.0048009157 8816002
-0.0014013941 -0.041475117 0.0051546097 8816001
-0.00063429214 -0.041480038 0.0055741668 8750208
0.00013301801 -0.041485954 0.0060788393 9013639
0.00089663779 -0.041496649 0.0069908798 9474192
0.0016653924 -0.041505497 0.0077456236 9539985
0.0024368437 -0.041514378 0.00850299 9539985
0.0032110056 -0.041523289 0.0092630386 9539985
0.0039878925 -0.04153223 0.010025769 9539985
0.0047675185 -0.041541204 0.010791183 9474192
0.0055471091 -0.041562304 0.012590498 9408399
0.0063329493 -0.041586533 0.01465714 10526880
-0.037174955 -0.040716026 0.0066868067 8487298
-0.036281198 -0.040704463 0.0055211186 8421504
-0.035394311 -0.040693168 0.0043824911 8421504
-0.03451211 -0.040681928 0.0032498538 8421504
-0.033634558 -0.040670753 0.0021232069 8421504
-0.032800902 -0.040663827 0.0014252961 8882055
-0.032012567 -0.040661566 0.0011972785 8882055
-0.031225076 -0.040659305 0.00096949935 8750469
-0.03044509 -0.040657803 0.00081810355 8553090
-0.029675649 -0.040657461 0.00078344345 8421504
-0.02890634 -0.040657118 0.00074881315 8421504
-0.028137149 -0.040656772 0.00071415305 8421504
-0.027368085 -0.040656429 0.00067949295 8421504
-0.026599148 -0.040656086 0.00064486265 8487297
-0.025805166 -0.040652484 0.00028190017 8816262
-0.024996957 -0.040646825 -0.00028863549 8816262
-0.024217159 -0.040644743 -0.00049841404 8487297
-0.023459222 -0.040645599 -0.0004119873 8487297
-0.022700977 -0.04064646 -0.00032550097 8487297
-0.021942424 -0.040647317 -0.00023898482 8487297
-0.02118356 -0.040648177 -0.00015243888 8487297
-0.020424385 -0.040649034 -6.5863132e-05 8487297
-0.019664899 -0.040649895 2.0742416e-05 8487297
-0.018905105 -0.040650755 0.00010740757 8487297
-0.018144999 -0.040651612 0.00019407272 7829624
-0.017384583 -0.040652473 0.00028079748 6119779
-0.016623856 -0.040653333 0.00036755204 5659228
-0.015862817 -0.040654197 0.0004543364 5724764
-0.015101468 -0.040655058 0.00054118037 5856607
-0.014344169 -0.04065679 0.00071597099 5987936
-0.01358703 -0.04065869 0.0009073019 6053986
-0.012829209 -0.04066059 0.0010987818 6053986
-0.012070702 -0.04066249 0.0012904406 6514280
-0.011311512 -0.040664393 0.0014822781 7303539
-0.010551639 -0.040666297 0.0016742945 8158590
-0.009791078 -0.040668204 0.0018664598 8947848
-0.0090298317 -0.040670112 0.0020588338 9145227
-0.0082678962 -0.040672023 0.0022513568 9145227
-0.007505273 -0.040673934 0.0024440587 9145227
-0.0067419591 -0.040675849 0.0026369393 9145227
-0.0059779542 -0.040677764 0.0028299689 9145227
-0.0052132593 -0.040679682 0.0030232072 9145227
-0.0044478704 -0.040681601 0.0032165945 9145227
-0.0036849664 -0.040684815 0.0035406649 9211020
-0.0029215137 -0.040688302 0.0038922727 9211020
-0.0021568048 -0.040691797 0.0042444468 9079434
-0.0013908367 -0.040695295 0.0045972168 8947591
-0.00062360661 -0.040698804 0.004950583 8618880
0.00014452729 -0.040702548 0.0053281784 8487037
0.00091282185 -0.040707175 0.0057946146 8487037
0.0016827867 -0.040711813 0.006262064 8815746
0.0024544285 -0.040716462 0.0067305267 9013383
0.0032257789 -0.040723529 0.0074430108 9013383
0.0039994232 -0.040731035 0.0081993341 9539985
0.004775784 -0.040738564 0.0089583397 9539985
0.0055538332 -0.040749941 0.010105282 9408399
0.0063352119 -0.04077021 0.01214844 9408399
0.0071239788 -0.040790673 0.01421091 10000536
-0.037179064 -0.039939299 0.0067271292 8421504
-0.036287174 -0.039929993 0.0055807829 8421504
-0.035400018 -0.03992074 0.004440546 8421504
-0.034517609 -0.039911538 0.0033068359 8421504
-0.033639926 -0.039902389 0.0021798909 8421504
-0.03278118 -0.03989454 0.0012129843 8487296
-0.032010835 -0.039894257 0.0011782348 8553090
-0.031240614 -0.039893977 0.0011435151 8421504
-0.030470522 -0.039893694 0.0011088252 8421504
-0.029700553 -0.039893415 0.0010741055 8421504
-0.028930714 -0.039893132 0.0010394156 8421504
-0.028160995 -0.039892849 0.0010046959 8421504
-0.027391406 -0.039892569 0.00097000599 8487297
-0.026598925 -0.039889906 0.00064200163 8816262
-0.025788961 -0.039885268 7.0482492e-05 8816262
-0.024981169 -0.039880641 -0.00049951673 8618883
-0.024217457 -0.039880682 -0.00049433112 8487297
-0.023459513 -0.039881382 -0.00040790439 8487297
-0.022701262 -0.039882086 -0.00032141805 8487297
-0.021942699 -0.039882787 -0.00023490191 8487297
-0.021183828 -0.039883491 -0.00014835596 8487297
-0.020424645 -0.039884195 -6.1780214e-05 8487297
-0.019665154 -0.039884895 2.4825335e-05 8487297
-0.018905353 -0.039885599 0.00011149049 8487297
-0.018145237 -0.039886303 0.00019815564 8158589
-0.017384814 -0.039887007 0.0002848804 6316900
-0.016621988 -0.039887402 0.0003336072 5856606
-0.015852863 -0.039886862 0.00026726723 5922400
-0.015087757 -0.039886922 0.00027447939 5922144
-0.014328094 -0.039887875 0.00039190054 6448230
-0.013570113 -0.039889187 0.00055336952 7303538
-0.012811553 -0.039890498 0.00071495771 8290432
-0.012052417 -0.039891809 0.00087666512 9013641
-0.011293693 -0.039893314 0.0010618865 9013641
-0.010534562 -0.039894871 0.0012535155 9145227
-0.0097747445 -0.039896425 0.0014452934 9145227
-0.0090142433 -0.039897986 0.00163728 9145227
-0.0082530547 -0.039899543 0.0018294156 9145227
-0.0074911802 -0.039901104 0.0020217597 9145227
-0.006728617 -0.039902668 0.0022142529 9145227
-0.0059653628 -0.039904233 0.0024068952 9145227
-0.0052014193 -0.039905798 0.002599746 9145227
-0.0044367849 -0.039907362 0.0027927756 9145227
-0.0036714957 -0.039908946 0.0029874742 9145227
-0.0029090201 -0.039911792 0.0033381581 9211020
-0.0021452927 -0.039914642 0.0036894381 9211020
-0.0013803081 -0.039917499 0.0040413141 9079434
-0.00061406475 -0.03992036 0.0043937564 8816004
0.00015226426 -0.039923847 0.0048235655 8487037
0.00091966335 -0.039927624 0.0052888989 8487037
0.001688729 -0.039931409 0.0057552457 8552574
0.0024594669 -0.039935205 0.0062226355 8552574
0.003231883 -0.039939005 0.0066910088 8552574
0.0040059825 -0.039942816 0.0071603954 8552574
0.0047817705 -0.039946634 0.007630825 8552574
0.0055592582 -0.039950445 0.0081003904 9013383
0.0063374075 -0.039963547 0.0097142756 9276813
0.0071217208 -0.039979726 0.011707306 9276813
0.0079134014 -0.03999643 0.013765574 9276813
-0.037191309 -0.03916293 0.0068472922 8421504
-0.036299139 -0.039155688 0.00570032 8421504
-0.035411708 -0.039148487 0.0045594573 8421504
-0.034528974 -0.039141323 0.0034246147 8421504
-0.033650901 -0.039134193 0.0022957623 8421504
-0.032808233 -0.039129198 0.0015042126 8421504
-0.032037359 -0.039128978 0.0014694333 8421504
-0.031266611 -0.039128758 0.0014346838 8421504
-0.030495988 -0.039128538 0.0013999045 8421504
-0.02972549 -0.039128318 0.001365155 8421504
-0.028955119 -0.039128099 0.0013304055 8421504
-0.028184874 -0.039127883 0.001295656 8421504
-0.027394032 -0.039126031 0.0010027289 8684676
-0.026582306 -0.039122418 0.00043022633 8816262
-0.025772767 -0.039118811 -0.00014072657 8816262
-0.024975395 -0.039116062 -0.00057667494 8618883
-0.024217755 -0.039116606 -0.0004902482 8487297
-0.023459803 -0.03911715 -0.00040382147 8487297
-0.022701545 -0.039117698 -0.00031733513 8487297
-0.021942975 -0.039118245 -0.00023081899 8487297
-0.021184096 -0.039118789 -0.00014427304 8487297
-0.020424908 -0.039119337 -5.7697296e-05 8487297
-0.019665407 -0.039119884 2.8908253e-05 8487297
-0.018905599 -0.039120432 0.00011557341 8618883
-0.018140066 -0.039120395 0.00010994077 8224382
-0.017371109 -0.039119978 4.3660402e-05 6711658
-0.016602391 -0.039119557 -2.259016e-05 6053986
-0.015837761 -0.039119598 -1.6540289e-05 6777452
-0.015073737 -0.039119713 1.7285347e-06 7961211
-0.014313277 -0.03912029 9.3191862e-05 8882055
-0.013555823 -0.039121307 0.00025442243 8947848
-0.012797792 -0.039122324 0.0004157722 8947848
-0.012039185 -0.039123345 0.00057727098 8947848
-0.01128 -0.039124366 0.00073885918 8947848
-0.010520238 -0.039125387 0.00090059638 8947848
-0.0097598974 -0.039126407 0.0010624528 9013641
-0.008998977 -0.039127432 0.0012244284 9013641
-0.0082382448 -0.039128594 0.0014083385 9013641
-0.0074771154 -0.039129805 0.0016002655 9145227
-0.0067153 -0.039131016 0.0017924011 9145227
-0.0059527964 -0.03913223 0.0019846857 9145227
-0.0051896037 -0.039133444 0.0021771193 9145227
-0.0044257217 -0.039134663 0.0023697615 9145227
-0.0036611487 -0.039135881 0.0025625825 9145227
-0.002896559 -0.039137285 0.0027855039 9211020
-0.0021338095 -0.039139498 0.0031358898 9211020
-0.0013698065 -0.039141715 0.0034868121 9145227
-0.00060486468 -0.03914405 0.0038568974 8947848
0.00015998306 -0.039146975 0.0043201447 8684418
0.00092648901 -0.039149906 0.0047843754 8486781
0.0016946569 -0.039152846 0.0052496493 8552573
0.0024644942 -0.039155789 0.0057159066 8552574
0.0032360048 -0.039158739 0.006183207 8552574
0.0040092468 -0.039161641 0.0066432953 8552830
0.0047841468 -0.039164551 0.0071038306 8552830
0.0055607054 -0.039167464 0.0075653493 8552830
0.0063388632 -0.039170843 0.0081003308 8881797
0.0071202279 -0.039183162 0.010051697 9211020
0.0079086805 -0.039195593 0.012020767 9211020
0.0087043177 -0.039208136 0.014007807 9803157
-0.037203565 -0.038386129 0.0069675446 9211020
-0.036311112 -0.038380951 0.0058199167 8421504
-0.035423402 -0.038375806 0.0046783984 8421504
-0.034540392 -0.038370684 0.0035429299 8421504
-0.033654913 -0.038365252 0.0023381412 8487297
-0.032835327 -0.038362805 0.0017958581 8421504
-0.032063924 -0.038362648 0.001761049 8421504
-0.031292643 -0.038362492 0.0017262101 8421504
-0.030521488 -0.038362335 0.001691401 8421504
-0.029750461 -0.038362179 0.0016565919 8421504
-0.028979564 -0.038362022 0.0016218126 8421504
-0.028190488 -0.03836086 0.0013640523 8684676
-0.027377 -0.038358271 0.00079056621 8816262
-0.026565706 -0.038355693 0.00021865964 8816262
-0.025756592 -0.038353123 -0.00035172701 8816262
-0.0249757 -0.038352124 -0.00057259202 8487297
-0.024218053 -0.038352516 -0.00048616529 8487297
-0.023460094 -0.038352907 -0.00039973855 8487297
-0.022701828 -0.038353294 -0.00031325221 8487297
-0.021943253 -0.038353685 -0.00022673607 8487297
-0.021184364 -0.038354076 -0.00014019012 8487297
-0.020425169 -0.038354468 -5.3614378e-05 8750469
-0.019656546 -0.038354196 -0.00011348724 8882312
-0.018887758 -0.038353898 -0.0001796782 8421761
-0.018119209 -0.0383536 -0.00024586916 7106416
-0.017350899 -0.038353302 -0.00031203032 7171952
-0.016586736 -0.038353324 -0.00030717254 8224382
-0.015823267 -0.038353406 -0.00028890371 8947848
-0.015059734 -0.038353488 -0.00027063489 8947848
-0.01429848 -0.038353782 -0.00020509958 8947848
-0.013541553 -0.038354509 -4.4107437e-05 8947848
-0.012784051 -0.038355235 0.00011703372 8947848
-0.012025973 -0.038355961 0.00027829409 8947848
-0.011267317 -0.038356692 0.00043964386 8947848
-0.010508085 -0.038357418 0.00060114264 8947848
-0.0097482763 -0.038358148 0.00076279044 8947848
-0.0089878868 -0.038358878 0.00092452765 8947848
-0.0082269199 -0.038359605 0.0010863841 8947848
-0.0074653733 -0.038360339 0.0012483895 8947848
-0.006703245 -0.038361069 0.0014105141 9013641
-0.0059405356 -0.038361799 0.0015727282 9013641
-0.0051778113 -0.038362622 0.0017553568 9013641
-0.0044146799 -0.03836349 0.0019476116 9145227
-0.0036508595 -0.038364358 0.0021400452 9145227
-0.0028863479 -0.038365226 0.0023326278 9145227
-0.0021223561 -0.038366359 0.0025837421 9211020
-0.001359331 -0.038367938 0.0029337704 9211020
-0.00059627695 -0.038369842 0.0033557415 9013641
0.0001676837 -0.038371924 0.0038178861 8947591
0.00093329791 -0.038374014 0.0042810738 8684417
0.0017006383 -0.038376082 0.0047395229 8552573
0.0024696523 -0.038378138 0.0051959753 8552574
0.0032403052 -0.038380202 0.005653441 8552830
0.0040126024 -0.038382269 0.0061118603 8552830
0.0047865487 -0.038384341 0.0065712631 8552830
0.0055621499 -0.038386416 0.0070316195 8552574
0.0063394108 -0.038388498 0.0074929893 8552830
0.0071187699 -0.038392745 0.0084352493 9013640
0.0079042669 -0.038401559 0.010389656 9211020
0.0086968951 -0.038410455 0.012361795 9079434
-0.037215821 -0.037608892 0.0070878267 9211020
-0.036323093 -0.037605785 0.005939573 8421504
-0.035435103 -0.037602693 0.0047974288 8421504
-0.034549702 -0.03759956 0.0036394 8421504
-0.033655725 -0.037596062 0.0023467243 8421504
-0.032862455 -0.037595361 0.0020878911 8421504
-0.032090519 -0.037595268 0.0020530224 8421504
-0.031318709 -0.037595175 0.0020181537 8421504
-0.030547025 -0.037595082 0.0019833148 8421504
-0.029775469 -0.037594985 0.001948446 8421504
-0.0289883 -0.037594385 0.0017260015 8684676
-0.028173046 -0.037592828 0.0011515319 8816262
-0.02735999 -0.037591279 0.00057864189 8816262
-0.026549121 -0.037589733 7.301569e-06 8816262
-0.025740432 -0.037588194 -0.00056251884 8618883
-0.024976006 -0.037588175 -0.0005685091 8487297
-0.024218349 -0.03758841 -0.00048211217 8487297
-0.023460384 -0.037588645 -0.00039565563 8487297
-0.022702111 -0.037588879 -0.00030916929 8618883
-0.021940291 -0.037588984 -0.00027051568 8947848
-0.021171428 -0.037588805 -0.00033667684 9079434
-0.020402808 -0.037588626 -0.00040280819 8816262
-0.019634426 -0.037588444 -0.00046893954 8421761
-0.018866284 -0.037588265 -0.00053504109 8290175
-0.018098382 -0.037588086 -0.00060111284 8619140
-0.017334685 -0.037588097 -0.00059738755 8947848
-0.016571769 -0.037588146 -0.00057917833 8947848
-0.015808793 -0.037588198 -0.00056093931 8947848
-0.015045749 -0.037588246 -0.00054270029 8947848
-0.014283704 -0.037588354 -0.0005030036 8947848
-0.013527302 -0.03758879 -0.00034222007 8947848
-0.012770327 -0.037589222 -0.00018131733 8947848
-0.012012778 -0.037589658 -2.0265579e-05 8947848
-0.011254651 -0.037590094 0.00014087558 8947848
-0.01049595 -0.037590533 0.00030213594 8947848
-0.0097366702 -0.037590969 0.00046354532 8947848
-0.0089768134 -0.037591405 0.00062504411 8947848
-0.0082163773 -0.037591841 0.0007866919 8947848
-0.0074553643 -0.037592281 0.00094845891 8947848
-0.0066937697 -0.037592717 0.0011103451 8947848
-0.0059315949 -0.037593156 0.0012723505 8947848
-0.0051688408 -0.037593596 0.001434505 8947848
-0.0044055027 -0.037594035 0.0015967488 8947848
-0.0036415835 -0.037594475 0.0017591417 9013641
-0.0028770803 -0.037594914 0.0019216239 9013641
-0.0021123826 -0.037595402 0.0021029413 9079434
-0.0013491395 -0.037596196 0.0023956597 9145227
-0.00058765337 -0.037597433 0.0028524995 9145227
0.00017554825 -0.037598655 0.0033049583 9079434
0.00094036898 -0.037599884 0.0037583709 8750468
0.0017068144 -0.037601113 0.0042127669 8487038
0.0024748892 -0.037602346 0.0046681166 8552574
0.0032445991 -0.037603579 0.0051244497 8552574
0.0040159491 -0.037604816 0.0055817366 8552830
0.0047889445 -0.037606057 0.0060400069 8552830
0.0055635902 -0.037607297 0.0064992309 8552830
0.0063398918 -0.037608545 0.0069594681 8552829
0.0071178549 -0.037609793 0.0074206889 8684673
0.0078998869 -0.037613444 0.0087707043 9211020
0.0086895283 -0.037618741 0.010728151 9211020
0.0095156953 -0.037636664 0.017352611 10132122
-0.036335081 -0.036830187 0.0060593188 8421504
-0.035446811 -0.036829155 0.0049165189 8421504
-0.034550533 -0.036828011 0.0036480129 8487297
-0.033662219 -0.036826897 0.0024152696 8421504
-0.032889623 -0.036826868 0.0023803413 8421504
-0.032117154 -0.036826838 0.002345413 8421504
-0.031344816 -0.036826804 0.0023105145 8421504
-0.030572599 -0.036826774 0.0022756159 8421504
-0.029787472 -0.036826603 0.0020885468 8684676
-0.028970445 -0.036826085 0.0015131235 8816262
-0.028155623 -0.036825567 0.00093924999 8816262
-0.027342996 -0.036825053 0.00036692619 8816262
-0.026532555 -0.036824536 -0.00020384789 8816262
-0.025733663 -0.036824133 -0.00065082312 8618883
-0.024976311 -0.036824211 -0.00056442618 8487297
-0.024218647 -0.03682429 -0.00047802925 8618883
-0.023453409 -0.036824275 -0.00049355626 8947848
-0.022684718 -0.036824215 -0.00055962801 9079434
-0.021916265 -0.036824156 -0.00062569976 8750726
-0.021148052 -0.036824096 -0.0006917417 8487298
-0.020380078 -0.036824036 -0.00075778365 8553347
-0.019612342 -0.036823977 -0.0008237958 8947848
-0.018844848 -0.036823917 -0.00088977814 9013641
-0.018081607 -0.036823921 -0.00088724494 8947848
-0.017319249 -0.036823936 -0.00086903572 8947848
-0.016556827 -0.036823954 -0.0008507967 8947848
-0.015794337 -0.036823969 -0.00083258748 8947848
-0.015031781 -0.036823988 -0.00081437826 8947848
-0.01426916 -0.036824003 -0.00079616904 8947848
-0.013513073 -0.036824144 -0.00063988566 8947848
-0.012756625 -0.03682429 -0.00047922134 8947848
-0.011999601 -0.036824435 -0.00031840801 8947848
-0.011242004 -0.03682458 -0.00015750527 8947848
-0.010483831 -0.036824726 3.5464764e-06 8947848
-0.0097250808 -0.036824871 0.00016471744 8947848
-0.0089657549 -0.036825016 0.0003260076 8947848
-0.0082058515 -0.036825161 0.00048741698 8947848
-0.0074453694 -0.036825307 0.00064894557 8947848
-0.0066843084 -0.036825452 0.00081062317 8947848
-0.0059226672 -0.036825597 0.00097239017 8947848
-0.0051604477 -0.036825743 0.0011343062 8947848
-0.0043976451 -0.036825892 0.0012963414 8947848
-0.0036342624 -0.036826037 0.0014584959 8947848
-0.0028703646 -0.036826186 0.0016237497 8947848
-0.0021058894 -0.036826335 0.0017899275 8947848
-0.0013428819 -0.036826584 0.0020652413 8816262
-0.00058076065 -0.036826931 0.0024502575 8816262
0.00018273899 -0.036827277 0.0028359592 8947848
0.00094746286 -0.036827639 0.0032340288 8750469
0.0017129751 -0.036828045 0.0036873221 8552831
0.0024801134 -0.036828455 0.0041415393 8552574
0.0032488825 -0.036828868 0.00459674 8552830
0.0040192874 -0.036829278 0.0050528944 8552830
0.0047913343 -0.036829691 0.0055100322 8552830
0.0055650272 -0.036830105 0.0059681535 8552830
0.0063403719 -0.036830518 0.0064272583 8552830
0.0071173739 -0.036830932 0.0068873167 8552830
0.0078960378 -0.036831349 0.0073483884 8881797
0.0086822156 -0.036832932 0.0091066658 9211020
0.009498816 -0.036837962 0.014679015 9408399
-0.036347069 -0.036054153 0.0061790943 8421504
-0.035450816 -0.036055256 0.0049572587 8487297
-0.034551363 -0.036056429 0.0036566257 8487297
-0.033689953 -0.036057286 0.002708137 8421504
-0.032916825 -0.036057316 0.0026731789 8421504
-0.032143828 -0.036057349 0.0026382208 8421504
-0.031370953 -0.036057379 0.0026032627 8421504
-0.030588003 -0.036057517 0.0024517179 8618883
-0.029769203 -0.036058035 0.0018753111 8816262
-0.028952608 -0.036058553 0.0013004541 8816262
-0.028138218 -0.03605907 0.00072717667 8816262
-0.027326019 -0.036059588 0.00015541911 8816262
-0.026516004 -0.036060102 -0.00041478872 8816262
-0.025733704 -0.036060315 -0.00065028667 8750469
-0.024964938 -0.036060374 -0.00071632862 8947848
-0.024196414 -0.036060434 -0.00078237057 9079434
-0.023428131 -0.036060493 -0.00084835291 8750726
-0.022660084 -0.036060553 -0.00091433525 8421761
-0.021892279 -0.036060613 -0.00098028779 8487554
-0.021124711 -0.036060672 -0.0010462403 8882055
-0.020357383 -0.036060732 -0.0011121631 9079434
-0.019590296 -0.036060791 -0.001178056 9013641
-0.018827513 -0.036060788 -0.0011766553 8947848
-0.018065708 -0.036060773 -0.0011584759 8947848
-0.017303836 -0.036060754 -0.0011402965 8947848
-0.0165419 -0.036060739 -0.001122117 8947848
-0.015779899 -0.036060724 -0.0011039078 8947848
-0.015017832 -0.036060706 -0.0010857284 8947848
-0.014255701 -0.036060691 -0.0010675192 8947848
-0.013498863 -0.036060572 -0.00093716383 8947848
-0.01274294 -0.036060426 -0.00077670813 8947848
-0.011986446 -0.036060281 -0.00061613321 8947848
-0.011229375 -0.03606014 -0.00045543909 8947848
-0.01047173 -0.036059994 -0.00029462576 8947848
-0.0097135101 -0.036059849 -0.00013366342 8947848
-0.0089547131 -0.036059704 2.7388334e-05 8947848
-0.0081953388 -0.036059558 0.00018855929 8947848
-0.0074353893 -0.036059413 0.00034987926 8947848
-0.006674862 -0.036059268 0.00051131845 8947848
-0.005913815 -0.036059119 0.000674963 8947848
-0.0051522297 -0.03605897 0.00084039569 8947848
-0.0043900511 -0.036058821 0.0010059774 8947848
-0.0036272784 -0.036058672 0.0011716783 8947848
-0.0028639105 -0.036058523 0.0013374984 8947848
-0.0020999466 -0.03605837 0.0015034378 8882055
-0.0013387981 -0.036058061 0.0018496215 8816262
-0.00057705911 -0.036057711 0.0022342503 8816262
0.00018605683 -0.036057364 0.0026195645 8816262
0.00095055299 -0.036057018 0.003005594 8750469
0.001716434 -0.036056668 0.003392309 8553089
0.0024837032 -0.036056317 0.0037797093 8223866
0.0032523638 -0.036055967 0.0041678548 8289658
0.0040224204 -0.036055617 0.0045566857 8420987
0.004793718 -0.036055233 0.0049813986 8420987
0.0055664605 -0.036054824 0.0054383874 8487037
0.0063408506 -0.03605441 0.0058963597 8552830
0.0071168942 -0.036053997 0.0063552856 8552830
0.0078945961 -0.036053579 0.0068151951 8552830
0.0086749578 -0.036052965 0.0074972212 9013641
0.0094821397 -0.036048871 0.012037575 8816262
-0.036356628 -0.035277758 0.006274581 8421504
-0.035451669 -0.035281297 0.0049659312 8487297
-0.034552194 -0.035284817 0.0036652386 8487297
-0.033717729 -0.035286613 0.0030014515 8421504
-0.032944068 -0.035286706 0.0029664338 8421504
-0.032170534 -0.035286803 0.002931416 8421504
-0.031389903 -0.035287116 0.0028155148 8618883
-0.030569317 -0.035288677 0.0022381246 8816262
-0.029750952 -0.035290238 0.0016623139 8816262
-0.02893479 -0.035291791 0.0010880232 8816262
-0.028120829 -0.035293341 0.00051531196 8816262
-0.027308302 -0.035294909 -6.5296888e-05 8882055
-0.026500547 -0.035296388 -0.00061178207 8684676
-0.025715457 -0.035297137 -0.00088828802 8684676
-0.024939863 -0.03529758 -0.0010513365 8618883
-0.024170529 -0.035297811 -0.0011366904 8487297
-0.02340289 -0.035297986 -0.0012025833 8487298
-0.022635493 -0.035298165 -0.0012684464 8882055
-0.021868331 -0.035298344 -0.0013343096 9079434
-0.021101413 -0.035298523 -0.0014001131 9079434
-0.02033473 -0.035298701 -0.0014659464 9013641
-0.019572396 -0.035298698 -0.001465708 8947848
-0.018811142 -0.035298649 -0.0014475584 8947848
-0.018049825 -0.035298601 -0.001429379 8947848
-0.017288443 -0.035298552 -0.0014112294 8947848
-0.016526993 -0.035298504 -0.00139305 8947848
-0.015765479 -0.035298456 -0.0013749003 8947848
-0.015003901 -0.035298403 -0.0013567209 8947848
-0.014242256 -0.035298355 -0.0013385415 8947848
-0.013484674 -0.035298072 -0.0012340248 8947848
-0.012729276 -0.03529764 -0.0010737777 8947848
-0.011973307 -0.035297204 -0.00091344118 8947848
-0.011216763 -0.035296772 -0.00075295568 8947848
-0.010459645 -0.035296336 -0.00059238076 8947848
-0.0097019523 -0.0352959 -0.00043165684 8947848
-0.0089437291 -0.035295464 -0.00026962161 8947848
-0.0081850179 -0.035295017 -0.00010490417 8947848
-0.0074257138 -0.03529457 5.993247e-05 8947848
-0.0066658189 -0.035294127 0.00022488832 8947848
-0.0059053334 -0.03529368 0.00038996339 8947848
-0.0051442557 -0.035293233 0.00055518746 8947848
-0.0043825856 -0.035292786 0.00072053075 8947848
-0.0036203214 -0.035292335 0.00088599324 8947848
-0.0028574639 -0.035291888 0.0010516047 8947848
-0.0020947023 -0.035291351 0.0012506545 8882055
-0.001334718 -0.035290312 0.0016342103 8816262
-0.00057336083 -0.035289273 0.0020184517 8816262
0.00018937141 -0.03528823 0.0024033785 8816262
0.0009534834 -0.035287187 0.0027889907 8816262
0.0017189779 -0.035286143 0.0031753182 8750212
0.0024858597 -0.035285097 0.003562361 8421503
0.0032541314 -0.035284046 0.0039500892 8158072
0.0040237978 -0.035282996 0.0043385327 8223865
0.0047948621 -0.035281941 0.0047276616 8223865
0.005567329 -0.035280887 0.0051175058 8223865
0.0063412008 -0.035279829 0.0055080652 8223865
0.0071164826 -0.035278771 0.0058993399 8355195
0.0078931777 -0.035277713 0.0062913001 8420987
0.0086715575 -0.035276487 0.0067431033 8420988
0.0094656628 -0.035269223 0.0094277561 8618883
0.010329826 -0.035241839 0.019550025 10921637
-0.0363575 -0.034501407 0.0062832832 8421504
-0.035452519 -0.034507308 0.0049746037 8487297
-0.034553025 -0.034513172 0.0036738515 8487297
-0.033745542 -0.034514882 0.0032951236 8421504
-0.032971349 -0.034515038 0.003260076 8421504
-0.032193173 -0.034515399 0.0031799376 8618883
-0.0313708 -0.034518007 0.0026015639 8816262
-0.030550649 -0.034520611 0.00202474 8816262
-0.029732717 -0.034523204 0.0014494956 8816262
-0.028916212 -0.034525834 0.00086653233 8882055
-0.028095519 -0.034528807 0.00020691752 8947848
-0.027286032 -0.034531284 -0.00034272671 8684676
-0.02649519 -0.034532808 -0.00068002939 8618883
-0.025705917 -0.034534309 -0.0010127425 8290175
-0.024930554 -0.034535043 -0.0011756718 8026747
-0.024155784 -0.034535777 -0.0013385117 8421504
-0.023381615 -0.034536511 -0.0015012026 8882055
-0.022610942 -0.034537055 -0.0016219616 8882055
-0.021844428 -0.034537353 -0.0016877055 9079434
-0.021078153 -0.034537647 -0.0017534196 9013641
-0.020316262 -0.034537651 -0.0017543435 8947848
-0.019555561 -0.034537569 -0.0017362237 8947848
-0.018794795 -0.034537487 -0.0017180741 8947848
-0.018033965 -0.034537405 -0.0016999245 8947848
-0.017273068 -0.034537323 -0.0016818047 8947848
-0.016512107 -0.034537241 -0.001663655 8947848
-0.015751081 -0.034537159 -0.0016455054 8947848
-0.014989987 -0.034537081 -0.0016273558 8947848
-0.014228828 -0.034536999 -0.001609236 8947848
-0.013470504 -0.034536641 -0.0015304387 8947848
-0.012715632 -0.034535922 -0.00137043 8947848
-0.011960199 -0.034535196 -0.0012100041 8947848
-0.01120434 -0.034534458 -0.0010460317 8947848
-0.010447893 -0.034533717 -0.00088194013 8947848
-0.0096908603 -0.034532975 -0.00071769953 8947848
-0.0089332387 -0.034532234 -0.00055333972 8947848
-0.0081750285 -0.034531493 -0.0003888607 8947848
-0.0074162302 -0.034530751 -0.00022426248 8947848
-0.0066568409 -0.03453001 -5.9515238e-05 8947848
-0.0058968621 -0.034529265 0.00010535121 8947848
-0.0051362901 -0.03452852 0.00027033687 8947848
-0.0043751295 -0.034527775 0.00043547153 8947848
-0.0036133747 -0.03452703 0.00060072541 8947848
-0.0028510266 -0.034526285 0.0007660985 8947848
-0.0020902469 -0.03452507 0.0010358393 8816262
-0.0013306416 -0.034523342 0.0014190078 8816262
-0.00056966674 -0.03452161 0.0018028617 8816262
0.00019268319 -0.034519877 0.0021874011 8816262
0.00095641008 -0.034518138 0.0025726557 8816262
0.0017215195 -0.034516398 0.002958566 8750469
0.0024880138 -0.034514654 0.0033452213 8684676
0.0032558972 -0.034512907 0.0037325621 8355453
0.0040251734 -0.03451116 0.0041205883 8158072
0.004795847 -0.034509405 0.0045093298 8223865
0.0055679204 -0.034507651 0.0048987865 8223865
0.0063413987 -0.034505889 0.0052889287 8289401
0.0071162847 -0.034504127 0.005679816 8355195
0.007892509 -0.034502484 0.00604406 8486781
0.0086698867 -0.034501001 0.0063726008 8486781
0.0094491495 -0.034499019 0.0068121254 8421501
0.010309137 -0.034453072 0.017001301 9342605
-0.036471318 -0.033717901 0.007420212 9211020
-0.035453372 -0.033733286 0.0049832761 8487297
-0.034553856 -0.033741497 0.0036824644 8421504
-0.033773392 -0.033742085 0.0035892427 8421504
-0.032997813 -0.033742368 0.0035449564 8618883
-0.032173648 -0.033746023 0.0029655993 8816262
-0.031351715 -0.03374967 0.0023878217 8816262
-0.030531207 -0.033753365 0.0018024743 8882055
-0.029706193 -0.033757549 0.0011399388 8947848
-0.028883746 -0.033761721 0.00047945976 8947848
-0.028072519 -0.033765208 -7.3313713e-05 8684676
-0.027280549 -0.033767343 -0.00041106343 8618883
-0.026489837 -0.03376947 -0.00074827671 8224382
-0.025700381 -0.033771597 -0.0010849535 8026746
-0.024921251 -0.033772953 -0.0012999475 8553347
-0.024146713 -0.033773981 -0.001462698 8750469
-0.023372773 -0.033775009 -0.0016252995 8750469
-0.022599427 -0.033776034 -0.0017877817 8750469
-0.021826675 -0.033777058 -0.0019501448 8750469
-0.021061977 -0.033777367 -0.0019990802 8684676
-0.020302 -0.033777229 -0.0019770861 8684676
-0.019541942 -0.033777088 -0.0019550622 8684676
-0.018781804 -0.03377695 -0.001933068 8684676
-0.018021589 -0.033776812 -0.0019110441 8684676
-0.017261293 -0.033776674 -0.00188905 8684676
-0.016500918 -0.033776533 -0.0018670261 8684676
-0.015740464 -0.033776395 -0.0018450022 8684676
-0.014979931 -0.033776257 -0.0018229783 8684676
-0.014219318 -0.033776116 -0.0018009543 8618883
-0.01345904 -0.033775922 -0.0017702579 8750469
-0.012703028 -0.033775128 -0.0016444325 8816262
-0.011947716 -0.033774171 -0.0014924705 8816262
-0.011192355 -0.033773135 -0.0013287365 8947848
-0.01043641 -0.0337721 -0.0011648536 8947848
-0.00967988 -0.033771064 -0.0010008216 8947848
-0.0089227613 -0.033770029 -0.0008367002 8947848
-0.008165054 -0.033768993 -0.0006724298 8947848
-0.0074067595 -0.033767954 -0.00050804019 8947848
-0.006647876 -0.033766914 -0.00034353137 8947848
-0.0058884029 -0.033765875 -0.00017887354 8947848
-0.0051283385 -0.033764835 -1.4126301e-05 8947848
-0.0043676835 -0.033763796 0.00015079975 8947848
-0.0036064363 -0.033762753 0.00031581521 8947848
-0.0028445977 -0.03376171 0.00048097968 8882055
-0.0020857952 -0.03375956 0.0008212626 8816262
-0.0013265708 -0.033757146 0.0012040436 8816262
-0.00056597637 -0.033754725 0.0015875101 8816262
0.00019599078 -0.0337523 0.001971662 8816262
0.00095933443 -0.033749871 0.0023564994 8816262
0.0017240583 -0.033747435 0.0027420521 8816262
0.0024901656 -0.033744998 0.0031282902 8750469
0.0032576611 -0.033742554 0.0035152435 8618626
0.004026548 -0.033740107 0.0039028823 8355452
0.004796843 -0.033737674 0.0042883754 8289659
0.0055686906 -0.033735614 0.0046142638 8486780
0.0063417125 -0.033733554 0.0049405992 8552574
0.0071159131 -0.03373149 0.0052674711 8487038
0.0078912936 -0.033729427 0.0055948198 8487038
0.0086681228 -0.033726983 0.0059816241 8420988
0.0094471266 -0.033723764 0.0064916313 8355451
0.010296263 -0.033667427 0.015415132 8421502
-0.03684403 -0.032909304 0.011143178 10000536
-0.035454225 -0.032959234 0.0049919486 8421503
-0.034576677 -0.032967944 0.003918916 8421504
-0.033801284 -0.032968227 0.0038837492 8618883
-0.032977872 -0.03297272 0.0033302903 8816262
-0.032153327 -0.032977492 0.0027425289 8882055
-0.031323969 -0.032982893 0.0020770729 8947848
-0.030497195 -0.03298828 0.001413703 8947848
-0.02967299 -0.032993644 0.00075238943 8947848
-0.028860005 -0.03299816 0.00019642711 8684676
-0.028066901 -0.033000905 -0.00014173985 8618883
-0.027275065 -0.033003643 -0.00047937036 8224382
-0.026484484 -0.033006381 -0.00081646442 8027003
-0.025695162 -0.033009112 -0.0011530519 8553090
-0.024911953 -0.033011314 -0.0014241636 8684676
-0.024137648 -0.033012632 -0.0015867949 8750469
-0.023363937 -0.033013951 -0.0017493069 8750469
-0.022590822 -0.03301527 -0.0019116998 8750469
-0.021818301 -0.033016589 -0.0020739436 8684676
-0.021057356 -0.033016551 -0.0020692647 8618883
-0.020297505 -0.033016372 -0.0020472705 8618883
-0.019537572 -0.033016194 -0.0020252764 8618883
-0.018777562 -0.033016015 -0.0020032823 8618883
-0.018017473 -0.033015836 -0.0019812584 8618883
-0.017257303 -0.033015657 -0.0019592643 8618883
-0.016497053 -0.033015478 -0.0019372702 8618883
-0.015736727 -0.0330153 -0.0019152462 8618883
-0.014976127 -0.033015151 -0.0018969774 8684676
-0.01421516 -0.033015054 -0.0018847883 8684676
-0.013454149 -0.033014953 -0.0018725991 8684676
-0.012697011 -0.033014163 -0.0017752349 8750469
-0.011940783 -0.033013143 -0.0016493797 8750469
-0.011184102 -0.033012118 -0.0015234649 8750469
-0.010426968 -0.033011097 -0.0013974905 8816262
-0.0096693859 -0.033010073 -0.0012713969 8816262
-0.008912297 -0.033008844 -0.0011196733 8816262
-0.0081550945 -0.03300751 -0.00095564127 8947848
-0.007397302 -0.033006176 -0.00079146028 8947848
-0.0066389223 -0.033004843 -0.00062716007 8947848
-0.005879954 -0.033003509 -0.00046274066 8947848
-0.0051203961 -0.033002175 -0.00029820204 8947848
-0.0043602479 -0.033000838 -0.0001335144 8947848
-0.0035995082 -0.032999501 3.1292439e-05 8947848
-0.00283883 -0.032997925 0.00022518635 8882055
-0.002081349 -0.032994829 0.00060689449 8816262
-0.0013225027 -0.032991722 0.00098928809 8816262
-0.00056228973 -0.032988615 0.0013723671 8816262
0.00019929558 -0.032985497 0.0017561316 8816262
0.00096225552 -0.032982379 0.0021405816 8882055
0.0017265943 -0.03297925 0.0025257468 8882055
0.0024927258 -0.032976456 0.0028702319 9079434
0.0032602695 -0.03297383 0.0031939149 9013641
0.0040289769 -0.032971196 0.0035181344 8750212
0.0047988524 -0.032968562 0.0038428307 8421245
0.0055698976 -0.032965921 0.0041680038 8486781
0.0063421158 -0.032963276 0.0044936836 8487037
0.0071155094 -0.032960631 0.00481987 8552830
0.0078901015 -0.032957915 0.0051543117 8421243
0.0086666839 -0.032953791 0.0056623518 8355195
0.0094451057 -0.032949656 0.0061716139 8355451
0.010225375 -0.032945514 0.0066820681 8355451
-0.035516445 -0.032178957 0.0056248605 8289918
-0.034605142 -0.032192953 0.0042138696 8618883
-0.033782627 -0.032198183 0.0036867559 8882055
-0.032948893 -0.032204814 0.0030183494 8947848
-0.032117762 -0.032211427 0.0023520589 8947848
-0.031289212 -0.032218017 0.0016877949 8947848
-0.030463247 -0.032224584 0.0010256469 8947848
-0.029648496 -0.032230131 0.00046652555 8684676
-0.02885426 -0.032233492 0.00012791157 8618883
-0.028061291 -0.032236844 -0.00021013618 8224126
-0.027269581 -0.032240193 -0.00054767728 8027003
-0.026479134 -0.032243535 -0.00088465214 8553090
-0.025689943 -0.032246873 -0.0012211204 8618883
-0.024902662 -0.032250121 -0.0015482903 8684676
-0.024128586 -0.032251734 -0.0017108321 8750469
-0.023355106 -0.032253344 -0.0018732548 8750469
-0.022582222 -0.032254953 -0.0020355284 8750469
-0.021812385 -0.032256205 -0.0021614134 8684676
-0.021052737 -0.032255985 -0.0021394491 8618883
-0.02029301 -0.032255769 -0.002117455 8618883
-0.019533206 -0.032255549 -0.0020954609 8618883
-0.018773321 -0.032255329 -0.0020734668 8618883
-0.018013356 -0.032255113 -0.0020514727 8618883
-0.017253313 -0.032254893 -0.0020294785 8618883
-0.016493192 -0.032254677 -0.0020074546 8618883
-0.015732547 -0.032254539 -0.0019937754 8684676
-0.014971778 -0.03225442 -0.0019815862 8684676
-0.014210964 -0.032254297 -0.0019693971 8684676
-0.013450103 -0.032254178 -0.0019572377 8684676
-0.012690999 -0.032253668 -0.0019059479 8750469
-0.011935001 -0.03225242 -0.0017802119 8750469
-0.011178553 -0.032251172 -0.0016543567 8750469
-0.010421654 -0.032249924 -0.0015284419 8750469
-0.0096643046 -0.032248672 -0.0014024377 8750469
-0.0089065023 -0.032247424 -0.0012763739 8750469
-0.0081482474 -0.032246172 -0.0011502504 8750469
-0.0073895412 -0.032244921 -0.0010240376 8816262
-0.0066303811 -0.032243665 -0.00089773536 8816262
-0.0058715171 -0.032242164 -0.00074622035 8816262
-0.005112465 -0.032240532 -0.00058189034 8947848
-0.0043528224 -0.032238901 -0.00041741133 8947848
-0.0035925894 -0.032237269 -0.0002528429 8947848
-0.0028340104 -0.032234646 1.1414289e-05 8816262
-0.0020769057 -0.032230865 0.000392735 8816262
-0.0013184394 -0.032227073 0.00077474117 8882055
-0.00055831345 -0.032223448 0.0011403263 9079434
0.00020381389 -0.032220259 0.0014614165 9079434
0.00096709328 -0.03221707 0.0017829835 9145227
0.0017315266 -0.032213874 0.0021050572 9145227
0.0024971175 -0.032210678 0.0024276078 9145227
0.0032638677 -0.03220747 0.0027506351 9079434
0.0040317802 -0.032204263 0.0030741692 8947591
0.0048008575 -0.032201048 0.00339818 8552832
0.0055711027 -0.032197826 0.0037226975 8486781
0.0063425181 -0.032194603 0.0040476918 8487037
0.0071151066 -0.032191373 0.0043731928 8420988
0.007889241 -0.03218678 0.0048362613 8355195
0.008665246 -0.032181747 0.0053435564 8355195
0.0094430884 -0.032176703 0.0058520436 8355195
0.010222775 -0.032171644 0.0063617527 8355451
0.011004312 -0.032166578 0.006872654 9211017
-0.035879385 -0.031360529 0.0093167424 8421504
-0.034581006 -0.031423293 0.0039637983 8947848
-0.033745483 -0.031431139 0.0032945275 8947848
-0.032912571 -0.031438962 0.0026273727 8947848
-0.032082252 -0.031446759 0.0019622743 8947848
-0.031254523 -0.031454533 0.001299262 8947848
-0.030437989 -0.031461127 0.00073695183 8684676
-0.029642617 -0.031465102 0.00039792061 8618883
-0.028848516 -0.031469069 5.9425831e-05 8224126
-0.028055677 -0.031473033 -0.00027853251 8026747
-0.027264101 -0.031476989 -0.0006159544 8553090
-0.026473785 -0.031480938 -0.00095283985 8618883
-0.025684727 -0.03148488 -0.0012891591 8618883
-0.024896922 -0.031488821 -0.0016249716 8618883
-0.02411953 -0.03149128 -0.00183478 8750469
-0.023346281 -0.031493183 -0.0019971132 8750469
-0.022573626 -0.031495083 -0.0021592975 8750469
-0.021807639 -0.031495932 -0.0022315681 8618883
-0.021048119 -0.031495672 -0.002209574 8618883
-0.020288518 -0.031495415 -0.0021876097 8618883
-0.01952884 -0.031495158 -0.0021656156 8618883
-0.018769082 -0.031494901 -0.0021436214 8618883
-0.018009244 -0.031494644 -0.0021216273 8618883
-0.017249152 -0.03149442 -0.0021027029 8684676
-0.016488623 -0.031494278 -0.0020905137 8684676
-0.015728047 -0.031494133 -0.0020783544 8684676
-0.014967429 -0.031493992 -0.0020661652 8684676
-0.014206765 -0.03149385 -0.0020540059 8684676
-0.013446059 -0.031493705 -0.0020418167 8684676
-0.01268531 -0.031493563 -0.0020296276 8684676
-0.011929223 -0.031492174 -0.0019109249 8750469
-0.011173008 -0.031490698 -0.0017851591 8750469
-0.010416342 -0.031489223 -0.0016593337 8750469
-0.0096592251 -0.031487744 -0.0015334189 8750469
-0.0089016557 -0.031486269 -0.0014074147 8750469
-0.0081436355 -0.03148479 -0.0012813509 8750469
-0.0073851631 -0.031483311 -0.0011552274 8750469
-0.0066262376 -0.031481832 -0.0010290146 8750469
-0.0058668596 -0.03148035 -0.00090271235 8750469
-0.005107027 -0.031478867 -0.0007763505 8750469
-0.0043467409 -0.031477388 -0.00064992905 8816262
-0.0035860003 -0.031475902 -0.00052341819 8816262
-0.0028279559 -0.03147278 -0.00025710464 8947848
-0.0020700428 -0.03146904 6.1869621e-05 9145227
-0.0013109879 -0.031465296 0.00038132071 9145227
-0.00055078976 -0.031461544 0.00070127845 9145227
0.00021055574 -0.031457786 0.001021713 9145227
0.00097305095 -0.031454023 0.0013426244 9145227
0.0017366977 -0.031450257 0.0016640127 9145227
0.0025014998 -0.031446483 0.0019858778 9145227
0.0032674584 -0.031442702 0.0023082495 9145227
0.0040345774 -0.031438917 0.002631098 9013641
0.0048028585 -0.031435125 0.0029544532 8750468
0.0055723051 -0.031431329 0.0032782853 8421245
0.0063429195 -0.031427525 0.0036026239 8487037
0.007114782 -0.031422712 0.0040133595 8355195
0.0078883823 -0.031416785 0.0045186877 8355194
0.0086638108 -0.031410847 0.0050252378 8355195
0.009441074 -0.031404894 0.00553298 8355195
0.010220179 -0.031398926 0.0060419142 8355195
0.011001132 -0.031392947 0.0065520704 8355451
0.011783941 -0.031386949 0.0070634484 7176578
-0.035396658 -0.030645162 0.0044063628 9408399
-0.034543987 -0.030656338 0.0035801828 8882055
-0.033708412 -0.030665498 0.0029030442 8947848
-0.032876316 -0.030674508 0.0022370815 8947848
-0.032046814 -0.03068349 0.001573205 8947848
-0.031228488 -0.030691139 0.0010077357 8684676
-0.03043198 -0.030695733 0.00066828728 8618883
-0.029636743 -0.030700319 0.00032934546 8224126
-0.028842771 -0.030704895 -9.0301037e-06 8027003
-0.028050067 -0.030709466 -0.00034686923 8553090
-0.027258622 -0.030714029 -0.00068420172 8618883
-0.026468439 -0.030718585 -0.001020968 8618883
-0.025679512 -0.030723134 -0.0013571978 8618883
-0.024891833 -0.030727675 -0.0016929209 8618883
-0.024110479 -0.030731272 -0.0019586682 8684676
-0.023337459 -0.030733466 -0.0021209121 8750469
-0.022565035 -0.030735658 -0.0022830069 8684676
-0.021802898 -0.030735912 -0.0023016632 8618883
-0.021043502 -0.030735614 -0.0022796988 8618883
-0.020284027 -0.030735318 -0.0022577345 8618883
-0.019524476 -0.03073502 -0.0022357404 8618883
-0.018764842 -0.030734722 -0.0022137761 8618883
-0.018004684 -0.030734528 -0.0021994114 8684676
-0.01724435 -0.030734364 -0.0021872222 8684676
-0.016483972 -0.030734198 -0.0021750629 8684676
-0.015723549 -0.030734034 -0.0021628737 8684676
-0.014963083 -0.030733868 -0.0021507144 8684676
-0.014202572 -0.030733705 -0.002138555 8684676
-0.013442019 -0.030733541 -0.0021263659 8684676
-0.012681419 -0.030733375 -0.0021142066 8684676
-0.011923449 -0.030732393 -0.0020415783 8750469
-0.011167467 -0.030730693 -0.0019158721 8750469
-0.010411033 -0.030728992 -0.0017901361 8750469
-0.0096541494 -0.030727288 -0.0016642809 8750469
-0.0088968147 -0.030725585 -0.0015383661 8750469
-0.0081390273 -0.030723881 -0.0014123917 8750469
-0.0073807877 -0.030722175 -0.0012863278 8750469
-0.0066220951 -0.030720469 -0.0011602044 8750469
-0.0058629517 -0.030718762 -0.0010339916 8750469
-0.005103596 -0.030716937 -0.00089910626 8684676
-0.0043438715 -0.03071505 -0.0007596314 8684676
-0.0035829716 -0.030713536 -0.00064778328 8684676
-0.0028232341 -0.030711085 -0.00046652555 8684676
-0.0020630653 -0.030708486 -0.00027447939 8816262
-0.0013027028 -0.030705532 -5.6147575e-05 8882055
-0.00054328144 -0.030701213 0.0002631247 9145227
0.00021728361 -0.030696888 0.00058290362 9145227
0.00097899605 -0.030692555 0.00090315938 9145227
0.0017418587 -0.030688215 0.0012238622 9145227
0.0025058724 -0.030683869 0.0015451014 9145227
0.0032710419 -0.030679518 0.0018667877 9145227
0.0040373686 -0.03067516 0.0021889806 9079434
0.0048048552 -0.030670794 0.0025116503 8947847
0.0055735051 -0.030666422 0.0028348267 8552831
0.0063432883 -0.030661568 0.0031935871 8420987
0.0071144965 -0.030654758 0.0036970079 8355194
0.0078875236 -0.030647932 0.004201591 8355194
0.0086623775 -0.030641088 0.004707396 8355450
0.0094390623 -0.03063423 0.0052143633 8355195
0.010217587 -0.030627355 0.0057225525 8355195
0.010997957 -0.030620463 0.0062319636 8355195
0.011780178 -0.030613557 0.0067425668 8355451
-0.035365656 -0.029877055 0.0040909946 8816262
-0.034513671 -0.029889703 0.0032660365 8816262
-0.033671405 -0.029901261 0.0025122762 8947848
-0.032840129 -0.029911453 0.0018475354 8947848
-0.032020003 -0.029920172 0.0012788773 8684676
-0.031222349 -0.029925384 0.00093898177 8618883
-0.030425975 -0.029930586 0.00059962273 8224126
-0.029630868 -0.029935781 0.00026080012 8027003
-0.028837031 -0.029940967 -7.7486038e-05 8553090
-0.02804446 -0.029946145 -0.00041520596 8618883
-0.027253145 -0.029951315 -0.00075241923 8618883
-0.026463093 -0.029956479 -0.0010890961 8618883
-0.025674297 -0.029961631 -0.0014252067 8618883
-0.024886752 -0.029966777 -0.0017608106 8618883
-0.024101434 -0.029971709 -0.0020824969 8684676
-0.023328645 -0.029974194 -0.0022446215 8750469
-0.022557346 -0.029976482 -0.0023937225 8684676
-0.021798156 -0.029976144 -0.0023717582 8618883
-0.021038888 -0.029975807 -0.0023497939 8618883
-0.020279538 -0.02997547 -0.0023278296 8618883
-0.019519964 -0.02997517 -0.0023082197 8684676
-0.018759869 -0.029974984 -0.0022960603 8684676
-0.017999731 -0.029974798 -0.002283901 8684676
-0.017239548 -0.02997461 -0.0022717416 8684676
-0.016479323 -0.029974423 -0.0022595525 8684676
-0.015719052 -0.029974237 -0.0022473931 8684676
-0.014958737 -0.029974051 -0.0022352338 8684676
-0.01419838 -0.029973865 -0.0022230744 8684676
-0.013437979 -0.029973678 -0.0022108853 8684676
-0.012677532 -0.029973492 -0.0021987259 8684676
-0.011917681 -0.029973084 -0.0021721423 8750469
-0.011161929 -0.029971158 -0.0020465255 8750469
-0.010405729 -0.02996923 -0.0019208491 8750469
-0.0096490774 -0.029967302 -0.0017950833 8750469
-0.0088919736 -0.029965373 -0.0016692579 8750469
-0.008134421 -0.029963443 -0.0015433431 8750469
-0.0073766098 -0.029961422 -0.0014115274 8684676
-0.0066185552 -0.029959287 -0.0012723804 8684676
-0.0058600013 -0.029957153 -0.0011331439 8684676
-0.0051009473 -0.029955016 -0.00099381804 8684676
-0.0043407134 -0.029953279 -0.0008803606 8750469
-0.0035798163 -0.029951699 -0.00077736378 8684676
-0.00282051 -0.029948784 -0.00058731437 8684676
-0.0020605572 -0.029945843 -0.00039538741 8684676
-0.0012999154 -0.029942896 -0.00020328164 8684676
-0.00053858384 -0.029939948 -1.0997057e-05 8684676
0.00022343872 -0.029936997 0.00018146634 8882055
0.0009849295 -0.029932655 0.0004645884 9013641
0.0017470079 -0.029927749 0.00078466535 9145227
0.0025102366 -0.029922834 0.0011052191 9145227
0.0032746177 -0.029917911 0.0014262497 9145227
0.0040401542 -0.029912982 0.0017477572 9145227
0.0048068482 -0.029908046 0.0020697713 9013641
0.0055747023 -0.029903101 0.0023922622 8553088
0.0063435724 -0.029895646 0.0028784275 8289658
0.0071142116 -0.029887939 0.0033811033 8355194
0.0078866668 -0.029880214 0.0038849711 8355194
0.008660946 -0.02987247 0.0043900013 8355194
0.0094370544 -0.029864708 0.0048962533 8355195
0.010214998 -0.029856928 0.0054036677 8355195
0.010994785 -0.029849131 0.0059123039 8355195
0.011776421 -0.029841313 0.0064221621 8355451
0.012559913 -0.029833477 0.0069332123 6386548
-0.035334695 -0.029110078 0.0037760735 8816262
-0.034483399 -0.029124195 0.0029523373 8816262
-0.03363537 -0.029138256 0.0021317601 8882055
-0.032812521 -0.029148219 0.0015503466 8684676
-0.032013729 -0.029154051 0.0012100041 8618883
-0.03121621 -0.029159874 0.00087022781 8224126
-0.03041997 -0.029165687 0.00053098798 8027003
-0.029624997 -0.029171491 0.00019225478 8553090
-0.02883129 -0.029177286 -0.00014591217 8618883
-0.02803885 -0.029183071 -0.00048354268 8618883
-0.027247669 -0.029188849 -0.00082063675 8618883
-0.026457751 -0.029194616 -0.0011571944 8618883
-0.025669085 -0.029200375 -0.0014932156 8618883
-0.02488167 -0.029206123 -0.0018287003 8618883
-0.024095505 -0.029211864 -0.0021636486 8618883
-0.023319835 -0.029215369 -0.0023682714 8750469
-0.022552481 -0.029217007 -0.0024637878 8618883
-0.021793418 -0.029216629 -0.0024418235 8618883
-0.021034274 -0.029216252 -0.0024198592 8618883
-0.020274607 -0.029215995 -0.0024048388 8684676
-0.019514708 -0.029215787 -0.0023926795 8684676
-0.018754765 -0.029215578 -0.0023805201 8684676
-0.01799478 -0.029215371 -0.0023683608 8684676
-0.017234748 -0.029215163 -0.0023562014 8684676
-0.016474674 -0.029214954 -0.0023440421 8684676
-0.015714556 -0.029214745 -0.0023318827 8684676
-0.014954394 -0.029214537 -0.0023197234 8684676
-0.014194189 -0.029214328 -0.0023075342 8684676
-0.013433939 -0.02921412 -0.0022953749 8684676
-0.012673646 -0.029213913 -0.0022832155 8684676
-0.011913309 -0.029213704 -0.0022710562 8684676
-0.011156395 -0.029212093 -0.0021770895 8750469
-0.010400426 -0.029209942 -0.0020514727 8750469
-0.0096441284 -0.029207734 -0.0019226968 8684676
-0.0088877343 -0.029205356 -0.0017839074 8684676
-0.0081308447 -0.029202975 -0.0016449988 8684676
-0.0073734573 -0.029200593 -0.0015060008 8684676
-0.0066155712 -0.029198211 -0.0013669133 8684676
-0.0058571859 -0.029195825 -0.0012277365 8684676
-0.0050976244 -0.029193852 -0.0011126697 8750469
-0.004337328 -0.02919209 -0.0010097921 8750469
-0.003576837 -0.029190203 -0.00089970231 8684676
-0.0028177877 -0.029186919 -0.00070804358 8684676
-0.0020580511 -0.029183632 -0.00051623583 8684676
-0.0012976252 -0.029180342 -0.00032421947 8684676
-0.00053650932 -0.029177049 -0.00013205409 8684676
0.00022529671 -0.029173752 6.0290098e-05 8684676
0.00098779425 -0.029170454 0.0002528131 8684676
0.0017509847 -0.029167153 0.00044548512 8816262
0.0025145919 -0.02916337 0.00066623092 8882055
0.0032781865 -0.029157879 0.00098660588 9145227
0.0040429337 -0.029152382 0.0013074577 9145227
0.0048088366 -0.029146874 0.0016288161 9013641
0.0055755936 -0.029139433 0.0020630062 8684676
0.0063438565 -0.029130854 0.0025637448 8355452
0.007113927 -0.029122252 0.0030656755 8289658
0.0078858119 -0.029113632 0.0035687983 8355194
0.0086595165 -0.029104989 0.0040730834 8355195
0.0094350483 -0.029096328 0.0045785904 8355195
0.010212414 -0.029087644 0.0050852597 8355451
0.010991619 -0.029078942 0.0055931509 8355451
0.01177267 -0.029070217 0.0061022341 8355195
0.012555575 -0.029061472 0.0066125393 8355451
0.013340338 -0.029052708 0.0071240366 6386805
-0.036157683 -0.02832859 0.0042873323 8684676
-0.035303783 -0.028344229 0.0034616292 8816262
-0.034453169 -0.028359808 0.0026390851 8816262
-0.033610262 -0.028374437 0.0018666387 8684676
-0.032797121 -0.028383568 0.0013845563 8947848
-0.032001406 -0.028389437 0.0010747313 8421761
-0.031206848 -0.028395297 0.00076535344 8158589
-0.030413447 -0.028401148 0.00045642257 8684676
