# .PCD v0.7 - Point Cloud Data file format
VERSION 0.7
FIELDS x y z rgb
SIZE 4 4 4 4
TYPE F F F U
COUNT 1 1 1 1
WIDTH 1175
HEIGHT 1
VIEWPOINT 0 0 0 1 0 0 0
POINTS 1175
DATA ascii
0.14931643 0.13082524 0.51256007 8947848
0.15014826 0.13074449 0.51224369 8947848
0.15097903 0.13066381 0.5119276 8947848
0.1518088 0.13058326 0.511612 8947848
0.15263753 0.13050278 0.51129669 8947848
0.15346524 0.13042241 0.51098186 8947848
0.15429194 0.13034216 0.51066738 8947848
0.15511762 0.13026197 0.51035327 8882055
0.15593889 0.13017908 0.51002848 8882055
0.1567494 0.13008821 0.50967246 8816262
0.15755878 0.12999748 0.50931698 8816262
0.15836704 0.12990688 0.50896204 8750469
0.15924595 0.12987494 0.50883693 8553090
0.16020511 0.12990844 0.50896817 8487297
0.16116475 0.12994194 0.50909942 8487297
0.16212487 0.12997547 0.50923073 8487297
0.16308551 0.13000901 0.50936216 8487297
0.16404662 0.13004255 0.50949359 8487297
0.16500823 0.13007613 0.50962514 8487297
0.16597036 0.13010971 0.50975674 8421504
0.16693296 0.13014333 0.50988841 7895417
0.16789606 0.13017695 0.51002014 6185315
0.16885966 0.13021058 0.51015192 5987936
0.16998617 0.1303688 0.51077181 6119779
0.171114 0.1305263 0.5113889 6119779
0.17220275 0.13065249 0.51188326 6251108
0.17329243 0.13077801 0.51237506 6251108
0.17438419 0.13090378 0.51286781 6316901
0.17547804 0.13102978 0.51336145 6448487
0.17657404 0.13115604 0.51385611 6645866
0.1776721 0.13128252 0.51435167 6908780
0.17877232 0.13140926 0.51484823 7632246
0.18005571 0.13166864 0.51586443 8158332
0.18137051 0.13194822 0.51695979 8618624
0.18269092 0.13222899 0.51805979 8881539
0.18408623 0.13256083 0.51935995 9276812
0.1857288 0.13306646 0.52134097 9539985
0.1872071 0.1334499 0.52284324 9539985
0.18947175 0.13438722 0.5265156 8026746
0.13558386 0.13654205 0.53120387 6118749
0.13522194 0.13522194 0.52606815 8487297
0.13578166 0.13483545 0.5245645 8553090
0.13640065 0.13451275 0.52330911 8421504
0.13701274 0.13418773 0.5220446 8421504
0.13762186 0.13386427 0.52078623 8421504
0.13829629 0.13360828 0.51979035 8553090
0.13907196 0.13345289 0.51918578 8553090
0.13982224 0.13327537 0.5184952 8553090
0.14057052 0.13309833 0.51780641 8092796
0.14131683 0.13292177 0.51711953 7763832
0.14206114 0.13274565 0.51643437 7435124
0.14281176 0.13257769 0.51578093 7566709
0.14359646 0.13244332 0.51525819 8027003
0.14440495 0.13233252 0.51482707 8684676
0.1452121 0.13222188 0.51439667 8750469
0.14601791 0.13211145 0.51396704 8750469
0.14682238 0.13200119 0.51353812 8816262
0.14762549 0.13189112 0.51310986 8816262
0.14843868 0.13179135 0.51272172 8882055
0.14927128 0.13170995 0.51240504 8947848
0.15010287 0.13162866 0.51208884 8947848
0.15093343 0.13154748 0.51177299 8882055
0.15176296 0.13146639 0.5114575 8882055
0.15259147 0.1313854 0.51114243 8882055
0.15341897 0.13130452 0.51082778 8882055
0.15424545 0.13122374 0.51051348 8882055
0.1550709 0.13114305 0.51019955 8750469
0.15589613 0.13106312 0.50988859 8750469
0.15672573 0.13098778 0.50959551 8750469
0.15755439 0.13091254 0.50930279 8750469
0.15846373 0.13090482 0.50927275 8947848
0.15941998 0.13093571 0.50939298 8947848
0.16037671 0.13096665 0.50951332 8947848
0.16133387 0.13099758 0.50963366 8882056
0.16229147 0.13102852 0.509754 8882056
0.16324952 0.13105948 0.50987446 8882055
0.16420805 0.13109046 0.50999498 8882055
0.16516702 0.13112146 0.51011556 8816262
0.16612646 0.13115247 0.5102362 8355712
0.16708632 0.13118348 0.51035684 6974573
0.16804665 0.13121451 0.5104776 5922400
0.16900745 0.13124557 0.51059842 5856351
0.16999789 0.13129918 0.51080698 5856350
0.17107292 0.1314172 0.51126611 6053729
0.17216533 0.13154724 0.51177204 6251108
0.17325993 0.13167754 0.51227897 6448487
0.17435668 0.1318081 0.51278692 6974574
0.17545563 0.13193893 0.51329589 7435125
0.17655677 0.13207002 0.51380587 7961211
0.17766008 0.13220137 0.51431686 8421761
0.17876559 0.13233297 0.51482886 8618883
0.17995501 0.13252501 0.51557595 8421504
0.18121782 0.13276884 0.51652455 8553088
0.18253678 0.13305111 0.51762271 8947332
0.18389104 0.13335611 0.51880926 9145225
0.18545599 0.13381001 0.52057517 9539985
0.18693131 0.13419501 0.52207297 9539985
0.18886138 0.13490099 0.52481949 8026746
0.13552004 0.13743551 0.53095382 8421504
0.13539128 0.13634139 0.5267269 8421504
0.13566163 0.13566163 0.52410078 8750469
0.13640054 0.13545659 0.52330863 8553090
0.1370126 0.13512927 0.52204412 8421504
0.13762172 0.13480353 0.52078569 8421504
0.13822791 0.13447936 0.51953334 8553090
0.13904893 0.13436715 0.51909983 9079434
0.13987264 0.13425903 0.51868212 8750469
0.14062113 0.13408062 0.51799285 8421504
0.14136763 0.13390268 0.51730543 8421504
0.14211215 0.13372521 0.5166198 7961210
0.14285471 0.13354822 0.51593602 6777195
0.14359529 0.13337168 0.51525402 6185571
0.14439766 0.13325444 0.51480108 7106416
0.14520165 0.13314018 0.51435965 8027003
0.14600429 0.13302612 0.51391906 8553090
0.14680552 0.13291226 0.51347917 8684676
0.14760542 0.1327986 0.51304007 8684676
0.14843069 0.13270906 0.51269412 8684676
0.14927948 0.13264151 0.51243317 8618883
0.15011705 0.1325649 0.51213723 8618883
0.15095365 0.13248837 0.51184154 8618883
0.15178929 0.13241194 0.51154625 8618883
0.15262397 0.13233557 0.51125127 8618883
0.15345767 0.13225931 0.51095665 8618883
0.15429044 0.13218315 0.51066238 8553090
0.15512224 0.13210706 0.51036847 8553090
0.15595308 0.13203107 0.51007485 8487297
0.15678294 0.13195515 0.50978154 8487297
0.15761188 0.13187933 0.50948864 8421761
0.15849568 0.13185003 0.50937545 8553090
0.15943563 0.13186751 0.50944299 8750469
0.16039243 0.13189864 0.50956327 8684676
0.1613497 0.13192981 0.50968367 8618883
0.1623074 0.13196097 0.50980407 8553091
0.16326556 0.13199216 0.50992453 8553091
0.16422419 0.13202336 0.51004511 8487297
0.16518326 0.13205458 0.51016569 8092796
0.16614278 0.13208582 0.51028633 7435123
0.16710275 0.13211705 0.51040703 7040623
0.16808233 0.13216336 0.51058596 7171952
0.16906473 0.13221139 0.51077145 7369331
0.17008439 0.13228786 0.51106691 7763832
0.17114525 0.13239539 0.5114823 8158590
0.17220926 0.13250418 0.51190263 8684933
0.1733042 0.13263547 0.51240987 8948105
0.17440128 0.13276702 0.51291806 9013898
0.17550054 0.13289882 0.51342726 9145227
0.17660201 0.13303091 0.51393753 9145227
0.17770565 0.13316324 0.51444876 9145227
0.17881148 0.13329583 0.514961 9079434
0.17998387 0.13347641 0.51565862 9079434
0.18121149 0.13369587 0.51650649 8882054
0.18244313 0.13391605 0.51735711 8750210
0.18370606 0.13415685 0.51828736 8881795
0.18518396 0.13455138 0.51981157 9539985
0.18665631 0.13493794 0.52130497 9539985
0.18825495 0.13541146 0.52313429 8026746
0.13544135 0.13831291 0.53064555 8421504
0.13556102 0.13746363 0.52738726 8421504
0.13554181 0.13648635 0.52363789 8684676
0.13628377 0.13628377 0.52286065 8750469
0.13701247 0.1360708 0.52204359 8553090
0.13762158 0.13574278 0.52078515 8421504
0.13822778 0.13541636 0.5195328 8421504
0.13895641 0.13521348 0.51875442 9079434
0.13979958 0.135124 0.51841116 9079434
0.14064161 0.13503464 0.51806831 8750469
0.14141847 0.13488428 0.51749146 8421504
0.14216319 0.13470545 0.51680535 8421504
0.14290595 0.1345271 0.51612109 8421504
0.14364673 0.13434921 0.51543862 8158332
0.14439781 0.13418318 0.51480162 7369330
0.14520182 0.13406813 0.51436025 7303794
0.14600444 0.13395327 0.51391959 7566710
0.14680569 0.13383862 0.51347971 8027004
0.14760557 0.13372417 0.5130406 8224125
0.14843477 0.13363753 0.51270825 8421505
0.14931661 0.13359907 0.51256067 8355712
0.15017213 0.13353768 0.51232511 8092540
0.15100902 0.13346057 0.51202929 8027003
0.15184493 0.13338354 0.51173377 8026747
0.15267988 0.13330659 0.51143855 7961210
0.15351386 0.13322975 0.51114374 8026746
0.15434688 0.13315299 0.51084924 8026747
0.15517896 0.13307633 0.51055509 8092539
0.15601006 0.13299973 0.51026124 8158332
0.15684021 0.13292323 0.50996774 8158332
0.15768138 0.13285691 0.50971329 8224125
0.1585677 0.13282917 0.5096069 8355711
0.15945365 0.13280146 0.50950056 8553090
0.16040817 0.13283083 0.50961328 8816262
0.16136552 0.13286221 0.50973368 8882055
0.16232334 0.13289362 0.50985414 8947848
0.1632816 0.13292503 0.50997466 9013641
0.16424032 0.13295645 0.51009518 9079434
0.16519949 0.13298789 0.51021582 9013641
0.16617987 0.13303596 0.51040024 8947848
0.1671612 0.13308425 0.51058555 8947848
0.16814326 0.13313261 0.51077104 8947848
0.16912602 0.13318099 0.51095665 8947848
0.17017098 0.13327754 0.51132709 8947848
0.17123245 0.13338591 0.51174289 8947848
0.17229564 0.13349448 0.51215941 8947848
0.17336056 0.1336032 0.51257652 9013641
0.17444588 0.13372642 0.51304924 9145227
0.17554548 0.13385922 0.51355875 9145227
0.17664725 0.13399227 0.5140692 9145227
0.17775123 0.13412561 0.51458073 9145227
0.1788574 0.13425919 0.51509327 9079434
0.18001272 0.1344281 0.51574129 9210763
0.18124059 0.13464917 0.51658946 9144970
0.1824725 0.13487098 0.51744038 8816003
0.18375449 0.13512735 0.51842397 8487037
0.1850976 0.13542584 0.51956916 8552574
0.18644664 0.13572563 0.52071935 9013383
0.18786003 0.13606904 0.52203685 7631730
0.13511829 0.13992676 0.53314763 6118749
0.13536274 0.13918926 0.53033757 8421504
0.13560465 0.13845949 0.52755702 8421504
0.13542221 0.13730963 0.52317584 8684676
0.13616367 0.13710599 0.5223999 8750469
0.13690294 0.13690294 0.52162629 8750469
0.13762143 0.13668205 0.52078462 8553090
0.13822763 0.13635336 0.51953226 8421504
0.13886401 0.13605869 0.51840949 8882055
0.13970667 0.1359687 0.51806664 9079434
0.14054821 0.13587885 0.51772428 9079434
0.14138867 0.13578911 0.51738238 9079434
0.14221428 0.13568641 0.51699108 8750469
0.14295723 0.13550669 0.51630628 8421504
0.14369822 0.13532744 0.51562333 8421504
0.14443724 0.13514867 0.51494217 8421504
0.14520197 0.13499609 0.51436079 8553090
0.1460046 0.13488044 0.51392019 8684676
0.14680585 0.134765 0.51348031 8684676
0.14760572 0.13464974 0.51304114 8553091
0.14843889 0.13456608 0.51272243 8750470
0.14932072 0.13452734 0.51257479 8816262
0.15020207 0.13448863 0.51242727 8882055
0.15106441 0.13443346 0.5122171 8684676
0.15190059 0.13435584 0.51192135 8618883
0.15273581 0.13427831 0.51162595 8618883
0.15357007 0.13420087 0.5113309 8618883
0.15440339 0.13412353 0.51103622 8618883
0.15523572 0.13404627 0.51074183 8618883
0.1560671 0.1339691 0.5104478 8618883
0.15689752 0.13389201 0.51015407 8618883
0.15775307 0.13383715 0.50994503 8750469
0.15863979 0.13380921 0.50983858 8750469
0.15952612 0.13378127 0.50973213 8750469
0.16042393 0.13376322 0.50966334 8882055
0.16138138 0.13379481 0.50978374 9079434
0.16233929 0.13382643 0.50990421 9079434
0.16329919 0.13385934 0.51002955 9013641
0.16427878 0.1339079 0.51021463 8947848
0.16525906 0.13395651 0.51039982 8947848
0.16624007 0.13400514 0.51058513 8947848
0.16722178 0.13405383 0.51077062 8947848
0.16820422 0.13410254 0.51095623 8947848
0.16919731 0.13415918 0.511172 8947848
0.17025766 0.13426824 0.51158756 8947848
0.17131974 0.13437748 0.51200378 8947848
0.17238353 0.13448688 0.51242065 8947848
0.17344908 0.13459648 0.51283824 8947848
0.17451636 0.13470627 0.51325655 8947848
0.17559043 0.13482009 0.51369023 9013641
0.17669253 0.13495414 0.51420099 9145227
0.17779684 0.13508846 0.51471275 9145227
0.17890333 0.13522303 0.51522553 9145227
0.1800416 0.13538012 0.51582402 9211019
0.18126971 0.13560279 0.51667243 9145227
0.18250552 0.13582891 0.51753402 8750211
0.18384354 0.13612843 0.51867521 8487037
0.18518749 0.13642927 0.51982147 8552574
0.18653657 0.13673083 0.52097052 8552574
0.18788195 0.13702668 0.52209777 7368557
0.13498682 0.14075138 0.53262889 8421504
0.13528423 0.1400646 0.53002995 8421504
0.1355264 0.13933066 0.52725261 8421504
0.13553849 0.13837205 0.52362508 8487297
0.1360438 0.13792676 0.52193999 8750469
0.1367826 0.13772269 0.52116776 8750469
0.13751923 0.13751923 0.52039784 8750469
0.13822751 0.13729037 0.51953179 8553090
0.13883078 0.136961 0.51828539 8553090
0.1396139 0.13681228 0.51772261 9079434
0.14045495 0.13672192 0.51738071 9079434
0.1412949 0.1366317 0.51703924 9079434
0.14213373 0.13654158 0.51669824 9079434
0.14297146 0.13645159 0.51635766 8750469
0.14374973 0.13630638 0.51580817 8421504
0.14448895 0.13612625 0.51512653 8421504
0.14522623 0.13594659 0.51444668 8487297
0.14600475 0.1358076 0.51392072 8684676
0.146806 0.13569136 0.51348084 8684676
0.1476059 0.13557532 0.51304173 8684676
0.14844297 0.13549468 0.51273656 8947848
0.14932486 0.13545568 0.51258898 8947848
0.15020621 0.13541667 0.5124414 8947848
0.15108709 0.13537772 0.51229399 8947848
0.1519563 0.13532886 0.5121091 8750469
0.15279181 0.13525076 0.51181352 8618883
0.15362634 0.13517272 0.51151824 8618883
0.15445991 0.13509479 0.51122332 8618883
0.15529251 0.13501693 0.51092869 8618883
0.15612417 0.13493918 0.51063448 8618883
0.15695487 0.13486151 0.51034057 8618883
0.15782483 0.1348183 0.51017702 8750469
0.15871193 0.13479014 0.51007044 8750469
0.15959866 0.13476199 0.50996393 8750469
0.16048501 0.13473384 0.50985742 8750469
0.16140051 0.13473034 0.50984418 8816262
0.16237906 0.13477921 0.51002914 8947848
0.16335832 0.13482812 0.51021421 8947848
0.16433826 0.13487707 0.5103994 8947848
0.16531895 0.13492605 0.51058477 8947848
0.16630031 0.13497505 0.5107702 8947848
0.16728242 0.1350241 0.51095581 8947848
0.16826522 0.13507318 0.51114154 8947848
0.16928346 0.13515002 0.51143229 8947848
0.17034443 0.13525994 0.51184827 8947848
0.17140712 0.13537003 0.51226491 8947848
0.17247154 0.13548033 0.51268226 8947848
0.1735377 0.13559079 0.51310027 8947848
0.17460558 0.13570142 0.51351893 8947848
0.17567523 0.13581225 0.51393831 8947848
0.17674662 0.13592327 0.5143584 9013641
0.17784248 0.13605182 0.51484489 9145227
0.1789493 0.13618739 0.51535791 9145227
0.18007047 0.13633242 0.51590675 9211020
0.18129884 0.1365567 0.51675546 9145227
0.18259379 0.1368286 0.51778436 8816004
0.18393265 0.13713045 0.51892662 8552574
0.18527085 0.13742876 0.52005547 8552574
0.18661113 0.13772561 0.52117878 8552830
0.18795721 0.13802372 0.52230692 8684417
0.13480665 0.141523 0.53191799 8421504
0.13515884 0.14088996 0.52953869 8421504
0.13544826 0.14020082 0.52694857 8421504
0.13568819 0.13947043 0.52420336 8421504
0.13592415 0.1387461 0.52148092 8750469
0.13666247 0.138541 0.52071005 8750469
0.13739863 0.13833649 0.51994145 8750469
0.1381326 0.1381326 0.51917511 8750469
0.13883065 0.13789576 0.51828492 8487297
0.13952124 0.13765474 0.51737905 8882055
0.1403618 0.13756388 0.51703757 9079434
0.14120124 0.13747317 0.51669657 9079434
0.14203958 0.13738255 0.51635599 9079434
0.14287682 0.13729206 0.51601589 9079434
0.14371295 0.13720168 0.5156762 9079434
0.1445407 0.13710451 0.515311 8750469
0.14527816 0.13692351 0.51463068 8421504
0.14601368 0.13674298 0.51395214 8553090
0.14680617 0.13661772 0.51348138 8684676
0.14760605 0.1365009 0.51304227 8684676
0.14844707 0.13642332 0.51275069 8947848
0.14932898 0.13638404 0.5126031 8947848
0.15021035 0.13634478 0.51245552 8947848
0.15109125 0.13630556 0.51230812 8947848
0.15197162 0.13626635 0.51216072 8947848
0.15284784 0.13622391 0.51200122 8750469
0.15368263 0.13614528 0.5117057 8618883
0.15451647 0.13606675 0.51141053 8618883
0.15534936 0.13598831 0.51111573 8618883
0.15618129 0.13590997 0.51082128 8618883
0.15701225 0.13583171 0.51052713 8684676
0.15789665 0.13580033 0.51040918 8750469
0.15878415 0.13577196 0.51030254 8750469
0.15967126 0.13574359 0.51019591 8750469
0.16058345 0.13573673 0.51017016 8618883
0.16152918 0.13575815 0.51025063 8618883
0.1624752 0.13577954 0.51033109 8618883
0.16342151 0.13580097 0.51041162 8750469
0.16439782 0.13584693 0.51058435 8947848
0.16537885 0.13589627 0.51076978 8947848
0.16636062 0.13594565 0.51095539 8947848
0.16734308 0.13599508 0.51114112 8947848
0.16832629 0.13604453 0.51132703 8947848
0.1693697 0.13614185 0.51169282 8947848
0.17043127 0.13625264 0.51210922 8947848
0.17149459 0.13636363 0.51252633 8947848
0.1725596 0.13647476 0.51294404 8947848
0.17362639 0.1365861 0.51336253 8947848
0.1746949 0.13669761 0.51378161 8947848
0.17576516 0.13680929 0.5142014 8947848
0.17683718 0.13692117 0.51462191 8947848
0.17791094 0.13703322 0.51504308 8947848
0.17899528 0.13715224 0.51549035 9013641
0.18010466 0.13728908 0.51600468 9145227
0.18134832 0.13752636 0.51689655 9079434
0.18268012 0.13782771 0.51802915 8881798
0.18400957 0.13812423 0.51914364 8552574
0.18534479 0.13842206 0.52026302 8552830
0.18668574 0.13872115 0.52138716 8552830
0.18803254 0.13902156 0.52251625 8618880
0.13426569 0.14292799 0.5335812 6118749
0.13462649 0.14229207 0.53120714 8421504
0.13497962 0.14165707 0.52883655 8421504
0.13532887 0.14102693 0.52648413 8421504
0.13561039 0.14033549 0.52390283 8421504
0.13580468 0.13956398 0.52102262 8618883
0.13654254 0.13935786 0.52025312 8750469
0.13727823 0.13915233 0.51948583 8750469
0.13801175 0.13894743 0.51872087 8750469
0.1387431 0.1387431 0.5179581 8750469
0.1394309 0.13849825 0.51704401 8816262
0.14026877 0.13840474 0.5166949 9079434
0.14110774 0.13831352 0.51635438 9079434
0.14194557 0.13822241 0.51601422 9079434
0.14278232 0.13813142 0.51567459 9079434
0.14361796 0.13804057 0.51533538 9079434
0.1444525 0.13794981 0.51499659 9079434
0.14528595 0.1378592 0.51465827 8882055
0.14606586 0.13771923 0.51413578 8553090
0.14680631 0.13754408 0.51348191 8553090
0.14760621 0.13742647 0.51304281 8684676
0.14845116 0.13735202 0.51276487 8947848
0.14933309 0.13731247 0.51261723 8947848
0.15021451 0.13727295 0.51246971 8947848
0.15109542 0.13723345 0.51232225 8947848
0.15197581 0.13719396 0.51217484 8947848
0.15285571 0.13715452 0.51202756 8947848
0.15373509 0.13711508 0.51188034 8750469
0.1545731 0.13703944 0.51159793 8618883
0.15540627 0.13696042 0.51130295 8618883
0.15623845 0.13688149 0.51100826 8618883
0.15708029 0.13681187 0.51074839 8684676
0.15796855 0.13678326 0.51064157 8750469
0.15885642 0.13675466 0.51053482 8684676
0.15978152 0.13675824 0.51054817 8618883
0.16072781 0.13677983 0.51062876 8618883
0.1616744 0.13680141 0.51070935 8618883
0.16262129 0.13682301 0.51078999 8618883
0.16356848 0.13684462 0.51087064 8618883
0.16451596 0.13686621 0.51095128 8618883
0.16546375 0.13688783 0.51103199 8684676
0.16642095 0.13691697 0.5111407 8750469
0.16740382 0.13696675 0.51132661 8947848
0.16839556 0.13702324 0.51153749 8947848
0.16945603 0.13713472 0.51195365 8947848
0.17051822 0.13724637 0.51237047 8947848
0.17158215 0.13735822 0.512788 8947848
0.17264779 0.13747023 0.51320618 8947848
0.17371517 0.13758242 0.51362503 8947848
0.17478432 0.13769481 0.51404458 8947848
0.17585519 0.13780737 0.5144648 8947848
0.17692783 0.13792013 0.51488572 8947848
0.17800224 0.13803306 0.51530737 8947848
0.17907839 0.13814618 0.51572967 8947848
0.18015629 0.13825947 0.51615262 9013641
0.18142825 0.13851978 0.51712435 9013641
0.18275271 0.13881728 0.51823503 8816261
0.18408288 0.13911606 0.51935047 8552574
0.18541877 0.13941614 0.52047068 8552830
0.18676044 0.1397175 0.52159578 8552830
0.18810792 0.14002018 0.5227257 8552830
0.13408571 0.14369759 0.53286594 8421504
0.13444681 0.14305906 0.53049815 8421504
0.13480088 0.14242214 0.52813625 8421504
0.13515046 0.14178944 0.52579004 8421504
0.13549694 0.14116232 0.52346456 8421504
0.13568544 0.14038044 0.52056515 8553090
0.13642283 0.14017329 0.51979697 8750469
0.13715805 0.13996674 0.51903105 8750469
0.1378911 0.13976081 0.51826739 8684676
0.13863891 0.1395725 0.51756912 8487297
0.13943395 0.13943395 0.51705533 8487297
0.14023077 0.13929902 0.51655495 8553090
0.14104678 0.13918477 0.51613134 8553090
0.14186144 0.13907072 0.51570839 8750469
0.14268793 0.13896969 0.51533371 8750469
0.14352308 0.13887832 0.51499492 8882055
0.14435714 0.13878709 0.5146566 8882055
0.1451901 0.13869599 0.51431876 9079434
0.14602196 0.13860497 0.51398128 9079434
0.14685206 0.13851345 0.51364189 8750469
0.14760636 0.13835204 0.51304334 8618883
0.14845526 0.13828075 0.512779 8947848
0.1493372 0.13824095 0.51263136 8947848
0.15021865 0.13820116 0.51248384 8947848
0.15109958 0.13816139 0.51233637 8947848
0.15198 0.13812165 0.51218897 8947848
0.15285993 0.13808192 0.51204169 8947848
0.15373933 0.13804223 0.51189446 8947848
0.15461825 0.13800256 0.51174736 8750469
0.15546319 0.13793321 0.51149023 8618883
0.15629564 0.13785368 0.5111953 8618883
0.15715186 0.13779591 0.51098108 8750469
0.15804051 0.13776709 0.51087421 8684676
0.15897837 0.13778125 0.51092672 8618883
0.15992522 0.137803 0.51100737 8618883
0.1608724 0.13782477 0.51108813 8618883
0.16181986 0.13784654 0.51116884 8618883
0.16276763 0.13786834 0.51124966 8618883
0.16371569 0.13789012 0.51133043 8618883
0.16466406 0.13791192 0.51141125 8618883
0.16561274 0.13793373 0.51149213 8618883
0.16656154 0.13795541 0.51157254 8618883
0.16750918 0.13797589 0.51164848 8684676
0.1684853 0.13801946 0.51181006 8816262
0.16954502 0.13813069 0.51222253 8947848
0.17060831 0.13824359 0.51264119 8947848
0.17167333 0.13835667 0.51306051 8947848
0.17274009 0.13846993 0.51348054 8947848
0.17380859 0.13858339 0.51390123 8947848
0.17487887 0.13869703 0.51432264 8947848
0.17595087 0.13881084 0.5147447 8947848
0.17702465 0.13892485 0.51516747 8947848
0.1781002 0.13903905 0.51559097 8947848
0.17917752 0.13915345 0.51601517 8882055
0.18036291 0.13935016 0.51674461 8816262
0.18162365 0.13960275 0.5176813 8750469
0.18288894 0.13985625 0.51862133 8487039
0.18415885 0.14011069 0.51956481 8420987
0.18549281 0.14041102 0.52067852 8487037
0.18683518 0.14071466 0.52180451 8552830
0.18818338 0.14101963 0.52293539 8552830
0.13420306 0.14478537 0.53333229 8421504
0.13426763 0.14382404 0.52979112 8421504
0.13462263 0.1431852 0.52743787 8421504
0.13497253 0.14254993 0.52509779 8421504
0.13531935 0.1419203 0.52277845 8421504
0.13566311 0.14129618 0.52047944 8487297
0.13636136 0.14104733 0.51956278 8553090
0.13716173 0.14090677 0.519045 8421504
0.13796049 0.14076647 0.51852822 8421504
0.13875766 0.14062646 0.51801246 8421504
0.13955326 0.14048673 0.51749778 8421504
0.14034727 0.14034727 0.51698405 8421504
0.14113972 0.1402081 0.51647139 8421504
0.1419456 0.14008401 0.51601434 8421504
0.14275932 0.13996924 0.51559156 8421504
0.14357173 0.13985467 0.5151695 8421504
0.14438282 0.13974029 0.51474816 8421504
0.14519256 0.13962607 0.51432747 8421504
0.146001 0.13951206 0.51390749 8421504
0.1468081 0.13939823 0.51348817 8553090
0.1476139 0.1392846 0.51306957 8684676
0.14846393 0.13921385 0.51280898 8750469
0.14934132 0.13916947 0.51264548 8750469
0.15022279 0.13912942 0.51249796 8750469
0.15110375 0.13908939 0.5123505 8882055
0.1519842 0.13904937 0.5122031 8882055
0.15286413 0.13900937 0.51205575 8882055
0.15374358 0.13896942 0.51190859 8947848
0.1546225 0.13892947 0.51176143 8947848
0.15550092 0.13888955 0.51161438 8882055
0.15635291 0.13882662 0.51138258 8618883
0.15722688 0.13878384 0.51122499 8684676
0.15817402 0.13880578 0.51130581 8618883
0.15912147 0.13882773 0.51138663 8618883
0.16006921 0.13884966 0.51146746 8618883
0.16101624 0.13887075 0.51154512 8684676
0.16196302 0.13889135 0.51162106 8684676
0.16291006 0.13891198 0.51169699 8684676
0.16385739 0.1389326 0.51177299 8684676
0.164805 0.13895324 0.51184899 8684676
0.1657529 0.13897388 0.51192504 8684676
0.16670108 0.13899453 0.5120011 8684676
0.16764954 0.13901518 0.51207715 8684676
0.16864339 0.13907304 0.5122903 8750469
0.16966142 0.1391501 0.51257414 8816262
0.17070292 0.13924547 0.51292545 8882055
0.17176861 0.13935943 0.51334524 8947848
0.17283604 0.13947359 0.51376575 8947848
0.17390522 0.13958792 0.51418692 8947848
0.17497616 0.13970245 0.5146088 8947848
0.17604885 0.13981716 0.51503134 8947848
0.17712331 0.13993207 0.51545459 8947848
0.17819954 0.14004716 0.51587856 8947848
0.17935088 0.14021978 0.51651442 8816262
0.1806092 0.14047381 0.51745021 8816262
0.1818721 0.1407288 0.51838946 8750469
0.18313959 0.1409847 0.51933211 8421503
0.1844117 0.14124154 0.52027816 8223865
0.18568847 0.14149931 0.52122772 8223865
0.18696989 0.14175802 0.52218074 8355195
0.18825887 0.14201985 0.5231452 8487037
0.13440925 0.14597134 0.53415173 8421504
0.1340889 0.14458698 0.52908593 8421504
0.13444483 0.14394623 0.52674127 8421504
0.13479507 0.14330843 0.52440739 8421504
0.13514222 0.14267628 0.52209413 8421504
0.13569881 0.14227244 0.52061641 8421504
0.13642366 0.14204937 0.51980013 8487297
0.13725033 0.14193463 0.51938027 8553090
0.13807568 0.1418201 0.51896113 8487297
0.13887663 0.14168222 0.51845658 8421504
0.13967279 0.14154132 0.517941 8421504
0.14046736 0.14140069 0.51742643 8421504
0.14126036 0.14126036 0.51691288 8421504
0.14205179 0.1411203 0.51640034 8421504
0.14284401 0.14098285 0.51589739 8421504
0.14365682 0.14086737 0.5154748 8421504
0.14446832 0.14075209 0.51505297 8421504
0.14527847 0.14063698 0.51463175 8421504
0.1460873 0.14052208 0.5142113 8421504
0.14689483 0.14040735 0.5137915 8421504
0.14770103 0.14029282 0.51337236 8421504
0.14854364 0.1402141 0.51308429 8618883
0.14942031 0.14016828 0.51291662 8618883
0.1502964 0.14012249 0.51274908 8618883
0.15117192 0.14007673 0.51258165 8618883
0.15204686 0.140031 0.51241428 8618883
0.15292123 0.13998529 0.51224703 8618883
0.15379505 0.13993964 0.51207995 8618883
0.15466827 0.13989399 0.51191294 8618883
0.15554094 0.13984838 0.51174605 8618883
0.15642762 0.13981584 0.51162696 8618883
0.15736251 0.13982651 0.511666 8684676
0.15831006 0.13984823 0.51174551 8684676
0.15925679 0.139869 0.51182151 8684676
0.16020381 0.13988979 0.51189756 8684676
0.16115113 0.13991058 0.51197362 8684676
0.16209871 0.13993135 0.51204967 8684676
0.16304657 0.13995215 0.51212579 8684676
0.1639947 0.13997294 0.51220185 8684676
0.16494314 0.13999376 0.51227802 8684676
0.16589186 0.14001457 0.5123542 8684676
0.16684085 0.14003539 0.51243037 8684676
0.16779011 0.14005621 0.51250654 8684676
0.16880175 0.14012858 0.51277137 8750469
0.16982085 0.14020631 0.5130558 8750469
0.17084104 0.14028411 0.51334047 8750469
0.17186399 0.14036332 0.51363033 8816262
0.17293209 0.14047834 0.51405126 8947848
0.17400195 0.14059357 0.5144729 8947848
0.17507356 0.140709 0.51489526 8947848
0.17614692 0.14082459 0.51531827 8947848
0.17722207 0.14094038 0.515742 8947848
0.17833973 0.1410886 0.51628441 8882055
0.17959566 0.14134412 0.51721936 8816262
0.18085617 0.14160056 0.51815778 8816262
0.18212125 0.14185794 0.51909959 8750469
0.18339093 0.14211625 0.5200448 8421246
0.18466525 0.14237548 0.52099347 8289658
0.18593983 0.14263234 0.52193332 8486781
0.18716681 0.14285024 0.52273071 8486781
0.18843317 0.14309587 0.52362955 8421500
0.13461606 0.14716093 0.53497362 8421504
0.13391066 0.14534786 0.5283826 8421504
0.13426751 0.14470525 0.52604651 8421504
0.13461806 0.14406495 0.52371877 8421504
0.1351328 0.14360803 0.52205777 8421504
0.13580579 0.14332445 0.52102685 8421504
0.13647611 0.14304197 0.51999998 8421504
0.13729629 0.14291935 0.5195542 8553090
0.13812187 0.14280397 0.51913476 8553090
0.13894613 0.14268878 0.51871604 8553090
0.13976905 0.14257379 0.51829797 8487297
0.14058766 0.14245592 0.51786953 8487297
0.1413812 0.14231442 0.51735508 8421504
0.14217317 0.14217317 0.51684165 8421504
0.14296359 0.14203224 0.51632929 8421504
0.14375243 0.14189155 0.51581788 8421504
0.1445539 0.14176507 0.51535809 8421504
0.14536446 0.14164908 0.51493639 8421504
0.14617372 0.14153329 0.51451546 8421504
0.14698164 0.14141767 0.51409513 8421504
0.14778824 0.14130223 0.51367551 8421504
0.14862344 0.14121541 0.5133599 8618883
0.14950055 0.14116925 0.51319206 8618883
0.15037708 0.1411231 0.51302433 8618883
0.15125303 0.14107698 0.51285666 8618883
0.15212843 0.14103091 0.51268917 8618883
0.15300323 0.14098485 0.51252174 8618883
0.15387748 0.14093883 0.51235443 8618883
0.1547607 0.14090154 0.51221883 8553090
0.1556633 0.14088221 0.51214862 8553090
0.15656567 0.14086291 0.51207846 8553090
0.1574845 0.14085858 0.51206267 8618883
0.15843472 0.14088218 0.5121485 8684676
0.15938523 0.1409058 0.51223433 8684676
0.16033609 0.14092942 0.51232022 8684676
0.16128622 0.14095214 0.51240283 8684676
0.16223462 0.14097309 0.51247901 8684676
0.1631833 0.14099407 0.51255524 8684676
0.16413225 0.14101504 0.51263148 8684676
0.16508152 0.14103603 0.51270777 8684676
0.16603102 0.141057 0.512784 8684676
0.16698085 0.141078 0.51286036 8684676
0.16794145 0.14110783 0.51296878 8684676
0.16896044 0.14118612 0.51325339 8750469
0.16998056 0.14126448 0.5135383 8750469
0.17100181 0.14134297 0.51382357 8750469
0.17202421 0.14142151 0.51410913 8750469
0.17304772 0.14150015 0.514395 8816262
0.17409879 0.14160034 0.51475924 8947848
0.17517106 0.14171664 0.51518202 8947848
0.17624511 0.14183314 0.51560551 8947848
0.17732948 0.14195667 0.51605457 8882055
0.17858303 0.14221364 0.51698875 8816262
0.17984112 0.14247154 0.51792628 8816262
0.1811038 0.14273039 0.51886725 8882055
0.18235399 0.14297678 0.51976299 8947848
0.18357041 0.1431943 0.52055377 8618625
0.18479054 0.14341252 0.52134699 8487037
0.18601438 0.14363137 0.52214259 8487038
0.18724975 0.14385685 0.52296233 8420988
0.18868762 0.14423491 0.52433664 8355451
0.13482355 0.14835422 0.53579813 7237230
0.13487071 0.14734983 0.53217071 8421504
0.13409065 0.14546229 0.52535361 8421504
0.13456367 0.14495105 0.52350718 8421504
0.13523965 0.144664 0.52247053 8421504
0.13591294 0.1443781 0.52143794 8421504
0.13658358 0.14409333 0.52040946 8421504
0.13734227 0.1439047 0.51972818 8553090
0.1381681 0.1437885 0.51930851 8553090
0.13899259 0.14367248 0.51888949 8553090
0.13981575 0.14355664 0.51847112 8553090
0.14063759 0.14344099 0.51805347 8553090
0.14145808 0.14332552 0.51763642 8553090
0.14227727 0.14321025 0.51722008 8487297
0.14308575 0.14308575 0.51677048 8487297
0.14387515 0.14294392 0.51625824 8421504
0.14466299 0.14280237 0.51574701 8421504
0.14545058 0.14266239 0.51524144 8421504
0.14626022 0.14254567 0.51481992 8421504
0.14706856 0.14242917 0.51439917 8421504
0.14787556 0.14231284 0.51397902 8421504
0.14870332 0.14221781 0.51363581 8553090
0.14958087 0.14217129 0.51346779 8618883
0.15045783 0.14212479 0.51329982 8618883
0.15133424 0.14207833 0.51313204 8618883
0.15221009 0.14203191 0.51296437 8618883
0.1530899 0.14198972 0.51281202 8553090
0.15399379 0.14197025 0.51274168 8553090
0.15489742 0.14195077 0.51267135 8553090
0.15580082 0.14193131 0.51260108 8553090
0.15670396 0.14191185 0.5125308 8553090
0.15760687 0.14189239 0.51246053 8553090
0.15855767 0.14191605 0.51254594 8684676
0.15950894 0.14193985 0.51263189 8684676
0.16046058 0.14196368 0.51271796 8684676
0.16141249 0.14198749 0.51280397 8684676
0.16236474 0.14201131 0.51289004 8684676
0.16331731 0.14203517 0.51297617 8684676
0.16427004 0.14205888 0.51306182 8684676
0.1652201 0.14208002 0.51313818 8684676
0.16617043 0.14210118 0.51321459 8684676
0.16712108 0.14212236 0.51329106 8684676
0.16809939 0.1421667 0.51345122 8750469
0.1691194 0.14224564 0.51373631 8750469
0.17014059 0.14232469 0.51402181 8750469
0.17116289 0.14240381 0.51430756 8750469
0.17218633 0.14248303 0.51459366 8750469
0.1732109 0.14256233 0.51488006 8750469
0.17423664 0.14264172 0.51516682 8750469
0.17526869 0.14272544 0.51546913 8816262
0.17634341 0.14284283 0.5158931 8882055
0.1775713 0.1430824 0.51675832 8882055
0.17879784 0.14331837 0.51761061 9079434
0.18000384 0.14353552 0.51839489 9145227
0.18121348 0.14375332 0.51918149 9079434
0.18242681 0.1439718 0.51997054 9013641
0.18364383 0.14419094 0.52076197 8684418
0.18486457 0.14441074 0.52155584 8487037
0.18608902 0.14463122 0.5223521 8420988
0.18750228 0.14499547 0.52366763 8355195
0.18894279 0.14537704 0.52504569 8355451
0.13503164 0.14955117 0.53662515 7237230
0.13507748 0.14853714 0.53298658 8421504
0.1339912 0.14630134 0.52496397 8421504
0.13467033 0.14601099 0.52392215 8421504
0.13534664 0.14572164 0.52288389 8421504
0.13602026 0.14543343 0.52184969 8421504
0.13669123 0.14514636 0.5208196 8421504
0.13738829 0.14489073 0.51990235 8487297
0.13821433 0.14477366 0.51948231 8553090
0.13903908 0.14465682 0.51906306 8553090
0.13986248 0.14454015 0.51864439 8553090
0.14068455 0.14442366 0.51822644 8553090
0.14150529 0.14430737 0.51780915 8553090
0.14232473 0.14419128 0.51739258 8553090
0.14314282 0.14407535 0.51697659 8553090
0.14395963 0.14395963 0.51656133 8553090
0.14477511 0.14384407 0.51614672 8487297
0.14557329 0.14371292 0.51567614 8487297
0.14635855 0.14357077 0.51516604 8421504
0.14715557 0.14344187 0.51470351 8421504
0.147963 0.14332466 0.51428294 8421504
0.14878327 0.14322127 0.51391196 8553090
0.14966126 0.14317439 0.51374376 8618883
0.15053868 0.14312756 0.51357567 8618883
0.15141554 0.14308074 0.51340771 8553090
0.15232038 0.14306079 0.51333612 8553090
0.1532253 0.14304115 0.51326561 8553090
0.15412998 0.14302151 0.51319516 8553090
0.15503439 0.14300187 0.5131247 8553090
0.15593858 0.14298226 0.51305431 8553090
0.1568425 0.14296263 0.51298392 8553090
0.15774618 0.14294302 0.51291353 8553090
0.1586808 0.1429515 0.51294398 8684676
0.15963285 0.14297551 0.51303011 8684676
0.16058521 0.14299951 0.51311624 8684676
0.16153792 0.14302354 0.51320243 8684676
0.1624909 0.14304756 0.51328862 8684676
0.16344425 0.14307159 0.51337487 8684676
0.16439791 0.14309564 0.51346117 8684676
0.16535187 0.14311968 0.51354742 8684676
0.16630617 0.14314374 0.51363379 8684676
0.16726077 0.14316781 0.5137201 8684676
0.16825779 0.1432277 0.51393503 8684676
0.16928044 0.14330865 0.51422548 8684676
0.17030422 0.14338966 0.51451617 8684676
0.1713292 0.14347079 0.51480728 8684676
0.17235529 0.14355199 0.51509863 8684676
0.17338258 0.14363329 0.5153904 8684676
0.17441103 0.1437147 0.51568246 8684676
0.17543513 0.14379165 0.51595861 8684676
0.17648788 0.14389117 0.5163157 8882055
0.17766601 0.14409134 0.51703393 9145227
0.17886895 0.14430942 0.51781648 9145227
0.18007553 0.14452815 0.51860136 9145227
0.18128577 0.14474756 0.51938862 9079434
0.18249969 0.14496762 0.52017826 9013641
0.18371731 0.14518836 0.52097034 8618625
0.18493864 0.14540978 0.52176481 8420987
0.18631995 0.14575408 0.5230003 8355195
0.18775551 0.14613716 0.52437484 8355451
0.18919864 0.14652225 0.52575666 7236971
0.13524039 0.15075183 0.53745472 7237230
0.13528487 0.1497281 0.53380495 8421504
0.13532875 0.14871818 0.53020442 8421504
0.13476957 0.14706434 0.5243082 8421504
0.13545085 0.14677776 0.52328652 8421504
0.13612776 0.14649042 0.5222621 8421504
0.13679902 0.14620101 0.52123034 8421504
0.13746767 0.14591277 0.5202027 8421504
0.13826063 0.14575951 0.5196563 8553090
0.13908561 0.14564183 0.51923674 8553090
0.13990922 0.14552432 0.51881778 8553090
0.14073156 0.14540702 0.5183996 8553090
0.14155252 0.14528988 0.51798201 8553090
0.14237219 0.14517295 0.51756513 8553090
0.14319053 0.14505622 0.51714891 8553090
0.14400756 0.14493965 0.51673335 8553090
0.14482327 0.14482327 0.51631844 8553090
0.14563769 0.1447071 0.51590425 8553090
0.14645079 0.14459109 0.51549071 8553090
0.14726259 0.14447528 0.51507783 8487297
0.14805053 0.14433765 0.51458716 8421504
0.14886332 0.14422584 0.51418847 8487297
0.14974175 0.1441786 0.51402009 8618883
0.15064311 0.14415388 0.51393193 8553090
0.15154929 0.14413404 0.51386124 8553090
0.15245527 0.14411426 0.51379067 8553090
0.15336096 0.14409444 0.51372004 8553090
0.15426642 0.14407465 0.51364946 8553090
0.15517162 0.14405484 0.51357889 8553090
0.15607657 0.14403506 0.51350832 8553090
0.15698127 0.14401528 0.51343781 8553090
0.15788575 0.14399549 0.5133673 8553090
0.15880413 0.14398859 0.51334268 8618883
0.15975694 0.14401278 0.51342893 8684676
0.16071007 0.14403698 0.51351517 8684676
0.16166352 0.14406118 0.51360148 8684676
0.1626173 0.14408541 0.51368785 8684676
0.16357139 0.14410964 0.51377422 8684676
0.16452608 0.1441341 0.51386148 8684676
0.1654814 0.14415887 0.51394975 8684676
0.16643709 0.14418367 0.51403815 8684676
0.16742031 0.1442319 0.5142101 8684676
0.16844304 0.14431345 0.51450086 8684676
0.16946691 0.14439508 0.51479191 8684676
0.17049193 0.14447682 0.51508325 8684676
0.17151812 0.14455864 0.51537496 8684676
0.17254548 0.14464055 0.51566702 8684676
0.17356409 0.1447143 0.51592994 8750469
0.17457795 0.14478332 0.51617599 8750469
0.1756192 0.1448742 0.5165 8684676
0.17669158 0.14498965 0.51691163 8684676
0.17776565 0.1451053 0.51732391 8882055
0.17894012 0.14530124 0.51802248 9145227
0.18014729 0.14552158 0.51880801 9145227
0.18135811 0.14574257 0.51959586 9079434
0.18257263 0.14596424 0.52038616 9013641
0.18379086 0.14618659 0.5211789 8552831
0.18514064 0.14651078 0.52233469 8355194
0.18657126 0.14689535 0.52370572 8355195
0.18800943 0.14728194 0.52508402 8355451
0.18945517 0.14767057 0.52646953 7236971
0.13544978 0.1519562 0.53828686 7237230
0.13549291 0.15092272 0.53462583 8421504
0.13553545 0.14990316 0.5310142 8421504
0.13486442 0.14811426 0.52467722 8421504
0.13554601 0.14782543 0.5236541 8421504
0.13622494 0.14753774 0.52263498 8421504
0.13690124 0.14725116 0.5216198 8421504
0.13757491 0.14696568 0.52060854 8421504
0.13830696 0.14674602 0.51983041 8487297
0.13913214 0.14662749 0.51941049 8487297
0.13995604 0.14650916 0.51899135 8487297
0.14077857 0.146391 0.51857281 8487297
0.14159979 0.14627306 0.51815498 8487297
0.14242257 0.14615825 0.5177483 8487297
0.14324428 0.14604385 0.51734304 8487297
0.14406472 0.14592963 0.51693845 8487297
0.14488387 0.14581561 0.51653451 8421504
0.14570174 0.14570174 0.51613116 8421504
0.14651833 0.14558807 0.51572847 8421504
0.14733365 0.14547455 0.51532638 8421504
0.1481477 0.14536123 0.51492494 8421504
0.14896443 0.14525193 0.51453775 8487297
0.14987147 0.14523149 0.51446533 8553090
0.15077823 0.14521104 0.51439291 8553090
0.15168476 0.14519061 0.51432055 8553090
0.15259102 0.14517018 0.51424819 8553090
0.15349703 0.14514977 0.51417583 8553090
0.15440309 0.14512964 0.51410455 8553090
0.15530908 0.14510968 0.51403385 8553090
0.15621482 0.14508973 0.51396316 8553090
0.15712032 0.14506978 0.51389253 8553090
0.15802555 0.14504984 0.5138219 8553090
0.15893054 0.1450299 0.51375127 8553090
0.15988122 0.14505166 0.51382834 8684676
0.16083533 0.14507625 0.51391542 8684676
0.16179013 0.14510119 0.51400375 8684676
0.16274528 0.14512613 0.51409215 8684676
0.16370074 0.14515109 0.51418054 8684676
0.16465653 0.14517604 0.51426893 8684676
0.16561268 0.14520103 0.51435745 8684676
0.16658193 0.14523718 0.51448548 8684676
0.16760473 0.14531933 0.51477653 8684676
0.16862866 0.14540158 0.51506788 8684676
0.16965379 0.14548393 0.51535958 8684676
0.17068005 0.14556636 0.51565158 8684676
0.17169328 0.14563684 0.51590127 8750469
0.17270617 0.14570628 0.51614726 8750469
0.17372006 0.14577581 0.51639354 8750469
0.17474991 0.14585792 0.51668441 8684676
0.17582195 0.14597419 0.51709628 8684676
0.17689572 0.14609066 0.51750886 8684676
0.17797121 0.14620732 0.5179221 8684676
0.17904843 0.14632417 0.51833606 8816262
0.18021908 0.14651577 0.51901478 9145227
0.18143053 0.14673838 0.51980335 9079434
0.18264563 0.14696164 0.52059424 9013384
0.18396433 0.14726557 0.52167082 8355451
0.18539004 0.14765161 0.52303833 8355194
0.18682325 0.14803968 0.52441305 8355451
0.18826401 0.14842981 0.52579504 8355451
0.18971239 0.14882199 0.52718431 7236971
0.13544735 0.15292443 0.53827721 7237230
0.13570158 0.15212099 0.53544921 8421504
0.1357428 0.1510918 0.53182656 8421504
0.13578343 0.15007642 0.52825254 8421504
0.13564128 0.14887458 0.52402216 8421504
0.1363205 0.14858463 0.52300161 8421504
0.13699709 0.14829582 0.52198499 8421504
0.13767105 0.14800812 0.52097237 8421504
0.13844334 0.14782932 0.52034301 8421504
0.13925739 0.14769723 0.51987803 8421504
0.1400751 0.14757077 0.5194329 8421504
0.14090134 0.14745489 0.51902503 8421504
0.14172627 0.1473392 0.51861781 8421504
0.14254993 0.1472237 0.51821125 8421504
0.14337227 0.14710836 0.51780528 8421504
0.14419334 0.1469932 0.51739997 8421504
0.14501312 0.14687824 0.51699531 8421504
0.14583163 0.14676346 0.51659125 8421504
0.14664882 0.14664882 0.51618779 8421504
0.14746478 0.14653441 0.51578504 8421504
0.14827946 0.14642015 0.51538289 8421504
0.14910391 0.14631692 0.51501948 8487297
0.15001175 0.14629629 0.51494688 8553090
0.15091936 0.1462757 0.5148744 8553090
0.15182671 0.14625509 0.51480186 8553090
0.1527338 0.1462345 0.51472938 8553090
0.15364064 0.1462139 0.5146569 8553090
0.15454721 0.14619331 0.51458442 8553090
0.15545355 0.14617275 0.514512 8553090
0.15635961 0.14615217 0.51443958 8553090
0.15726542 0.14613159 0.51436716 8553090
0.15816996 0.14611007 0.51429141 8553090
0.15907048 0.14608513 0.51420361 8553090
0.16001055 0.14609659 0.51424396 8618883
0.16096288 0.14611904 0.514323 8618883
0.16191849 0.1461442 0.51441151 8684676
0.1628744 0.14616933 0.51450002 8684676
0.16383064 0.14619449 0.51458853 8684676
0.16478722 0.14621964 0.51467711 8684676
0.16574414 0.14624482 0.51476574 8684676
0.16676551 0.14632627 0.51505244 8684676
0.16778953 0.14640915 0.51534414 8684676
0.16881165 0.14648946 0.51562679 8750469
0.16982265 0.14655927 0.51587254 8750469
0.1708346 0.14662915 0.51611853 8750469
0.17184752 0.1466991 0.51636475 8750469
0.17286141 0.14676912 0.51661122 8750469
0.17387998 0.14684235 0.51686895 8684676
0.17495175 0.14695947 0.51728117 8684676
0.1760252 0.14707676 0.51769406 8684676
0.17710038 0.14719425 0.51810759 8684676
0.17817727 0.14731193 0.51852179 8684676
0.17925589 0.14742978 0.51893663 8684676
0.18033622 0.14754783 0.51935214 8816262
0.18150298 0.14773498 0.52001095 9079434
0.18279098 0.1480184 0.52100855 8816262
0.18421181 0.14840594 0.5223726 8355451
0.18564267 0.14879756 0.52375108 8289658
0.18708649 0.14919555 0.52515197 8289658
0.18853804 0.14959568 0.52656037 8289658
0.18996738 0.14997424 0.52789289 6052955
0.1355263 0.15398508 0.53859097 7237230
0.13572998 0.15311888 0.53556126 8421504
0.13595076 0.15228407 0.53264135 8421504
0.13599007 0.15125912 0.52905643 8421504
0.13573669 0.14992519 0.52439076 8421504
0.13641621 0.14963301 0.52336878 8421504
0.13709308 0.14934194 0.52235073 8421504
0.13778722 0.14907354 0.52141196 8421504
0.13860352 0.14894006 0.52094507 8421504
0.13941839 0.14880683 0.52047908 8421504
0.14023177 0.14867382 0.52001387 8421504
0.14104372 0.14854106 0.51954949 8421504
0.14185421 0.14840853 0.51908594 8421504
0.1426775 0.14829105 0.51867503 8421504
0.14350049 0.14817478 0.51826835 8421504
0.14432217 0.14805867 0.51786226 8421504
0.1451426 0.14794278 0.51745689 8421504
0.14596172 0.14782704 0.51705211 8421504
0.14677955 0.14771149 0.51664793 8421504
0.14759614 0.14759614 0.51624447 8421504
0.14841142 0.14748093 0.51584154 8421504
0.14924362 0.1473839 0.5155021 8487297
0.15015231 0.1473631 0.51542938 8553090
0.15106075 0.14734232 0.51535672 8553090
0.15196893 0.14732155 0.51528406 8553090
0.15287684 0.14730078 0.5152114 8553090
0.15378451 0.14728002 0.5151388 8553090
0.15469192 0.14725927 0.51506621 8553090
0.15559907 0.14723854 0.51499367 8553090
0.15650369 0.14721565 0.51491362 8553090
0.1574056 0.1471905 0.51482564 8553090
0.15830721 0.14716536 0.51473773 8553090
0.15920851 0.14714022 0.51464981 8553090
0.16014907 0.14715147 0.51468915 8618883
0.16109988 0.14717193 0.51476073 8618883
0.16205093 0.1471924 0.51483232 8618883
0.16300371 0.14721417 0.51490849 8618883
0.16396074 0.14723954 0.51499718 8684676
0.16491812 0.14726491 0.51508594 8684676
0.1659254 0.14733432 0.51532871 8684676
0.16694218 0.14741135 0.51559812 8750469
0.16795224 0.14748161 0.51584387 8750469
0.16896325 0.14755194 0.51608986 8750469
0.16997522 0.14762232 0.51633602 8750469
0.17098817 0.14769278 0.51658249 8750469
0.17200208 0.1477633 0.51682913 8750469
0.17301697 0.1478339 0.51707608 8684676
0.17408088 0.14794542 0.51746613 8684676
0.17515403 0.14806354 0.51787931 8684676
0.1762289 0.14818186 0.51829314 8684676
0.17730549 0.14830036 0.51870763 8684676
0.1783838 0.14841905 0.51912278 8684676
0.17946382 0.14853793 0.51953858 8684676
0.1805456 0.14865702 0.5199551 8684676
0.18164076 0.14878583 0.52040565 8750469
0.18305402 0.14917254 0.52175826 8684675
0.18448542 0.14957002 0.52314848 8289659
0.1859245 0.14996964 0.52454621 8289658
0.18737125 0.15037136 0.52595133 8289658
0.18879168 0.15074801 0.52726871 8289659
0.1357206 0.15517874 0.53936309 7237230
0.13564175 0.15398477 0.53521311 8421504
0.13600977 0.15331137 0.53287256 8421504
0.13619733 0.15244544 0.52986276 8421504
0.13583224 0.1509773 0.52475989 8421504
0.13651206 0.15068285 0.52373648 8421504
0.13718921 0.15038954 0.522717 8421504
0.13794698 0.15018801 0.52201653 8421504
0.1387641 0.15005337 0.52154857 8421504
0.13957974 0.14991897 0.52108145 8421504
0.14039393 0.14978483 0.52061516 8421504
0.14120667 0.14965092 0.52014971 8421504
0.14201795 0.14951724 0.51968509 8421504
0.14282778 0.1493838 0.51922131 8421504
0.14363617 0.14925061 0.51875836 8421504
0.14445126 0.14912605 0.51832545 8421504
0.1452723 0.14900921 0.5179193 8421504
0.14609206 0.14889255 0.51751381 8421504
0.14691052 0.14877605 0.51710892 8421504
0.14772771 0.14865975 0.51670468 8421504
0.14854364 0.14854364 0.5163011 8421504
0.1493836 0.14845286 0.51598561 8487297
0.15029313 0.14843191 0.51591277 8553090
0.15120238 0.14841096 0.51583993 8553090
0.1521114 0.14839002 0.51576716 8553090
0.15302014 0.14836907 0.51569438 8553090
0.15392865 0.14834815 0.51562166 8553090
0.15483342 0.14832391 0.51553738 8553090
0.1557367 0.14829853 0.51544917 8553090
0.15663968 0.14827317 0.51536101 8553090
0.15754236 0.14824782 0.51527292 8553090
0.15844472 0.14822248 0.51518482 8553090
0.15934676 0.14819713 0.51509672 8553090
0.16028784 0.14820817 0.51513511 8618883
0.16123949 0.14822881 0.51520681 8618883
0.16219139 0.14824943 0.51527852 8618883
0.16314358 0.14827009 0.51535028 8618883
0.16409601 0.14829072 0.51542205 8618883
0.16507293 0.14833313 0.51556945 8684676
0.16608204 0.14840384 0.5158152 8750469
0.1670921 0.1484746 0.51606113 8750469
0.16810313 0.14854541 0.51630729 8750469
0.16911511 0.14861631 0.5165537 8750469
0.17012808 0.14868727 0.51680034 8750469
0.171142 0.14875831 0.51704723 8750469
0.1721569 0.1488294 0.51729435 8750469
0.17320941 0.14893208 0.51765126 8684676
0.17428224 0.14905104 0.51806468 8684676
0.17535679 0.14917018 0.51847881 8684676
0.17643307 0.14928952 0.5188936 8684676
0.17751108 0.14940907 0.5193091 8684676
0.17859438 0.14953178 0.51973563 8684676
0.17969097 0.14966428 0.5201962 8684676
0.1807895 0.14979702 0.52065754 8684676
0.18190414 0.14994165 0.52116024 8750468
0.18333085 0.15034072 0.5225473 8618882
0.18476519 0.15074193 0.52394181 8289402
0.18620531 0.15114376 0.52533847 8289658
0.18761875 0.15151995 0.52664602 8355195
0.18903926 0.15189804 0.52796018 8289659
0.13591543 0.15637581 0.54013735 7237230
0.13555366 0.15484954 0.5348655 8421504
0.13592181 0.15417279 0.53252792 8421504
0.13628677 0.15350194 0.53021073 8421504
0.13644132 0.1526051 0.52711296 8421504
0.13660802 0.15173416 0.52410465 8421504
0.13728772 0.1514411 0.52309239 8421504
0.13810712 0.15130506 0.52262253 8421504
0.13892505 0.15116929 0.5221535 8421504
0.13974148 0.15103371 0.52168524 8421504
0.14055647 0.15089841 0.52121788 8421504
0.14137 0.15076335 0.52075136 8421504
0.14218207 0.15062852 0.52028567 8421504
0.14299269 0.15049393 0.51982081 8421504
0.14380187 0.1503596 0.51935679 8421504
0.1446096 0.15022551 0.5188936 8421504
0.14541587 0.15009163 0.51843119 8421504
0.14622261 0.14995994 0.51797628 8421504
0.14704172 0.14984252 0.51757073 8421504
0.14785954 0.14972529 0.51716578 8421504
0.1486761 0.14960824 0.51676148 8421504
0.14952385 0.14952385 0.51647002 8487297
0.15043421 0.14950272 0.51639706 8553090
0.1513443 0.14948161 0.5163241 8553090
0.1522541 0.14946045 0.51625103 8553090
0.1531591 0.14943486 0.51616263 8553090
0.15406376 0.14940926 0.51607424 8553090
0.15496811 0.14938368 0.51598585 8553090
0.15587217 0.14935811 0.51589751 8553090
0.15677589 0.14933252 0.51580918 8553090
0.15767933 0.14930697 0.5157209 8553090
0.15858246 0.14928143 0.51563269 8553090
0.15948527 0.1492559 0.51554447 8553090
0.16042684 0.14926672 0.51558185 8618883
0.16137934 0.14928751 0.51565367 8618883
0.16233207 0.14930831 0.51572549 8618883
0.16329126 0.14933474 0.51581681 8618883
0.16427366 0.14938201 0.51598006 8618883
0.16525672 0.14942932 0.5161435 8618883
0.16624039 0.14947665 0.516307 8684676
0.16724227 0.14953974 0.51652491 8750469
0.16825429 0.14961115 0.51677155 8750469
0.16926727 0.14968263 0.51701844 8750469
0.1702812 0.14975415 0.5172655 8750469
0.1712961 0.14982575 0.5175128 8750469
0.17233731 0.14991945 0.51783645 8684676
0.17340983 0.15003924 0.51825023 8684676
0.17448409 0.15015922 0.51866466 8684676
0.17556004 0.1502794 0.51907974 8684676
