# .PCD v0.7 - Point Cloud Data file format
VERSION 0.7
FIELDS x y z rgb
SIZE 4 4 4 4
TYPE F F F U
COUNT 1 1 1 1
WIDTH 1140
HEIGHT 1
VIEWPOINT 0 0 0 1 0 0 0
POINTS 1140
DATA ascii
0.10285033 0.0413021 0.89792824 3815994
0.093142599 0.046978436 0.89804947 3815994
0.083436273 0.052653961 0.89816755 3815994
0.086446382 0.050898336 0.89578277 3815994
0.072201155 0.059221175 0.89948481 3815994
0.075245537 0.057445515 0.897093 3815994
0.064011879 0.064011879 0.89840704 3815994
0.067074373 0.062225625 0.89602107 3815994
0.055842198 0.068791114 0.89733189 3815994
0.047692053 0.073558927 0.89625931 3815994
0.052745257 0.0705975 0.8997249 3815994
0.039561369 0.078315362 0.89518934 3815994
0.044577118 0.075375855 0.89864671 3815994
0.033278972 0.081979908 0.89996523 3815994
0.036428526 0.080142759 0.89757091 3815994
-0.065406166 0.13969465 0.89530981 3815994
-0.068818726 0.14168561 0.89769202 3815994
-0.080271065 0.14837985 0.89900786 3815994
-0.076823071 0.14636818 0.8966186 3815994
-0.088273406 0.15306123 0.89793122 3815994
-0.084808305 0.15103954 0.89554775 3815994
-0.098006979 0.15875268 0.89805251 3815994
-0.10773846 0.16444291 0.89817053 3815994
-0.10422076 0.16239049 0.89578587 3815994
-0.11570051 0.16910075 0.89709598 3815994
-0.12364353 0.17374745 0.89602399 3815994
-0.119254 0.17117411 0.89948785 3815994
-0.12721391 0.17583071 0.89841014 3815994
-0.20927759 0.22382198 0.89590639 3815994
-0.2130755 0.22603828 0.89829183 3815994
-0.22282983 0.23174185 0.89841318 3815994
-0.23653062 0.2397597 0.89507496 3815994
-0.23258165 0.23744398 0.89853132 3815994
-0.22873092 0.2351968 0.89614463 3815994
-0.24234124 0.24315065 0.89865279 3815994
-0.25209823 0.2488558 0.89877105 3815994
-0.24819462 0.24657771 0.89638311 3815994
-0.25793296 0.25227195 0.89650393 3815994
-0.26766866 0.25796464 0.89662158 3815994
-0.27741221 0.26366192 0.89674246 3815994
-0.27162519 0.26027369 0.89901084 3815994
-0.28715307 0.26935765 0.89686024 3815994
-0.29302585 0.27279052 0.89751971 3815994
-0.29891449 0.27623266 0.89817363 3815994
-0.31071043 0.28312775 0.89949077 3815994
-0.30664784 0.28075671 0.89709896 3815994
-0.31844097 0.28765023 0.89841306 3815994
-0.3143627 0.28527004 0.89602703 3815994
-0.33026868 0.29456398 0.89973098 3815994
-0.32615301 0.29216188 0.89733791 3815994
-0.33797789 0.29907396 0.89865273 3815994
-0.33384663 0.29666275 0.89626539 3815994
-0.34566855 0.3035731 0.89757693 3815994
-0.34152186 0.30115286 0.89519536 3815994
-0.35334089 0.30806151 0.89650381 3815994
-0.34983745 0.30600631 0.89997137 3815994
-0.36519456 0.31499043 0.89781618 3815994
-0.36099491 0.31253922 0.89543325 3815994
-0.35752517 0.31050372 0.8988924 3815994
-0.37284553 0.31946635 0.8967424 3815994
-0.38047826 0.32393157 0.89567119 3815994
-0.37708294 0.32193962 0.89913231 3815994
-0.38473091 0.32641381 0.89805543 3815994
-0.39665109 0.33338159 0.89937222 3815994
-0.39236054 0.33087724 0.89698106 3815994
-0.40427768 0.33784327 0.89829481 3815994
-0.39997202 0.33533007 0.89590937 3815994
-0.41622972 0.34482971 0.89961237 3815994
-0.41188598 0.34229425 0.8972199 3815994
-0.42383492 0.34927887 0.89853442 3815994
-0.41947618 0.34673464 0.89614773 3815994
-0.43142179 0.3537173 0.89745885 3815994
-0.42704812 0.35116434 0.89507788 3815994
-0.43740475 0.35721457 0.89811933 3815994
-0.44654137 0.36256251 0.89531577 3815994
-0.44340253 0.36072052 0.89877403 3815994
-0.45851552 0.36956191 0.89662462 3815994
-0.45096809 0.36514652 0.89769804 3815994
-0.4660449 0.37396672 0.89555371 3815994
-0.46298063 0.37216833 0.89901388 3815994
-0.47052476 0.37658176 0.8979373 3815994
-0.48256913 0.38362217 0.89925373 3815994
-0.47805077 0.38098463 0.89686322 3815994
-0.4900918 0.38802311 0.89817661 3815994
-0.48555887 0.38537702 0.89579183 3815994
0.49866068 -0.19016029 0.90490627 3815994
0.48990804 -0.18504013 0.90381545 3815994
0.49185103 -0.18617171 0.90140069 3815994
0.4831405 -0.18107618 0.90031844 3815994
0.4811765 -0.17993233 0.90272737 3815994
0.47146827 -0.1742557 0.90284991 3815994
0.4627682 -0.1691663 0.90176415 3815994
0.45204654 -0.16289935 0.90309191 3815994
0.44336754 -0.15782227 0.90200555 3815994
0.43261445 -0.15153694 0.90333402 3815994
0.42289594 -0.14585428 0.90345353 3815994
0.42501709 -0.14709005 0.90104061 3815994
0.4142485 -0.14079566 0.90236622 3815994
0.40562192 -0.13574922 0.90128165 3815994
0.41209534 -0.13954119 0.90478629 3815994
0.39701602 -0.13071488 0.90019965 3815994
0.40344822 -0.13448274 0.90369582 3815994
0.39482191 -0.12943646 0.90260804 3815994
0.38399008 -0.12310509 0.90393823 3815994
0.38621634 -0.12440232 0.90152282 3815994
0.37650818 -0.11872572 0.901645 3815994
0.36452147 -0.11172134 0.90418077 3815994
0.36680037 -0.11304934 0.90176404 3815994
0.35708699 -0.10736969 0.90188634 3815994
0.34620824 -0.1010109 0.90321445 3815994
0.3376554 -0.096007571 0.9021278 3815994
0.32793728 -0.090325154 0.90224695 3815994
0.31941554 -0.08534003 0.90116262 3815994
0.32555297 -0.088935524 0.90466636 3815994
0.31091428 -0.080366872 0.90008092 3815994
0.31701127 -0.08393871 0.90357614 3815994
0.30727157 -0.078243688 0.90369898 3815994
0.29876101 -0.073265091 0.9026112 3815994
0.16652775 0.0040616523 0.90068394 3815994
0.17206778 0.00081548712 0.90418392 3815994
0.16371548 0.0057015345 0.90309489 3815994
0.15253702 0.012235589 0.90442657 3815994
0.15538327 0.010575825 0.90200841 3815994
0.14420602 0.017109189 0.903337 3815994
0.14707112 0.015438406 0.90092474 3815994
0.13299577 0.023661822 0.90466934 3815994
0.13589506 0.021971058 0.90224999 3815994
0.12468608 0.028522961 0.90357924 3815994
0.1276041 0.026821245 0.90116572 3815994
0.11786471 0.032516088 0.90128779 3815994
0.10664117 0.039076515 0.90261412 3815994
0.11344403 0.035094198 0.90491235 3815994
0.098382026 0.043908086 0.90152895 3815994
0.088638797 0.049605198 0.90164798 3815994
0.080410108 0.054418959 0.90056509 3815994
0.085614793 0.051368877 0.90406406 3815994
0.07736773 0.0561934 0.90297538 3815994
0.067601964 0.061903678 0.90309799 3815994
0.057837691 0.06761308 0.90321738 3815994
0.060933031 0.06580767 0.90080583 3815994
0.048066657 0.073326439 0.9033401 3815994
0.038297191 0.079038881 0.90345961 3815994
0.041445542 0.077202484 0.90104675 3815994
0.03011257 0.083826885 0.90237236 3815994
-0.072249494 0.1436872 0.900087 3815994
-0.067640387 0.14098538 0.90358222 3815994
-0.077432424 0.14671102 0.903705 3815994
-0.087222457 0.15243551 0.90382469 3815994
-0.083737478 0.15040226 0.90140986 3815994
-0.095259264 0.15713707 0.90273654 3815994
-0.091757022 0.15509373 0.90032756 3815994
-0.10681502 0.16389175 0.90406716 3815994
-0.10327674 0.16182733 0.90165097 3815994
-0.11305267 0.16754355 0.90177321 3815994
-0.12282647 0.17325853 0.90189236 3815994
-0.1264181 0.17535414 0.90430981 3815994
-0.2090214 0.22366104 0.90177315 3815994
-0.21689369 0.22826639 0.90068996 3815994
-0.21284355 0.22589144 0.90418994 3815994
-0.22073232 0.23050644 0.90310097 3815994
-0.23645295 0.23970316 0.90093076 3815994
-0.23247777 0.23737203 0.90443265 3815994
-0.2286021 0.23511034 0.90201461 3815994
-0.24034497 0.24197443 0.90334302 3815994
-0.25212252 0.24885881 0.90467554 3815994
-0.24819326 0.24656576 0.90225607 3815994
-0.25799543 0.25229731 0.90237856 3815994
-0.26779497 0.25802734 0.90249783 3815994
-0.26383331 0.25571537 0.90009004 3815994
-0.27760237 0.263762 0.90262032 3815994
-0.27177784 0.26035172 0.90491849 3815994
-0.2874071 0.26949504 0.90273952 3815994
-0.28339207 0.26715183 0.90033048 3815994
-0.29519358 0.27405024 0.90165406 3815994
-0.30296132 0.27859446 0.90057117 3815994
-0.29924613 0.27641535 0.9040702 3815994
-0.30702978 0.2809689 0.90298146 3815994
-0.31890094 0.28790799 0.90431285 3815994
-0.31479475 0.28551149 0.9018954 3815994
-0.32666302 0.29244894 0.90322357 3815994
-0.32254103 0.29004318 0.90081191 3815994
-0.33856624 0.2994068 0.90455556 3815994
-0.33440641 0.29697892 0.90213686 3815994
-0.34630671 0.30393508 0.90346569 3815994
-0.34213117 0.30149803 0.90105277 3815994
-0.35402855 0.30845246 0.90237844 3815994
-0.3617318 0.31295899 0.90129375 3815994
-0.35824218 0.31091177 0.90479851 3815994
-0.37366122 0.31993216 0.90262014 3815994
-0.3676888 0.31644106 0.9019599 3815994
-0.38134295 0.32442608 0.90153491 3815994
-0.38731599 0.32791758 0.90220135 3815994
-0.39330444 0.33141801 0.90286201 3815994
-0.40530118 0.33843055 0.90419304 3815994
-0.40096462 0.33589935 0.90177625 3815994
-0.41295817 0.34291005 0.90310407 3815994
-0.40860635 0.34036988 0.900693 3815994
-0.4227919 0.34866005 0.90322661 3815994
-0.43262243 0.3544082 0.90334612 3815994
-0.42821693 0.35183668 0.90093386 3815994
-0.44023937 0.35886425 0.90225911 3815994
-0.44783804 0.36330962 0.90117484 3815994
-0.44468361 0.36145842 0.90467858 3815994
-0.45541841 0.36774427 0.90009302 3815994
-0.45229724 0.36591253 0.90358835 3815994
-0.4674696 0.37478867 0.90141588 3815994
-0.46439072 0.37298167 0.90492159 3815994
-0.45989254 0.37035593 0.90250081 3815994
-0.47502846 0.37921074 0.90033352 3815994
-0.47198257 0.37742302 0.90383065 3815994
-0.47955626 0.38185379 0.90274262 3815994
-0.49167854 0.38893974 0.90407324 3815994
-0.48711169 0.38627389 0.9016571 3815994
0.49478576 -0.18790372 0.90978664 3815994
0.49672845 -0.18903504 0.90733993 3815994
0.48697269 -0.18333063 0.90746367 3815994
0.4782095 -0.17820428 0.90636683 3815994
0.46745586 -0.17191869 0.90770817 3815994
0.45871395 -0.16680476 0.90661067 3815994
0.44896361 -0.16110352 0.90673101 3815994
0.44025341 -0.15600815 0.90563589 3815994
0.44689354 -0.15989769 0.9091745 3815994
0.43816236 -0.15479007 0.90807343 3815994
0.42839074 -0.14907636 0.90819746 3815994
0.4186193 -0.14336278 0.90831822 3815994
0.42076337 -0.14461188 0.90587938 3815994
0.40884238 -0.13764596 0.90844238 3815994
0.39906573 -0.13192932 0.9085632 3815994
0.40126282 -0.13320945 0.90612292 3815994
0.38816857 -0.12555981 0.90991098 3815994
0.39150715 -0.12750509 0.90624642 3815994
0.37950155 -0.12048969 0.90880817 3815994
0.38175184 -0.12180091 0.90636671 3815994
0.37199089 -0.11609345 0.90649027 3815994
0.36223033 -0.11038622 0.90661055 3815994
0.35362601 -0.10535278 0.90551567 3815994
0.35992685 -0.1090439 0.90905339 3815994
0.35130215 -0.10399853 0.90795261 3815994
0.34151995 -0.098278657 0.90807664 3815994
0.33292678 -0.093251735 0.90697825 3815994
0.32195076 -0.086836085 0.90832138 3815994
0.31337896 -0.081821658 0.90722245 3815994
0.30360276 -0.076105274 0.90734297 3815994
0.30113927 -0.074669413 0.90978968 3815994
0.16784771 0.0032762219 0.90783501 3815994
0.15804556 0.009007778 0.90795571 3815994
0.16088814 0.0073502194 0.90551877 3815994
0.14967544 0.013904276 0.90685767 3815994
0.14132552 0.018788941 0.90576214 3815994
0.14679842 0.015581955 0.90930176 3815994
0.13842952 0.02047774 0.90820044 3815994
0.12715025 0.027070699 0.90954715 3815994
0.13008088 0.025361679 0.90710175 3815994
0.11880292 0.03195389 0.9084453 3815994
0.1217524 0.030233817 0.90600568 3815994
0.10749149 0.038565651 0.90979278 3815994
0.11047577 0.036825255 0.90734601 3815994
0.099165723 0.043436226 0.90869027 3815994
0.10216875 0.041684851 0.90624946 3815994
0.092370942 0.047413856 0.9063729 3815994
0.079517931 0.054924756 0.90893537 3815994
0.082574554 0.053142041 0.90649319 3815994
0.072771445 0.058874153 0.90661681 3815994
0.062969826 0.064605407 0.90673721 3815994
0.05472574 0.069428176 0.90564191 3815994
0.05985954 0.06641949 0.90918064 3815994
0.051597044 0.071253061 0.90807962 3815994
0.041772533 0.076997682 0.90820366 3815994
0.031949636 0.082741357 0.90832436 3815994
0.035131935 0.08088515 0.90588546 3815994
-0.071090572 0.14299826 0.90600878 3815994
-0.082652532 0.14975657 0.90734917 3815994
-0.074559331 0.14502199 0.9084484 3815994
-0.090726152 0.15447967 0.90625244 3815994
-0.086157605 0.1518015 0.90979594 3815994
-0.098780297 0.15919138 0.90515846 3815994
-0.094248727 0.15653485 0.90869331 3815994
-0.10232028 0.16125676 0.90759349 3815994
-0.11216054 0.16701061 0.90771747 3815994
-0.12199864 0.17276317 0.90783805 3815994
-0.11840489 0.17066635 0.90540171 3815994
-0.13002902 0.177461 0.90674019 5066061
-0.21668625 0.22813383 0.90661973 3815994
-0.22257063 0.23157343 0.9072938 3815994
-0.23637427 0.2396459 0.90686375 3815994
-0.22847156 0.23502272 0.90796191 3815994
-0.24227484 0.24309495 0.90753806 3815994
-0.24819189 0.24655366 0.90820658 3815994
-0.26004457 0.25348192 0.90955341 3815994
-0.25607291 0.25116417 0.90710795 3815994
-0.26792285 0.25809082 0.90845138 3815994
-0.26393482 0.25576347 0.90601182 3815994
-0.27578211 0.26268858 0.90735209 3815994
-0.2876645 0.26963425 0.90869647 3815994
-0.28362238 0.26727527 0.9062556 3815994
-0.27980801 0.2650381 0.90979898 3815994
-0.29550198 0.27421927 0.90759659 3815994
-0.29144368 0.27185082 0.90516156 3815994
-0.30332047 0.27879322 0.90649933 3815994
-0.31112009 0.2833561 0.90540475 3815994
-0.30741683 0.2811839 0.90894169 3815994
-0.31523243 0.28575614 0.90784109 3815994
-0.33080712 0.2948676 0.90564817 3815994
-0.3271797 0.29273972 0.90918678 3815994
-0.32302916 0.29031736 0.90674323 3815994
-0.33497354 0.29729927 0.90808576 3815994
-0.3469533 0.30430183 0.90943223 3815994
-0.34274855 0.30184776 0.90698743 3815994
-0.352615 0.30761689 0.90711105 3815994
-0.36247846 0.31338432 0.90723157 3815994
-0.37021291 0.31790909 0.90613526 3815994
-0.36673754 0.31587017 0.90967768 3815994
-0.38221905 0.32492712 0.90747595 3815994
-0.37792867 0.32242295 0.90504158 3815994
-0.37448767 0.32040411 0.90857548 3815994
-0.38823211 0.32844195 0.90815115 3815994
-0.39762571 0.3339403 0.9052847 3815994
-0.39426076 0.33196592 0.90882057 3815994
-0.40197018 0.33647606 0.90772027 3815994
-0.41404447 0.34353393 0.90906572 3815994
-0.40966111 0.3409754 0.90662289 3815994
-0.42173207 0.34803131 0.90796494 3815994
-0.41733333 0.34546381 0.90552795 3815994
-0.42940113 0.35251787 0.90686691 3815994
-0.44150457 0.35959277 0.90820962 3815994
-0.43705159 0.35699353 0.90577137 3815994
-0.43383884 0.35510817 0.909311 3815994
-0.44915175 0.36406654 0.90711099 3815994
-0.45678043 0.36852947 0.90601492 3815994
-0.45364395 0.36668867 0.90955645 3815994
-0.46128774 0.37116048 0.90845454 3815994
-0.47345975 0.37827545 0.90980208 3815994
-0.46891305 0.37562147 0.90735531 3815994
-0.48259497 0.38362271 0.90693212 3815994
-0.47651982 0.38007158 0.90625852 3815994
-0.48868495 0.38718256 0.90759963 3815994
-0.49626997 0.39161995 0.90650243 3815994
0.49185073 -0.18619448 0.91348332 3815994
0.48302352 -0.18103069 0.91237187 3815994
0.47321451 -0.17529511 0.91249371 3815994
0.4752211 -0.1764638 0.91003233 3815994
0.46441951 -0.17015016 0.91138458 3815994
0.47119704 -0.1741201 0.91496843 3815994
0.45564586 -0.16501769 0.91027814 3815994
0.46238065 -0.16896263 0.91385323 3815994
0.45358574 -0.16381772 0.91274083 3815994
0.443766 -0.15807588 0.91286618 3815994
0.4339464 -0.15233412 0.91298819 3815994
0.43606007 -0.15356542 0.91052419 3815994
0.4230482 -0.145964 0.91434932 3815994
0.42519441 -0.14721431 0.91187787 3815994
0.41429639 -0.1408443 0.9132356 3815994
0.4164637 -0.14210694 0.9107703 3815994
0.40556595 -0.13573708 0.91212475 3815994
0.3968567 -0.13064227 0.91101652 3815994
0.40336585 -0.13445529 0.91459739 3815994
0.39463571 -0.12934823 0.91348314 3815994
0.38367292 -0.12294036 0.91484576 3815994
0.38592684 -0.12425363 0.9123717 3815994
0.37496439 -0.11784595 0.91373086 3815994
0.37723908 -0.11917139 0.91126287 3815994
0.36742479 -0.11343272 0.9113878 3815994
0.35644662 -0.10701586 0.91274405 3815994
0.34779122 -0.10195252 0.91163445 3815994
0.33797204 -0.096211024 0.91175604 3815994
0.32934844 -0.091166273 0.91064876 3815994
0.33558971 -0.094822645 0.91422671 3815994
0.32694563 -0.089765936 0.91311342 3815994
0.31710449 -0.08401157 0.91323888 3815994
0.30849224 -0.078973472 0.91212797 3815994
0.17202735 0.00082309736 0.91262192 3815994
0.16217022 0.0065867966 0.91274726 3815994
0.15231426 0.012349806 0.91286916 3815994
0.15518764 0.010674282 0.91040576 3815994
0.14245175 0.018116649 0.9129945 3815994
0.1325905 0.023882762 0.91311657 3815994
0.1355179 0.022175655 0.91065186 3815994
0.12420382 0.028788965 0.91200596 3815994
0.11583751 0.033683248 0.91089803 3815994
0.1212414 0.030516541 0.914478 3815994
0.11285605 0.035421971 0.91336411 3815994
0.10298275 0.041195109 0.91348952 3815994
0.093110882 0.046967436 0.91361171 3815994
0.096146472 0.045197058 0.91114432 3815994
0.083232209 0.052743729 0.9137373 3815994
0.087822117 0.050066814 0.91003859 3815994
0.073355012 0.058519166 0.91385955 3815994
0.076444797 0.056717109 0.91139084 3815994
0.06658785 0.062480684 0.91151571 3815994
0.05673245 0.068243384 0.91163737 3815994
0.046870138 0.074010104 0.91176236 3815994
0.053588413 0.070077159 0.91410738 3815994
0.037009437 0.079775892 0.91188407 3815994
0.0338111 0.081641436 0.91435558 3815994
-0.073404901 0.14433548 0.9144811 3815994
-0.069916293 0.14230022 0.91200906 3815994
-0.081553183 0.14910229 0.91336715 3815994
-0.078046814 0.14705662 0.91090113 3815994
-0.089681633 0.15385748 0.91225594 3815994
-0.097790338 0.15860114 0.91114748 3815994
-0.093224786 0.15592463 0.91472936 3815994
-0.10587936 0.16333327 0.91004163 3815994
-0.10135113 0.16067863 0.91361487 3815994
-0.11305544 0.16752009 0.91497779 3815994
-0.10945769 0.16542102 0.912503 3815994
-0.12561177 0.17487128 0.91028744 3815994
-0.12115979 0.17226121 0.91386253 3815994
-0.11754454 0.17015189 0.91139388 3815994
-0.12924445 0.17699081 0.91275018 3815994
-0.21647608 0.22799952 0.91262811 3815994
-0.21260858 0.22574268 0.91016614 3815994
-0.22833928 0.23493393 0.91398811 3815994
-0.22443396 0.23265499 0.91151875 3815994
-0.23629457 0.23958787 0.91287541 3815994
-0.23237251 0.23729913 0.91041201 3815994
-0.24423048 0.24423048 0.91176534 3815994
-0.25214714 0.24886183 0.91065806 3815994
-0.24819051 0.24654141 0.91423607 3815994
-0.25612378 0.25118247 0.91312277 3815994
-0.26805255 0.25815523 0.91448432 3815994
-0.26403773 0.25581226 0.91201216 3815994
-0.27596375 0.26278338 0.91337031 3815994
-0.27193248 0.26043078 0.91090429 3815994
-0.2879253 0.2697753 0.91473246 3815994
-0.28385568 0.26740029 0.91225904 3815994
-0.29581445 0.27439055 0.91361791 3815994
-0.29172847 0.27200598 0.91115052 3815994
-0.30368441 0.27899462 0.91250616 3815994
-0.29958215 0.27660051 0.91004473 3815994
-0.31153524 0.28358749 0.9113971 3815994
-0.30780891 0.28140169 0.91498089 3815994
-0.31752145 0.28708661 0.91207814 3815994
-0.32352385 0.2905952 0.91275334 3815994
-0.33735535 0.29868394 0.91232514 3815994
-0.33135265 0.29517519 0.91164356 3815994
-0.34337404 0.30220211 0.91300064 3815994
-0.35543126 0.30924994 0.91436172 3815994
-0.35118085 0.30676922 0.91189033 3815994
-0.363235 0.31381527 0.91324806 3815994
-0.35896865 0.31132522 0.91078269 3815994
-0.37101972 0.31836948 0.91213715 3815994
-0.37705535 0.32189751 0.91281945 3815994
-0.39086938 0.32997602 0.91238409 3815994
-0.38310674 0.32543474 0.91349572 3815994
-0.39692146 0.33351371 0.91306674 3815994
-0.40633819 0.33902559 0.91016912 3815994
-0.40298921 0.33706051 0.91374338 3815994
-0.41072983 0.34158894 0.91263133 3815994
-0.42288253 0.3486926 0.91399127 3815994
-0.41845155 0.34610629 0.91152185 3815994
-0.43060097 0.35320807 0.91287851 3815994
-0.42615455 0.3506127 0.91041511 3815994
-0.43830064 0.35771254 0.9117685 3815994
-0.45048293 0.36483353 0.91312599 3815994
-0.44598165 0.3622061 0.91066122 3815994
-0.4427866 0.360331 0.91423923 3815994
-0.45816049 0.36932504 0.91201526 3815994
-0.46581939 0.37380567 0.91090727 3815994
-0.4627015 0.37197569 0.91448736 3815994
-0.47037563 0.37646523 0.91337341 3815994
-0.48262718 0.38362673 0.91473562 3815994
-0.4780311 0.38094386 0.9122622 3815994
-0.49178264 0.38898587 0.91183436 3815994
-0.48566794 0.38541162 0.91115367 3815994
-0.49791244 0.39256898 0.91250926 3815994
0.49972832 -0.19080536 0.91583717 3815994
0.49777564 -0.18966825 0.91833013 3815994
0.48790181 -0.18389481 0.91845697 3815994
0.47802797 -0.17812134 0.91858041 3815994
0.48003489 -0.17929013 0.9160862 3815994
0.46814874 -0.17234471 0.91870737 3815994
0.45826966 -0.16656817 0.91883099 3815994
0.46033075 -0.16776866 0.9163354 3815994
0.44943193 -0.1613982 0.91770643 3815994
0.45151445 -0.16261125 0.91521686 3815994
0.43850043 -0.15500866 0.91908151 3815994
0.44061583 -0.15624088 0.91658461 3815994
0.43182129 -0.15109617 0.91546559 3815994
0.42968455 -0.14985146 0.91795641 3815994
0.41872051 -0.14344287 0.91933233 3815994
0.42089024 -0.14470686 0.91683406 3815994
0.40992644 -0.13829841 0.91820657 3815994
0.41211733 -0.13957481 0.91571432 3815994
0.39892977 -0.13187076 0.91958326 3815994
0.40115383 -0.13316654 0.9170835 3815994
0.39128011 -0.12739313 0.91721004 3815994
0.37912822 -0.12029232 0.91983426 3815994
0.38140675 -0.12161994 0.91733325 3815994
0.37152761 -0.11584337 0.91745979 3815994
0.36280906 -0.11074311 0.91633856 3815994
0.35176432 -0.10428731 0.91770965 3815994
0.34306759 -0.099199787 0.91658783 3815994
0.33199027 -0.092724964 0.91795969 3815994
0.32331538 -0.087650195 0.91683733 3815994
0.31220543 -0.081156313 0.91820979 3815994
0.30355236 -0.076094307 0.91708678 3815994
0.17483218 -0.00082858856 0.91871035 3158076
0.16776758 0.0033069318 0.91634178 3815994
0.15787357 0.009092195 0.91646469 3815994
0.1494253 0.01403442 0.91534591 3815994
0.15498832 0.010774589 0.91896093 3815994
0.14652061 0.015728202 0.91783607 3815994
0.13660362 0.021526901 0.91796291 3815994
0.12816757 0.026461991 0.91684043 3815994
0.11676548 0.033126727 0.91821295 3815994
0.10835139 0.038048968 0.91708994 3815994
0.09844134 0.043843623 0.91721308 3815994
0.090058796 0.04874742 0.91609246 3815994
0.095391728 0.045622133 0.9197135 3815994
0.086990096 0.050537102 0.91858673 3815994
0.077056758 0.056345351 0.91871369 3815994
0.06712494 0.062152725 0.91883725 3815994
0.070248432 0.060331009 0.9163416 3815994
0.058765903 0.06704279 0.91771269 3815994
0.06190826 0.065210037 0.91522318 3815994
0.04724896 0.073774688 0.91908795 3815994
0.050427292 0.071920894 0.91659081 3815994
0.038911968 0.078651853 0.91796267 3815994
0.04210905 0.076787092 0.91547173 3815994
0.030595373 0.083517097 0.91684031 3815994
-0.068726361 0.14159286 0.91808933 3815994
-0.080439165 0.14843929 0.91946566 3815994
-0.076912485 0.14638183 0.91696668 3815994
-0.086850896 0.15219304 0.91709304 3815994
-0.096787199 0.15800303 0.91721624 3815994
-0.10853087 0.16486751 0.91858989 3815994
-0.10265014 0.16143006 0.91790617 3815994
-0.11667275 0.16963059 0.91746598 3815994
-0.12255223 0.17306727 0.91815615 3815994
-0.12844941 0.17651434 0.91884041 3815994
-0.21626312 0.22786343 0.91871673 3815994
-0.21237041 0.22559191 0.91622168 3815994
-0.22231944 0.23140934 0.91634798 3815994
-0.23621377 0.23952906 0.91896725 3815994
-0.23226583 0.23722523 0.91647089 3815994
-0.24222031 0.24304587 0.91659731 3815994
-0.25217208 0.2488649 0.91672027 3815994
-0.26012197 0.25351572 0.91560084 3815994
-0.25617534 0.25120106 0.919218 3815994
-0.26414201 0.2558617 0.91809255 3815994
-0.27614775 0.2628794 0.91946876 3815994
-0.27208915 0.26051089 0.91696978 3815994
-0.28205454 0.26633787 0.91709626 3815994
-0.29613113 0.27456415 0.91971976 3815994
-0.29201707 0.27216321 0.91721934 3815994
-0.30405319 0.27919871 0.91859311 3815994
-0.29992265 0.27678812 0.91609877 3815994
-0.31195581 0.28382188 0.91746902 3815994
-0.31798232 0.28734455 0.91815943 3815994
-0.3277033 0.29303443 0.91522944 3815994
-0.32402506 0.29087672 0.91884345 3815994
-0.33190548 0.29548693 0.91771901 3815994
-0.34760848 0.30467346 0.91547805 3815994
-0.34400791 0.30256116 0.91909415 3815994
-0.33976659 0.30008581 0.91659719 3815994
-0.35186598 0.30715832 0.91796905 3815994
-0.36400163 0.31425196 0.9193449 3815994
-0.35970479 0.31174415 0.91684651 3815994
-0.37183735 0.31883603 0.91821915 3815994
-0.36752447 0.31631884 0.91572684 3815994
-0.3796539 0.32340887 0.91709614 3815994
-0.38745138 0.32797056 0.91597587 3815994
-0.38400629 0.32594919 0.9195959 3815994
-0.39181963 0.33052015 0.91846949 3815994
-0.40738901 0.33962858 0.91622484 3815994
-0.40402183 0.33765274 0.91984689 3815994
-0.39961383 0.33507991 0.91734576 3815994
-0.41514522 0.34416613 0.91510671 3815994
-0.41181275 0.34221062 0.91871983 3815994
-0.41958466 0.34675735 0.91759562 3815994
-0.43181685 0.35390747 0.91897041 3815994
-0.42733756 0.35129297 0.9164741 3815994
-0.43731898 0.35712934 0.91660047 3815994
-0.44729692 0.36296368 0.91672337 3815994
-0.45500863 0.36747521 0.91560405 3815994
-0.45183182 0.36561069 0.9192211 3815994
-0.46726716 0.37464076 0.91697288 3815994
-0.45955896 0.37013128 0.91809565 3815994
-0.47340715 0.3782298 0.91766244 3815994
-0.47956243 0.38182777 0.91834587 3815994
-0.4918946 0.38903636 0.91972297 3815994
-0.48724827 0.3863242 0.9172225 3815994
-0.49957684 0.39353067 0.91859621 3815994
-0.49491534 0.39080963 0.91610187 3815994
0.49383807 -0.18737532 0.92335677 3815994
0.49581221 -0.1885249 0.92083657 3815994
0.48390967 -0.18156995 0.92348504 3815994
0.47398126 -0.17576458 0.92360991 3815994
0.47601014 -0.17694618 0.92108828 3815994
0.46507829 -0.17055644 0.92247361 3815994
0.45619726 -0.16536112 0.92134017 3815994
0.44733799 -0.16017854 0.92020947 3815994
0.45411351 -0.16414745 0.92386305 3815994
0.44523263 -0.15895221 0.92272627 3815994
0.43423498 -0.15252399 0.92411655 3815994
0.43637353 -0.15376972 0.92159218 3815994
0.42645609 -0.14797077 0.92171991 3815994
0.41434544 -0.14089411 0.92436999 3815994
0.41653892 -0.14217196 0.92184424 3815994
0.40661609 -0.13636985 0.92197216 3815994
0.39669353 -0.13056789 0.92209661 3815994
0.38790008 -0.12542379 0.920964 3815994
0.394445 -0.12925789 0.92462367 3815994
0.38563028 -0.12410132 0.92348492 3815994
0.37453365 -0.11761525 0.92487746 3815994
0.37683716 -0.11895743 0.92234886 3815994
0.36690342 -0.11314891 0.92247695 3815994
0.35814294 -0.10802411 0.92134345 3815994
0.34703076 -0.10152891 0.92272955 3815994
0.3382923 -0.09641698 0.92159545 3815994
0.32836461 -0.090612002 0.92171979 3815994
0.31965864 -0.085519068 0.9205882 3815994
0.32592982 -0.089193076 0.92424482 3815994
0.31720304 -0.084087946 0.92310697 3815994
0.30725279 -0.078269802 0.92323524 3815994
0.16912457 0.0024993781 0.92374128 3815994
0.17198618 0.00083085109 0.92121899 3815994
0.16203614 0.0066488641 0.92134655 3815994
0.14917044 0.014167025 0.92399454 3815994
0.15208733 0.012466175 0.92147088 3815994
0.14213182 0.018287392 0.92159861 3815994
0.13217759 0.024107864 0.92172295 3815994
0.12371247 0.029059974 0.92059129 3815994
0.12920538 0.025841074 0.92424804 3815994
0.12072074 0.030804601 0.92311019 3815994
0.10922934 0.03752153 0.92450166 3815994
0.11225697 0.035755921 0.92197514 3815994
0.10229049 0.04158356 0.92210305 3815994
0.089242339 0.049208391 0.92475533 3815994
0.092325434 0.047410361 0.9222275 3815994
0.082353458 0.053241208 0.92235547 3815994
0.072382994 0.059071176 0.92247999 3815994
0.063984387 0.063984387 0.92134649 3815994
0.055606402 0.068885542 0.92021579 3815994
0.060826637 0.065826088 0.92386949 3815994
0.05242962 0.070738375 0.92273253 3815994
0.042446643 0.076575667 0.92286068 3815994
0.032465324 0.082411975 0.92298537 3815994
0.035697442 0.080526792 0.9204672 3815994
-0.07223504 0.1436398 0.92059445 3815994
-0.075762928 0.14569794 0.92311335 3815994
-0.087550536 0.15258807 0.92450482 3815994
-0.083985135 0.15050802 0.92197835 3815994
-0.095770597 0.1573969 0.92336631 3815994
-0.092187144 0.15530626 0.9208461 3815994
-0.10759161 0.16430657 0.92475855 3815994
-0.10397045 0.16219389 0.92223066 3815994
-0.11578923 0.16910225 0.92361939 3815994
-0.11215015 0.1669791 0.92109782 3815994
-0.1239667 0.17388618 0.92248315 3815994
-0.13212407 0.17865832 0.92134964 3815994
-0.21604727 0.22772551 0.92488706 3815994
-0.22820526 0.23484395 0.92009491 3815994
-0.22214474 0.23129553 0.92248642 3815994
-0.23215775 0.23715039 0.92261106 3815994
-0.24217892 0.24300998 0.92273909 3815994
-0.25219736 0.24886802 0.92286372 3815994
-0.24818914 0.24652901 0.92034626 3815994
-0.26020047 0.25354996 0.92172933 3815994
-0.26818392 0.25822043 0.92059767 3815994
-0.26424763 0.25591174 0.92425436 3815994
-0.27224794 0.26059207 0.92311656 3815994
-0.28818962 0.26991823 0.9208492 3815994
-0.28228018 0.26645815 0.92324477 3815994
-0.29230952 0.27232254 0.92336947 3815994
-0.3023473 0.27819186 0.9234978 3815994
-0.31238213 0.28405946 0.92362267 3815994
-0.30820626 0.28162244 0.92110097 3815994
-0.32031775 0.28870198 0.92248636 3815994
-0.32823387 0.29333305 0.9213528 3815994
-0.33613056 0.29795277 0.9202221 3815994
-0.33246571 0.29580283 0.92387593 3815994
-0.34037876 0.30043212 0.92273891 3815994
-0.35614669 0.30965668 0.92047352 3815994
-0.35256031 0.30755261 0.92412925 3815994
-0.34827241 0.30505008 0.92160481 3815994
-0.36045086 0.31216875 0.92299181 3815994
-0.37266594 0.31930885 0.92438281 3815994
-0.36832196 0.3167735 0.921857 3815994
-0.38053381 0.32391173 0.92324454 3815994
-0.37617373 0.32136697 0.92072499 3815994
-0.38838243 0.32850334 0.92210925 3815994
-0.39621174 0.33308366 0.9209767 3815994
-0.39278263 0.33107156 0.92463648 3815994
-0.40062791 0.33566123 0.92349768 3815994
-0.41626069 0.34480676 0.92122847 3815994
-0.41291031 0.3428407 0.92489028 3815994
-0.40845391 0.34023961 0.92236167 3815994
-0.42239064 0.34838992 0.92192447 3815994
-0.42853639 0.3519823 0.92261422 3815994
-0.44084907 0.35917947 0.92400414 3815994
-0.43632063 0.35653627 0.92148042 3815994
-0.44862986 0.36373144 0.92286694 3815994
-0.44408578 0.36107907 0.92034942 3815994
-0.45639151 0.36827222 0.92173249 3815994
-0.46255517 0.37187505 0.9224292 3815994
-0.46873432 0.375487 0.92311972 3815994
-0.48265392 0.38362727 0.92268181 3815994
-0.47647339 0.38001454 0.92198467 3815994
-0.48884985 0.38724902 0.92337275 3815994
-0.4965663 0.39176336 0.9222371 3815994
0.49884847 -0.19031698 0.92958981 3815994
0.48985714 -0.18505713 0.92843872 3815994
0.49185309 -0.18621941 0.9258908 3815994
0.47885898 -0.17862865 0.92984635 3815994
0.48088813 -0.17981035 0.92729068 3815994
0.46988997 -0.17338185 0.92869473 3815994
0.47194123 -0.17457649 0.92614537 3815994
0.46197975 -0.16875178 0.9262743 3815994
0.44991174 -0.16170011 0.92895079 3815994
0.45201841 -0.16292715 0.92639995 3815994
0.44205141 -0.15709923 0.92652905 3815994
0.42992243 -0.15001193 0.92920691 3815994
0.43208465 -0.15127142 0.92665476 3815994
0.42320409 -0.14607637 0.925511 3815994
0.42102015 -0.14480415 0.92805684 3815994
0.40992218 -0.1383173 0.92946327 3815994
0.41213986 -0.13960925 0.92690963 3815994
0.40216184 -0.13377486 0.92703885 3815994
0.38991085 -0.12661621 0.92971969 3815994
0.39218414 -0.12794067 0.92716461 3815994
0.3822006 -0.12210307 0.92729402 3815994
0.37221748 -0.11626568 0.92741996 3815994
0.36340353 -0.11110958 0.92627418 3815994
0.36988845 -0.11490866 0.92997628 3815994
0.35461137 -0.10596623 0.92513138 3815994
0.36105317 -0.10974006 0.92882431 3815994
0.35223976 -0.10458425 0.92767519 3815994
0.34224513 -0.09874016 0.92780471 3815994
0.33346462 -0.093603596 0.92665809 3815994
0.3222509 -0.087049067 0.92806029 3815994
0.31349266 -0.081925534 0.92691302 3815994
0.30350429 -0.076085098 0.92703873 3815994
0.17481734 -0.00083644659 0.92742306 3815994
0.16624726 0.004177067 0.92627746 3815994
0.1719442 0.0008387522 0.92997944 3815994
0.15769832 0.0091782091 0.9251346 3815994
0.16335408 0.005863993 0.92882752 3815994
0.15478523 0.0108768 0.92767841 3815994
0.14328848 0.01759683 0.92908365 3815994
0.14623755 0.015877219 0.92653221 3815994
0.13474207 0.022596495 0.92793381 3815994
0.13771093 0.020865293 0.92538863 3815994
0.12321177 0.029336136 0.92933983 3815994
0.1262168 0.027583806 0.92678696 3815994
0.11468789 0.034322653 0.92818952 3815994
0.11771258 0.032558799 0.92564285 3815994
0.10618507 0.039296836 0.92704201 3815994
0.097703233 0.044258732 0.92589718 3815994
0.10312402 0.041081924 0.9295963 3815994
0.094622642 0.046055268 0.92844528 3815994
0.083025157 0.05283419 0.92985278 3815994
0.086142302 0.051016312 0.92729712 3815994
0.074546337 0.057794347 0.9287011 3815994
0.077682897 0.055965099 0.92615175 3815994
0.067666434 0.06182196 0.9262808 3815994
0.054458968 0.069539912 0.92895722 3815994
0.05765155 0.067677908 0.92640644 3815994
0.047629528 0.073537998 0.92653549 3815994
0.037609175 0.079397142 0.92666113 3815994
0.034360513 0.081291944 0.92921335 3815994
-0.071049444 0.14293475 0.92679018 3815994
-0.082876943 0.14984821 0.92819279 3815994
-0.079310164 0.14776736 0.92564601 3815994
-0.074597865 0.14500484 0.9293431 3815994
-0.091135532 0.15467957 0.92704517 3815994
-0.099373721 0.159499 0.9259004 3815994
-0.094740272 0.15678258 0.92959946 3815994
-0.10299668 0.16161267 0.92844844 3815994
-0.11306324 0.16749883 0.92857814 3815994
-0.12312753 0.17338367 0.92870444 3815994
-0.11944832 0.17123711 0.92615503 3815994
-0.13134088 0.17818858 0.92755556 3815994
-0.12764367 0.17603149 0.92501241 3815994
-0.22806942 0.23475277 0.92628384 3815994
-0.22394842 0.232336 0.929986 3815994
-0.21998698 0.23002441 0.9274295 3815994
-0.23613191 0.23946947 0.92514098 3815994
-0.23204817 0.23707448 0.9288339 3815994
-0.24012795 0.24180132 0.9276849 3815994
-0.25222299 0.24887118 0.92909008 3815994
-0.24818772 0.24651642 0.92653859 3815994
-0.26027998 0.25358468 0.92794037 3815994
-0.25622758 0.25121987 0.92539507 3815994
-0.26831704 0.25828651 0.92679334 3815994
-0.27633429 0.26297674 0.92564929 3815994
-0.2724089 0.26067436 0.92934638 3815994
-0.2804431 0.26537451 0.92819589 3815994
-0.29645208 0.2747401 0.92590368 3815994
-0.29260594 0.27248403 0.92960274 3815994
-0.28845751 0.27006313 0.92704844 3815994
-0.3006174 0.2771709 0.92845172 3815994
-0.31281412 0.28430024 0.92985922 3815994
-0.30860898 0.28184614 0.92730343 3815994
-0.32080275 0.28897378 0.9287076 3815994
-0.31658089 0.28650987 0.92615813 3815994
-0.32877162 0.29363573 0.92755878 3815994
-0.3245331 0.29116207 0.92501563 3815994
-0.33672079 0.29828617 0.92641282 3815994
-0.34282476 0.3018541 0.92711657 3815994
-0.34894535 0.30543178 0.92781425 3815994
-0.36299273 0.31364679 0.92737174 3815994
-0.35687172 0.31006888 0.92666751 3815994
-0.36913016 0.31723431 0.92806977 3815994
-0.38142571 0.32442144 0.92947614 3815994
-0.3770338 0.32185814 0.9269225 3815994
-0.3893261 0.32904336 0.92832541 3815994
-0.38491794 0.32647052 0.92577809 3815994
-0.39720699 0.33365387 0.92717761 3815994
-0.40506834 0.33825293 0.92603248 3815994
-0.4016557 0.33625039 0.92973268 3815994
-0.40953314 0.34085888 0.92858118 3815994
-0.42189679 0.34808582 0.92998922 3815994
-0.41739118 0.34545603 0.92743272 3815994
-0.43304905 0.35461625 0.92514414 3815994
-0.42749062 0.35136139 0.92756218 3815994
-0.43758658 0.35726476 0.92768806 3815994
-0.44769156 0.36317337 0.92781752 3815994
-0.45779306 0.36907995 0.92794353 3815994
-0.45319888 0.36639836 0.92539823 3815994
-0.46558604 0.37363908 0.92679662 3815994
-0.47179055 0.37726581 0.92750108 3815994
-0.47801068 0.38090169 0.92819917 3815994
-0.49200237 0.38908413 0.92775643 3815994
-0.48578086 0.38544747 0.92705166 3815994
-0.49823943 0.39272991 0.92845488 3815994
0.49486834 -0.18799938 0.9347409 3815994
0.4968639 -0.18916139 0.93215823 3815994
0.48684126 -0.18330091 0.932289 3815994
0.47681862 -0.17744043 0.9324162 3815994
0.46679038 -0.17157669 0.93254697 3815994
0.45781028 -0.16632342 0.93138862 3815994
0.44779342 -0.16046631 0.93151569 3815994
0.4388468 -0.15523262 0.93035978 3815994
0.44566333 -0.15922566 0.93409473 3815994
0.43669471 -0.15397906 0.93293256 3815994
0.42665523 -0.14810877 0.93306345 3815994
0.41772014 -0.14288178 0.93190384 3815994
0.40657103 -0.13636506 0.93332195 3815994
0.39765841 -0.1311512 0.93216163 3815994
0.38762495 -0.12528442 0.93228883 3815994
0.3787457 -0.1200901 0.93113112 3815994
0.38532645 -0.12394527 0.93487227 3815994
0.37642542 -0.11873822 0.93370801 3815994
0.36754659 -0.11354414 0.93254679 3815994
0.35750163 -0.10767062 0.93267775 3815994
0.34865612 -0.10249601 0.93151903 3815994
0.33740652 -0.095920563 0.93293583 3815994
0.32858354 -0.090759128 0.93177664 3815994
0.31730038 -0.084164008 0.93319428 3815994
0.30849993 -0.079015762 0.93203437 3815994
0.16905521 0.002523212 0.93255007 3815994
0.15751971 0.0092658652 0.93397009 3815994
0.16044496 0.0075602336 0.93139172 3815994
0.14891072 0.01430216 0.93280822 3815994
0.15185606 0.012584757 0.93023622 3815994
0.14032312 0.01932594 0.93164927 3815994
0.13175684 0.024337251 0.93049318 3815994
0.13734135 0.021064624 0.93422908 3815994
0.12875508 0.026087631 0.93306655 3815994
0.11715179 0.032869928 0.93448818 3815994
0.12019016 0.031098153 0.93190694 3815994
0.10858827 0.037879631 0.93332499 3815994
0.11164649 0.036096234 0.93075013 3815994
0.096951038 0.044681784 0.93474746 3815994
0.10004605 0.042876881 0.93216473 3815994
0.088410296 0.049678165 0.93358362 3815994
0.091525048 0.047861721 0.93100739 3815994
0.079890803 0.054662131 0.93242276 3815994
0.071392462 0.059633706 0.93126464 3815994
0.062915206 0.06459295 0.93010944 3815994
0.068221129 0.061483238 0.9338423 3815994
0.059724387 0.066453896 0.93268079 3815994
0.048020769 0.073294863 0.93410122 3815994
0.051248755 0.071412206 0.93152213 3815994
0.039546806 0.078252196 0.93293899 3815994
0.042794157 0.076358199 0.93036628 3815994
0.031093907 0.083197206 0.93177968 3815994
-0.06984777 0.14222015 0.93306977 4538429
-0.081753694 0.14917943 0.93449146 3815994
-0.078165904 0.14708638 0.93191022 3815994
-0.090069667 0.15404437 0.93332833 3815994
-0.086463377 0.15194049 0.93075341 3815994
-0.098364949 0.15889724 0.93216801 3815994
-0.10663962 0.16373801 0.93101048 3815994
-0.10200971 0.16102359 0.93475074 3815994
-0.11030276 0.16587515 0.93358696 3815994
-0.11857518 0.17071462 0.93242592 3815994
-0.13054706 0.17771244 0.93384558 3815994
-0.12682705 0.17554207 0.93126786 3815994
-0.13505846 0.18035756 0.93011272 3815994
-0.21979433 0.22989982 0.93371785 3815994
-0.22793175 0.23466037 0.93255663 3815994
-0.23604895 0.23940907 0.93139827 3815994
-0.24210891 0.24295127 0.93210971 3815994
-0.24818628 0.24650365 0.93281478 3815994
-0.26036057 0.25361985 0.93423557 3815994
-0.25628054 0.25123897 0.93165576 3815994
-0.26845202 0.2583535 0.93307304 3815994
-0.26435474 0.25596252 0.93049961 3815994
-0.27652335 0.26307541 0.93191344 3815994
-0.2826176 0.26663762 0.93262565 3815994
-0.29677734 0.27491838 0.93217123 3815994
-0.28872901 0.27020994 0.93333161 3815994
-0.30288875 0.27849066 0.93288386 3815994
-0.30901718 0.2820729 0.93359011 3815994
-0.31704253 0.28676793 0.93242919 3815994
-0.32718229 0.29269689 0.93256009 3815994
-0.33731896 0.29862401 0.93268728 3815994
-0.3330335 0.296123 0.93011594 3815994
-0.34530139 0.30329391 0.93152857 3815994
-0.35326403 0.30795226 0.93037277 3815994
-0.34962735 0.30581862 0.93410772 3815994
-0.35760662 0.3104867 0.93294555 3815994
-0.37350571 0.31978804 0.93062967 3815994
-0.36775771 0.31642228 0.9330765 3815994
-0.37790552 0.32235593 0.93320394 3815994
-0.39028254 0.32959068 0.93462592 3815994
-0.38584191 0.32699892 0.93204391 3815994
-0.39821565 0.33423173 0.93346244 3815994
-0.39375862 0.33163038 0.93088686 3815994
-0.406129 0.33886126 0.93230188 3815994
-0.41232491 0.34248292 0.93301469 3815994
-0.41853705 0.34611413 0.93372113 3815994
-0.4264273 0.35073015 0.93255985 3815994
-0.44214907 0.3599278 0.93024594 3815994
-0.43886968 0.35800311 0.93397993 3815994
-0.43429798 0.3553347 0.93140149 3815994
-0.44673687 0.36260563 0.93281806 3815994
-0.45921361 0.36989868 0.93423885 3815994
-0.45458445 0.36719668 0.93165898 3815994
-0.46705768 0.37448767 0.93307638 3815994
-0.46241257 0.37177634 0.93050283 3815994
-0.47488213 0.37906519 0.93191659 3815994
-0.48268723 0.38363141 0.93075985 3815994
-0.47956884 0.38180083 0.93449795 3815994
-0.48738971 0.38637629 0.93333483 3815994
-0.49756324 0.39232498 0.93346584 3815994
0.49185276 -0.18624344 0.93864357 3815994
0.48278272 -0.18093754 0.93747008 3815994
0.47373539 -0.1756449 0.93629944 3815994
0.46261925 -0.16914749 0.93773091 3815994
0.45359457 -0.1638681 0.93655968 3815994
0.44244453 -0.15735087 0.93799198 3815994
0.43344259 -0.15208477 0.93682015 3815994
0.42336386 -0.14619151 0.93694854 3815994
0.41439566 -0.14094517 0.93577921 3815994
0.42115334 -0.14490387 0.93955785 3815994
0.41216296 -0.13964453 0.93838203 3815994
0.4020614 -0.13373792 0.93851453 3815994
0.39310491 -0.12849841 0.93734133 3815994
0.38301507 -0.12259864 0.9374699 3815994
0.37291923 -0.11669537 0.93760216 3815994
0.36282381 -0.11079235 0.93773079 3815994
0.36519179 -0.11217207 0.93513167 3815994
0.35392377 -0.10558585 0.9365595 3815994
0.34504595 -0.10039234 0.93539125 3815994
0.35152084 -0.1041857 0.93916667 3815994
0.34262136 -0.098979503 0.93799186 3815994
0.33251417 -0.093069613 0.9381243 3815994
0.32364827 -0.08788307 0.93695199 3815994
0.31229478 -0.081246853 0.93838549 3815994
0.1748022 -0.00084445503 0.93630254 3815994
0.16615018 0.00421701 0.93513495 3815994
0.17190145 0.00084680517 0.93890828 3815994
0.16322902 0.0059202234 0.93773413 3815994
0.1530993 0.011843293 0.93786645 3815994
0.1429709 0.017765615 0.9379952 3815994
0.14594904 0.016029084 0.93539447 3815994
0.13283551 0.023692004 0.93812752 3815994
0.12270149 0.0296176 0.93825632 3815994
0.12573667 0.02784772 0.93565422 3815994
0.11409655 0.034651544 0.93708378 3815994
0.1055131 0.039672922 0.93591416 3815994
0.11102428 0.036443084 0.93969381 3815994
0.1024208 0.04147619 0.93851769 3815994
0.09227404 0.047409233 0.93865025 3815994
0.0821288 0.053341385 0.93877912 3815994
0.085278265 0.051504694 0.93617415 3815994
0.073569804 0.058348466 0.93760526 3815994
0.076739065 0.056500189 0.9350068 3815994
0.065032199 0.063343048 0.93643445 3815994
0.056515869 0.068325154 0.93526632 3815994
0.061825499 0.065213196 0.93904078 3815994
0.053289518 0.070206828 0.93786627 3815994
0.04314287 0.076139793 0.93799853 3815994
0.032997932 0.082071781 0.93812734 3815994
0.036281448 0.080156691 0.93552595 3815994
-0.073416971 0.14430232 0.9356575 3815994
-0.077006035 0.14639609 0.93825966 3815994
-0.087175332 0.15234232 0.9383921 3815994
-0.097342417 0.15828723 0.93852091 3815994
-0.093695946 0.15615992 0.93591738 3815994
-0.10567471 0.16316175 0.93734771 3815994
-0.11398619 0.16802409 0.93617743 3815994
-0.10936014 0.16531184 0.93995929 3815994
-0.12227695 0.17287432 0.93501008 3815994
-0.11769015 0.17018503 0.93878245 3815994
-0.13428771 0.17989486 0.93643761 3815994
-0.12599932 0.17504603 0.9376086 3815994
-0.1380492 0.18208943 0.93904406 3815994
-0.22779219 0.23456667 0.9389149 3815994
-0.22378217 0.23222677 0.93630916 3815994
-0.23596482 0.23934783 0.93774062 3815994
-0.23193716 0.2369976 0.93514144 3815994
-0.24411705 0.24411705 0.93656939 3815994
-0.25224897 0.2488744 0.93540108 3815994
-0.2481848 0.24649072 0.93917656 3815994
-0.25633422 0.25125831 0.93800175 3815994
-0.26858881 0.25842142 0.93943846 3815994
-0.26446328 0.25601396 0.93682981 3815994
-0.27671495 0.26317537 0.93826288 3815994
-0.27257201 0.26075774 0.93566072 3815994
-0.2848208 0.26791748 0.93709034 3815994
-0.2929064 0.27264774 0.93592072 3815994
-0.28900418 0.27035874 0.93970042 3815994
-0.30518964 0.27982762 0.93735105 3815994
-0.29710704 0.2750991 0.93852425 3815994
-0.31325203 0.28454429 0.93618065 3815994
-0.30943096 0.28230277 0.93996263 3815994
-0.32129437 0.28924927 0.93501335 3815994
-0.31751046 0.28702947 0.93878567 3815994
-0.32556981 0.29174438 0.93761182 3815994
-0.33792531 0.2989665 0.9390474 3815994
-0.33360904 0.29644752 0.93644094 3815994
-0.34596136 0.30366778 0.93787283 3815994
-0.34162816 0.30113891 0.93527281 3815994
-0.35397729 0.30835733 0.93670118 3815994
-0.36197326 0.31303516 0.93553251 3815994
-0.35835153 0.3109102 0.93930918 3815994
-0.36636421 0.3155978 0.9381339 3815994
-0.38232967 0.32493803 0.93579233 3815994
-0.37878913 0.32286051 0.93957108 3815994
-0.37435696 0.32027379 0.93696171 3815994
-0.3867785 0.32753453 0.93839526 3815994
-0.39923811 0.33481753 0.93983316 3815994
-0.39474791 0.33219686 0.93722236 3815994
-0.40720409 0.33947784 0.93865657 3815994
-0.40269738 0.33684748 0.93605226 3815994
-0.4151502 0.34412655 0.93748307 3815994
-0.42307645 0.34876361 0.93631244 3815994
-0.43098295 0.35338914 0.93514478 3815994
-0.42764112 0.35142785 0.93891817 3815994
-0.43556386 0.35606289 0.93774396 3815994
-0.44808951 0.36338452 0.9391799 3815994
-0.44346678 0.36068633 0.93657267 3815994
-0.45598885 0.36800584 0.93800497 3815994
-0.45135003 0.36529824 0.9354043 3815994
-0.46386847 0.37261567 0.93683302 3815994
-0.47642529 0.3799555 0.93826622 3815994
-0.4717285 0.37721401 0.93566412 3815994
-0.46854928 0.37534779 0.93944168 3815994
-0.48428154 0.38455167 0.93709362 3815994
-0.49211818 0.38913631 0.93592387 3815994
-0.48902053 0.38731781 0.9397037 3815994
-0.49687308 0.3919118 0.93852758 3815994
0.49994802 -0.19098184 0.94112915 3815994
0.49794179 -0.1898137 0.94376177 3815994
0.48881474 -0.18447444 0.94257545 3815994
0.47867888 -0.17854777 0.94270909 3815994
0.46854308 -0.17262113 0.94283915 3815994
0.47062927 -0.17383604 0.94021165 3815994
0.45840156 -0.16669115 0.94297296 3815994
0.4482601 -0.16076121 0.94310302 3815994
0.45040336 -0.16200949 0.94047397 3815994
0.4392018 -0.15546215 0.94191831 3815994
0.43016624 -0.15017638 0.94073659 3815994
0.43702388 -0.15419361 0.94455552 3815994
0.42796576 -0.14889465 0.94336706 3815994
0.41781276 -0.14295796 0.943501 3815994
0.40878895 -0.13767904 0.94231534 3815994
0.39864776 -0.13174926 0.94244534 3815994
0.38850051 -0.12581593 0.94257891 3815994
0.38069087 -0.12124453 0.94008213 3815994
0.37835366 -0.11988284 0.94270891 3815994
0.36820072 -0.1139462 0.94284266 3815994
0.35804823 -0.1080098 0.94297272 3815994
0.3604427 -0.10940497 0.94034451 3815994
0.3478896 -0.10206981 0.94310653 3815994
0.33773148 -0.096130118 0.94323671 3815994
0.34018323 -0.097558774 0.94060695 3815994
0.32881075 -0.0909115 0.94205165 3815994
0.31991243 -0.085705988 0.94086963 3815994
0.32632339 -0.089462027 0.94468951 3815994
0.31740329 -0.084243774 0.94350082 3815994
0.30850568 -0.079038642 0.94231522 3815994
0.17769931 -0.0025507077 0.94271219 3815997
0.16751787 0.0034026145 0.942846 3815994
0.15733767 0.0093552126 0.942976 3815994
0.16029155 0.0076329312 0.94034779 3815994
0.148646 0.014439897 0.94179165 3815994
0.13997613 0.019511824 0.94061029 3815994
0.14565498 0.016183887 0.94442809 3815994
0.13696463 0.0212678 0.94324005 3815994
0.12677169 0.027227838 0.94337392 3815994
0.11811477 0.032292202 0.9421885 3815994
0.10793487 0.038244639 0.9423185 3815994
0.099311247 0.04328952 0.9411357 3815994
0.10482813 0.040056277 0.94495773 3815994
0.096184306 0.045112994 0.94376844 3815994
0.087562211 0.050156996 0.94258207 3815994
0.077369384 0.056116968 0.94271576 3815994
0.067178153 0.062076017 0.94284576 3815994
0.070382893 0.06020705 0.94021827 3815994
0.056979589 0.068039358 0.94297957 3815994
0.046782695 0.074001715 0.94310969 3815994
0.050045177 0.072098985 0.94048071 3815994
0.038228668 0.079005919 0.94192505 3815994
0.029696103 0.083997548 0.94074321 4604221
0.03492808 0.080930918 0.94456214 3815994
-0.072219923 0.14359021 0.94205832 3815994
-0.080615111 0.14850152 0.94087631 3815994
-0.075830251 0.14569633 0.94469619 3815994
-0.084244363 0.1506187 0.94350743 3815994
-0.09630587 0.15766889 0.94496119 3815994
-0.092637338 0.15552874 0.94232184 3815994
-0.1028529 0.161502 0.94245541 3815994
-0.11306615 0.16747393 0.94258529 3815994
-0.12516022 0.17454316 0.94403619 3815994
-0.12141475 0.17235801 0.94140196 3815994
-0.13350643 0.17942584 0.9428491 3815994
-0.12974241 0.17722984 0.94022161 3815994
-0.21959905 0.22977352 0.94009203 3815994
-0.22361363 0.23211604 0.94271886 3815994
-0.23587959 0.23928578 0.94417012 3815994
-0.23182461 0.23691964 0.94153517 3815994
-0.24205136 0.24289946 0.94166857 3815994
-0.25227526 0.24887761 0.94179827 3815994
-0.26044229 0.25365549 0.94061691 3815994
-0.25638863 0.25127789 0.9444347 3815994
-0.26457328 0.25606611 0.94324666 3815994
-0.2769092 0.26327676 0.94469953 3815994
-0.27273738 0.26084229 0.94206166 3815994
-0.28507033 0.26805121 0.94351083 3815994
-0.28088096 0.26560646 0.94087946 3815994
-0.29321095 0.27281368 0.94232512 3815994
-0.3013311 0.27756417 0.94114232 3815994
-0.29744127 0.27528232 0.94496447 3815994
-0.31369594 0.28479171 0.94258863 3815994
-0.30557883 0.28004301 0.94377506 3815994
