# .PCD v0.7 - Point Cloud Data file format
VERSION 0.7
FIELDS x y z rgb
SIZE 4 4 4 4
TYPE F F F U
COUNT 1 1 1 1
WIDTH 1126
HEIGHT 1
VIEWPOINT 0 0 0 1 0 0 0
POINTS 1126
DATA ascii
-0.00394279 0.018263871 0.41332451 4802889
0.099216476 0.016362371 0.41418773 1776172
0.10204536 0.017729172 0.41198212 2499882
-0.035503592 0.021302745 0.41437006 6574403
-0.032553338 0.022757035 0.41184855 6574403
-0.029051045 0.023962436 0.41032586 6574403
-0.0057347799 0.020904396 0.4102338 3684408
-0.0024029615 0.02246584 0.41191593 4276545
0.00052330166 0.023983557 0.4142243 5658198
0.10354224 0.022099506 0.41302308 3289648
0.10611671 0.023392558 0.41105598 3421233
-0.031642582 0.02722339 0.41307327 6574403
-0.028019728 0.027762285 0.4108437 6574403
-0.00099678792 0.026808914 0.41066068 4605510
0.0018386393 0.027995594 0.41275811 5197647
0.10439301 0.025786934 0.41437149 3618613
0.10744878 0.027556861 0.41245666 2500134
-0.030553039 0.030852044 0.41412991 6574403
-0.027695986 0.032411247 0.41215611 7036242
-0.024793124 0.034414336 0.41029489 7893871
0.0031645719 0.032049771 0.41179734 4605510
0.0062539601 0.033132926 0.41394806 5658198
-0.026338965 0.036934707 0.4136408 7234138
-0.023947755 0.03776836 0.41149497 6970192
0.0043593962 0.036781382 0.41067341 4539717
0.0072135129 0.037763406 0.41259342 4210752
0.010093275 0.039625078 0.4144842 5460819
-0.02506065 0.041144561 0.41472211 6574403
-0.022353707 0.042554095 0.41235721 6574403
-0.019620644 0.044424325 0.4104659 6574403
0.0078842696 0.042260032 0.4111473 3618615
0.010940813 0.042944856 0.41308737 4408131
-0.021212908 0.046531748 0.41383612 6574403
-0.018464236 0.048062563 0.41164598 6574403
0.0093343947 0.047082588 0.41033676 6381921
0.011900192 0.047435991 0.41224027 4671303
-0.016987417 0.052223004 0.41254976 7365981
-0.014434405 0.052926559 0.41036838 7828078
0.012847077 0.052189391 0.41135466 6118749
0.016030695 0.053709343 0.41333616 6052955
-0.015729351 0.056357954 0.4138214 6904142
-0.013097302 0.057855964 0.41177878 6640197
0.013929399 0.056655869 0.41057986 5263694
0.017305247 0.057740577 0.41245824 4145990
0.020568132 0.05908649 0.41464061 5676
-0.011420034 0.062076941 0.41300762 6574403
-0.0079178121 0.063075736 0.41075942 6574403
0.018343071 0.062176924 0.41123149 5420
0.021313358 0.06274198 0.41384524 5676
-0.010333872 0.06623508 0.41412738 6574403
-0.0073787537 0.067526177 0.41167971 6574403
-0.0048074545 0.068043992 0.4100261 6640196
0.019206617 0.067459777 0.41065258 70955
0.021505143 0.067229435 0.41271433 268333
-0.0066695176 0.072006583 0.41302189 6508610
-0.0042821513 0.073395602 0.41118574 6377282
0.01840483 0.073441058 0.4111416 465454
0.022095447 0.072442919 0.4130592 3752006
0.025072008 0.07297077 0.41491008 394758
-0.0056037232 0.075463787 0.41421428 5260606
-0.0023903542 0.077312648 0.41221932 399403
0.00077380775 0.078182727 0.41047946 5161
0.0082285209 0.079391435 0.41095304 5161
0.012826142 0.077789351 0.41191658 5161
0.017091859 0.076363958 0.41281599 70954
0.021605125 0.075429261 0.414437 2240574
-0.0012028646 0.08105734 0.41373837 5161
0.0024960297 0.082627103 0.41239667 5161
0.0069891023 0.081565738 0.4131853 5161
0.010459241 0.080309108 0.41415796 5161
0.0026173987 0.085820064 0.41461521 2108986
0.089376129 -0.092376493 0.41579187 3553861
0.092259936 -0.091756225 0.41770914 3224133
0.093132488 -0.088691808 0.41609752 986687
0.097404756 -0.08747334 0.41720209 526140
0.10187916 -0.085622437 0.41769308 526143
0.10354549 -0.083644725 0.41634703 921157
0.1068465 -0.081866041 0.41770011 2960973
0.10870188 -0.078034908 0.41651437 3223631
0.11115442 -0.076290496 0.41834155 2499920
0.054595049 -0.071364559 0.41939986 3224635
0.057207607 -0.071703136 0.41652605 3092542
0.10972866 -0.074525617 0.41523328 2697295
0.11257317 -0.072379977 0.41725689 2368592
0.057613324 -0.067747265 0.41754705 723254
0.11413238 -0.068704732 0.41626865 3289680
0.11632132 -0.06705337 0.41787907 4079440
0.057582069 -0.062533371 0.41714913 394549
0.11799929 -0.062875442 0.41654253 4473934
0.12067199 -0.060776744 0.41855109 4737360
0.057494853 -0.057476178 0.41716316 460344
0.11960446 -0.059240274 0.41571563 4473932
0.12178588 -0.057037782 0.41697529 4210765
0.058287989 -0.052507769 0.41760936 1118013
0.060338832 -0.050969269 0.41553795 1775936
0.12367944 -0.053137422 0.41652989 2565710
0.12588044 -0.051213153 0.41812977 2960208
0.059353743 -0.048615508 0.41858137 1249851
0.061423168 -0.04713821 0.41681024 3289662
0.12482299 -0.049854226 0.41561386 3684430
0.12729675 -0.047348622 0.41691115 3092047
0.063258126 -0.042793345 0.41758266 3223613
0.065750845 -0.040625438 0.41579688 1644351
0.12903689 -0.04326329 0.41590622 2368078
0.13105235 -0.041897219 0.41754749 2499918
0.064401194 -0.038816493 0.41921329 3486779
0.066763856 -0.037194934 0.41709843 2038845
0.13304889 -0.037765939 0.41682854 3486798
0.13577783 -0.035930067 0.41934752 3223626
0.068593517 -0.033020034 0.41789198 1644348
0.070654452 -0.031762186 0.41596249 1644096
0.13426788 -0.034098011 0.41545546 2762830
0.13655104 -0.0323174 0.41708651 2894669
0.069692433 -0.029616222 0.41920185 2105400
0.072268076 -0.027370939 0.41724196 2828861
0.13870075 -0.027779108 0.41620246 3684174
0.14061363 -0.02657935 0.4179849 2894668
0.073930286 -0.023173088 0.41834339 1380923
0.075953595 -0.021824546 0.41645619 1907518
0.14233524 -0.022599572 0.416998 2763084
0.07772059 -0.017632848 0.41735357 1644349
0.080517448 -0.01535449 0.41523239 1644354
0.14413401 -0.018768521 0.41617462 3223373
0.14618172 -0.016841458 0.41758084 3157834
0.079191647 -0.013344184 0.41878572 2039353
0.081364878 -0.011959395 0.41667339 2104892
0.14829382 -0.012559052 0.41689214 3355462
0.1503184 -0.010171922 0.41771391 3684421
0.083034799 -0.0077331741 0.41761276 1973050
0.085276574 -0.0061846473 0.41561252 1512509
0.14975159 -0.0093829315 0.4161388 4144963
0.15154883 -0.0071457499 0.41695175 4145220
-0.026494898 -0.00066043937 0.41816643 6191
-0.022545628 -0.0010083285 0.41896808 5934
-0.017365908 -0.00037753326 0.41859582 5935
-0.014760127 -0.00037846479 0.41962868 5935
0.084355593 -0.004068491 0.41858938 1380921
0.086673863 -0.0022303329 0.41682369 1446971
0.15354803 -0.0030052671 0.41625759 4145216
0.15555952 -0.0013857 0.41830185 3552826
-0.035855301 0.0045281174 0.41847491 5934
-0.032483794 0.0027657999 0.41659412 5934
-0.027955899 0.00074984133 0.41605079 5934
-0.022507826 0.00037512858 0.41592959 6192
-0.017076781 0.00075007952 0.41615748 5935
-0.012520811 0.002666781 0.41742831 3817284
-0.009198158 0.0046618502 0.41912913 6839120
0.08859285 0.0021619066 0.41776976 2039351
0.090743139 0.0039040756 0.41610289 2500654
-0.037361566 0.0076564667 0.41747269 5676
-0.010122894 0.00562383 0.41570055 6052952
-0.0077215112 0.0076928386 0.41776559 5919307
-0.0049188943 0.0094594127 0.41953078 7429196
0.089690685 0.0060553607 0.41960311 1578294
0.092055917 0.0075487397 0.41715309 2302768
-0.040651266 0.013549699 0.41899848 5418
-0.038805775 0.012027846 0.41681969 5419
-0.0067942012 0.010686771 0.41645119 5789266
-0.0037166118 0.01239871 0.41771901 6641226
0.093864582 0.011688097 0.41797769 2303022
0.095944732 0.013492966 0.41631201 2565941
-0.040589899 0.016766233 0.41929674 5161
-0.038614936 0.017935008 0.41687518 1581871
-0.0019672422 0.017398514 0.41732162 5195842
0.00037829104 0.019292843 0.41943601 7034440
0.09766724 0.017543461 0.41731933 1973297
0.10008934 0.019867921 0.41563895 1776173
-0.037518997 0.022448067 0.41766208 6377282
-0.034815911 0.024333701 0.41508254 6574403
-0.00037525967 0.020639282 0.41607493 4079165
0.0016797789 0.02239928 0.41774729 5853772
0.099107593 0.021647336 0.4188064 2434605
0.10116062 0.022990441 0.41671655 2631976
-0.036110129 0.027152905 0.41850713 6574403
-0.03411087 0.02787316 0.41631529 6574403
0.0037058352 0.026598388 0.41724336 5919823
0.0064132325 0.029041881 0.41820469 7101004
0.10303676 0.02738768 0.41755262 3092527
-0.035221308 0.030676624 0.4199158 6574146
-0.032239512 0.032498553 0.41748747 6574404
-0.029361136 0.034608319 0.41558644 7630184
0.0081565389 0.032504115 0.41675988 6707020
0.010389233 0.033811301 0.41887704 7034696
-0.031073732 0.036363307 0.41888416 7102038
-0.028583001 0.037983768 0.41696614 7299931
0.009220737 0.036507137 0.41559061 5986647
0.011472806 0.037534107 0.41796944 6640968
-0.026711496 0.042237349 0.41755348 6508610
-0.024372447 0.044245679 0.4157435 6574403
0.013354493 0.042284433 0.41745904 6181706
-0.02578277 0.046044804 0.41915441 6442303
-0.023038832 0.047860309 0.41701365 6508610
0.014379346 0.047301449 0.41655722 5987162
0.015667448 0.048509356 0.41858482 5723731
-0.02180849 0.05202765 0.41831484 7299931
-0.019476222 0.053340707 0.41616043 7695977
0.017411223 0.052352633 0.41736507 5790039
0.020051947 0.054480396 0.41948879 5920593
-0.020293418 0.055837635 0.41926017 7102293
-0.017532555 0.057526354 0.41709831 6640197
-0.014597498 0.059512876 0.41500515 6574403
0.019412743 0.055730004 0.41657317 5592402
0.021747407 0.058317788 0.41752014 991282
-0.016240424 0.06155999 0.41874158 6574403
-0.013652604 0.063120455 0.41657808 6574403
0.023494124 0.062110879 0.41646644 5420
0.025282234 0.063016452 0.41838902 333868
-0.012254653 0.067396887 0.41747698 6574403
0.023995062 0.067581408 0.4166154 1188661
0.025414623 0.067930147 0.41901517 2635331
-0.010834957 0.071831793 0.41866639 6574403
-0.0086938469 0.072927438 0.41648653 6574403
0.023944441 0.071188562 0.41574615 6448227
0.026545031 0.072774157 0.41734931 2565926
-0.0072214566 0.077205241 0.41773519 3552567
-0.0046232794 0.07909406 0.41562423 5161
0.013493721 0.079835586 0.41558188 5161
0.017859548 0.078703851 0.41686249 5161
0.022358242 0.077153973 0.41753802 4607572
-0.0059207682 0.081376866 0.41901043 5161
-0.0029989083 0.082820997 0.41707286 5161
0.00037433032 0.084224321 0.41504452 70954
0.0080161234 0.08370126 0.41702762 5161
0.012246854 0.081670336 0.41777161 5161
0.016055807 0.08065524 0.4188633 5161
-0.0013399526 0.086329058 0.4186486 794160
0.0021678251 0.086509958 0.4168925 1911607
0.0068910443 0.085874803 0.41852769 662831
0.094667479 -0.095434017 0.42495558 2566964
0.094154991 -0.093548179 0.4212912 2961470
0.096432038 -0.09174972 0.42260858 2565701
0.09845756 -0.08916153 0.42067724 1052479
0.10233076 -0.087443188 0.42116708 2105160
0.10623057 -0.085669816 0.42216769 3618643
0.10784414 -0.083316773 0.42054084 3223888
0.110444 -0.080081396 0.4208127 4407892
0.11201399 -0.077457294 0.42100203 4079189
0.053212702 -0.070798725 0.42179185 2764084
0.11345597 -0.074751921 0.42072257 3947349
0.1157323 -0.071953557 0.42210734 4737110
0.053732041 -0.067999065 0.42306283 1908021
0.055363268 -0.066830531 0.42102399 657462
0.11839369 -0.06738162 0.42209271 4868692
0.054207154 -0.062434576 0.42349529 394548
0.055439692 -0.062447272 0.42080688 394548
0.12037984 -0.06341777 0.42105049 4934484
0.054269735 -0.057501242 0.42352527 328757
0.055401094 -0.057153251 0.42095736 394293
0.12372997 -0.057690345 0.42082107 4868439
0.054696959 -0.053931389 0.42409858 460341
0.056076951 -0.052155752 0.42211962 854837
0.12686895 -0.052413393 0.42115259 4407895
0.058076445 -0.047592815 0.42216092 1118007
0.060267802 -0.045106091 0.42026952 1447223
0.12860124 -0.048936754 0.42061538 4210517
0.13096736 -0.045174252 0.42090461 3157835
0.059419204 -0.044032644 0.42349052 1052724
0.061216444 -0.041876458 0.42211929 2039351
0.13319571 -0.041362774 0.42074874 2894666
0.06344261 -0.037722327 0.42249429 3092281
0.065417461 -0.035555545 0.42088926 3552826
0.13542242 -0.037554115 0.42059299 3289669
0.064643979 -0.034425423 0.4241125 2895160
0.066655919 -0.032258239 0.42233244 3355449
0.13768834 -0.033758298 0.42056218 3289669
0.068925172 -0.028042993 0.42274815 2960695
0.070690706 -0.026203558 0.42107472 2960441
0.13997115 -0.029966723 0.42058313 3355204
0.14225625 -0.026175149 0.42061016 3223621
0.07229685 -0.022501646 0.4223257 1249844
0.07425838 -0.018624853 0.42303073 1908021
0.075850196 -0.016614826 0.42191538 1315381
0.077859245 -0.01265852 0.42249769 1776181
0.080020092 -0.010239538 0.42049056 3684153
0.079354912 -0.0090437122 0.42369354 1908019
0.081078433 -0.0071465191 0.42206192 2039350
-0.030533116 -0.0003816536 0.42316431 1452864
-0.027455557 -0.0012931752 0.42162594 1124156
-0.021631952 -0.0025051073 0.42078114 860728
-0.017906066 -0.0015529259 0.4207978 1058106
-0.013687187 -0.0005701019 0.42160287 2176071
0.083342366 -0.0028136424 0.42255634 1512756
0.085344844 -0.0007583056 0.42056626 1513015
-0.036837585 0.0041910787 0.42251229 5934
-0.032786146 0.0014802046 0.42213917 5935
-0.011441359 0.0013158869 0.42183226 3028285
-0.0079609202 0.0037655055 0.42291382 7297610
0.084610179 0.00076606649 0.42449248 2763315
0.086689726 0.0028133881 0.42229605 2236724
-0.040859584 0.0086282333 0.42340317 5677
-0.039080046 0.0072245277 0.42171121 5677
-0.0060747857 0.0067385416 0.42099363 7166024
-0.0038518119 0.0080860602 0.422539 7035211
0.088986702 0.0071512079 0.4227834 1446962
0.090570331 0.0088459505 0.42118359 1447218
-0.042084634 0.012404808 0.42247367 5419
-0.0014224775 0.012735932 0.42255497 6772296
0.00038267602 0.014924364 0.42429793 7034440
0.092250168 0.012598071 0.42235172 1908011
-0.04232138 0.017621055 0.42231977 5161
-0.00056943292 0.016135257 0.42096412 7100233
0.0013840289 0.018064255 0.42279434 7100232
0.094231531 0.016544245 0.42300579 2565932
0.095810369 0.018345056 0.42168906 2434096
-0.041700944 0.022238461 0.42311227 4472122
-0.039645057 0.023484174 0.42092773 6574403
0.0038597335 0.022116741 0.42179409 6969160
0.0060366066 0.024220798 0.42359 6837575
0.097770385 0.022422038 0.42242786 3026735
-0.040561564 0.026715834 0.42382625 6574403
-0.038200572 0.027834889 0.42154035 6508353
0.0049318946 0.025418228 0.42063957 7034696
0.0071520591 0.027291102 0.42224717 7034696
0.099483334 0.026080584 0.42316493 2960944
0.10104858 0.027906246 0.42191365 2631982
-0.036943883 0.032159898 0.42293671 5317148
-0.034288589 0.033656627 0.42086133 5518640
0.0091924425 0.03061403 0.42114958 6968904
0.010502595 0.032520052 0.42092088 6574662
-0.035785317 0.036168326 0.42435682 4334892
-0.03298597 0.03766603 0.42215309 4664883
-0.031377424 0.042069558 0.42343521 4269615
-0.028947201 0.043080259 0.42120028 5581861
0.015920307 0.043950234 0.42227244 6574660
-0.030262098 0.045584679 0.42472869 5118229
-0.027327055 0.047532104 0.42242694 5514519
-0.024648642 0.049676493 0.4204548 6110766
0.01737093 0.0477231 0.42247227 6837833
-0.026380114 0.051611826 0.42388895 5777424
-0.023872901 0.053116869 0.42179632 6242612
0.01897384 0.051254816 0.42166981 6641226
0.02077911 0.0530372 0.4230746 6968903
-0.022121077 0.057393227 0.42282656 6574404
-0.019098276 0.059317496 0.42069796 6574403
0.022781134 0.057139855 0.42221227 1911094
-0.020715009 0.061488707 0.42420641 6574403
-0.018020432 0.062922426 0.42193541 6574403
0.024637589 0.060267333 0.42026627 925745
0.026142867 0.064410038 0.42009142 464939
-0.016712055 0.067109041 0.42301065 6574403
-0.014381743 0.06836459 0.42084768 6574403
0.026910676 0.067891143 0.42171225 2700866
-0.015947415 0.070806026 0.42436361 6574403
-0.013242488 0.072613917 0.42220467 6574403
0.027439661 0.070432015 0.42060709 6118745
-0.011350009 0.076991186 0.42314449 6114625
-0.009022247 0.078535318 0.42116839 3618103
-0.010344458 0.080840021 0.42479914 990765
-0.0077993022 0.082656078 0.42248064 5161
-0.0049310089 0.084585771 0.42056403 5161
-0.0065000625 0.086561114 0.42391783 5161
-0.0033964589 0.08788868 0.42214885 1582902
0.003174057 0.088560246 0.42263222 2041647
-0.0022988988 0.090043746 0.42483997 4014662
0.051456232 -0.07027299 0.42577189 3092793
0.05198618 -0.067587107 0.42755845 1973810
0.053155281 -0.06257309 0.4268474 460341
0.053197764 -0.057437487 0.4274275 394550
0.054215569 -0.052850928 0.42727122 723768
0.055246782 -0.050632786 0.42637837 920880
0.05646652 -0.047581945 0.42728719 1052468
0.05887505 -0.042902287 0.42746145 1118004
0.060540225 -0.040573683 0.42574242 1118257
0.061912067 -0.03750797 0.42726934 1184051
0.064169362 -0.03353864 0.42744902 1446964
0.065652654 -0.031092672 0.42712736 1381684
0.0677348 -0.027487503 0.42736611 1315636
0.069589384 -0.024288118 0.42747357 1249588
0.071132854 -0.021895105 0.42699194 1315379
0.073508859 -0.017563861 0.42748138 1644597
0.075069562 -0.015013912 0.42684376 1249842
0.074817836 -0.014343317 0.4298209 1446969
0.076441824 -0.012418633 0.42698896 1315124
0.078793764 -0.0079284925 0.42736393 1381173
0.080272436 -0.0055808397 0.42687938 1315637
0.081992581 -0.0024693075 0.4270556 1578549
-0.03746675 0.0036156499 0.42649835 1715778
-0.033787608 0.0011522768 0.4257021 2899536
-0.0076789758 0.0025600395 0.42573753 8155754
0.08409825 0.0013288966 0.42751989 2565430
0.085722044 0.0037527091 0.42669776 2697268
-0.041711207 0.0078779943 0.42765871 400434
-0.039692156 0.0053939698 0.4272747 1452606
0.087833501 0.0075025945 0.4272556 1775924
-0.045242984 0.013920289 0.42875093 5419
-0.043971069 0.012601685 0.42672771 5419
0.00076801737 0.014585227 0.42555678 6052690
0.089582801 0.010667766 0.4275192 2104629
0.091104217 0.013024342 0.42682436 1907761
-0.045539059 0.017365795 0.42789194 5162
-0.044116981 0.018030899 0.4253512 5161
0.00230476 0.017282402 0.42581841 6510668
0.093543246 0.017436398 0.42727119 2499891
-0.045707241 0.022333959 0.42863363 1647407
-0.04377969 0.022815762 0.42613593 4078137
0.094933324 0.020536596 0.42962769 1907509
0.09655343 0.022666991 0.42700666 2368564
-0.04531163 0.025560638 0.4294014 6574403
-0.04281183 0.027690055 0.42731965 6574403
0.0080514438 0.026454745 0.42510298 5459529
0.098883197 0.02688566 0.42752162 1841971
0.10054453 0.02947106 0.42713663 1710384
-0.041413087 0.032101128 0.42823026 5647653
-0.038883019 0.033433136 0.42607859 5052950
-0.040674448 0.035251189 0.42950878 5118228
-0.037785366 0.03749752 0.427634 4856859
-0.03491861 0.039139837 0.42545658 3747391
-0.035959948 0.04214685 0.42871395 4661282
-0.033364788 0.042999964 0.42635277 4334635
0.017259043 0.04487351 0.42524955 6114883
-0.032058954 0.047224812 0.42783654 4922137
-0.029307492 0.04863283 0.42569712 5447953
0.018802067 0.047452524 0.42544547 6246212
-0.031048408 0.051023573 0.42923641 6040844
-0.028252799 0.052900277 0.42704633 5843472
0.021760637 0.05286482 0.42576405 6114883
-0.026716286 0.057375453 0.4281981 6309433
-0.024200259 0.058333635 0.42591023 6508610
0.023444615 0.056112699 0.42614061 1254454
-0.025425874 0.061047245 0.42930457 6574403
-0.022649011 0.062693365 0.42725658 6574403
-0.019549169 0.064780578 0.42500868 6574403
-0.021253137 0.06684947 0.428435 6574403
-0.018897582 0.068177335 0.4264271 6574403
-0.020542298 0.070153885 0.42974699 6574403
-0.017620854 0.072458804 0.42751202 6574403
-0.014969971 0.074466318 0.42559451 6574403
-0.015947506 0.076848835 0.42845857 6574403
-0.013360579 0.078133725 0.42647225 6443074
-0.012075556 0.082365304 0.42770693 1450543
-0.009596251 0.084063746 0.42559966 5161
-0.010923413 0.086320058 0.42870283 5161
-0.0081642866 0.087942459 0.42691168 70954
-0.0069594854 0.090987608 0.42856449 2437436
-0.003462208 0.091065712 0.42675447 4869454
0.050996322 -0.067446604 0.43228444 2039602
0.052404597 -0.062810145 0.43120825 855094
0.052606948 -0.057279527 0.43206492 328756
0.053741407 -0.052184545 0.4314442 657974
0.054725867 -0.049267288 0.43239346 986680
0.056179538 -0.046563674 0.43224475 1447227
0.058454715 -0.042475775 0.43208474 1249336
0.061430022 -0.037272599 0.43199956 1446969
0.063937642 -0.032879014 0.43227327 1315384
0.065109402 -0.030800257 0.43228176 1315641
0.067088045 -0.027500995 0.43219268 1512762
0.069301136 -0.023749221 0.43168187 1380920
0.07053595 -0.021629678 0.43209648 1381176
0.072907344 -0.017545186 0.43229094 1512760
0.074700408 -0.01447076 0.43363994 1578297
0.075964801 -0.012206286 0.4319388 1512760
0.078493945 -0.0077980608 0.43228164 1710136
0.080110155 -0.005080156 0.43328473 1512761
0.081605382 -0.0024172538 0.43210363 1710136
-0.034534279 0.0011640768 0.4302294 5858416
0.083982155 0.0015622968 0.4331035 1973560
0.085313186 0.0038968422 0.4319284 1973559
-0.042831279 0.0079812268 0.43172815 5934
0.087348752 0.0074047456 0.43208954 1907511
-0.046510082 0.012819484 0.43278357 5677
-0.044694614 0.01088153 0.43092036 5676
0.089361951 0.010878251 0.43079215 2565431
0.090748809 0.013242301 0.4318437 2236726
-0.04817092 0.017831432 0.43215644 5418
0.093230389 0.017532172 0.43200204 1776181
-0.048378598 0.022592437 0.43256065 202282
0.096185289 0.022616396 0.43235669 1973301
-0.047010895 0.027176464 0.43270424 6180161
-0.044669017 0.029132672 0.4306736 6574403
0.098802269 0.027088776 0.43214345 1841715
0.10004792 0.029196866 0.431633 1578802
-0.046020232 0.031855632 0.43409011 6442303
-0.043819383 0.03291332 0.43186024 5846315
0.10144852 0.031214524 0.43262798 2434355
-0.042029571 0.037310768 0.43268415 4857631
-0.039201383 0.03894224 0.43034586 4465449
-0.040797271 0.041188594 0.43389827 5053979
-0.038255896 0.042890996 0.43192512 4661282
-0.03668838 0.047100324 0.43294862 5118485
-0.034107283 0.048488654 0.43095616 5118228
-0.035668209 0.050954916 0.43458986 5250584
-0.032808952 0.052607175 0.43229204 5645840
-0.029877964 0.054711599 0.43022928 5645328
-0.031441331 0.05732771 0.43357801 6373935
-0.028958999 0.057953812 0.43124878 6507061
-0.030167172 0.060726125 0.43439373 7893871
-0.027349317 0.062451292 0.43246752 6838348
-0.024466418 0.064467341 0.43059552 6574403
-0.025995491 0.06653513 0.43371278 6574403
-0.023403045 0.068025038 0.43172607 6574403
-0.022096686 0.072335772 0.43294224 6574403
-0.019502375 0.073891282 0.43074527 6574403
-0.021066118 0.076197311 0.43414456 6574403
-0.018384535 0.077882811 0.43204966 6574403
-0.016637899 0.08223898 0.43296823 4340794
-0.014115676 0.083398342 0.4307538 793388
-0.015866049 0.085789911 0.43434364 5161
-0.012862653 0.087717488 0.43208957 5161
-0.009695556 0.089586943 0.43000391 70954
-0.011421184 0.091146305 0.43331838 268075
-0.0080778133 0.092698954 0.43236548 3357506
0.049933109 -0.069591813 0.43593785 4276810
0.050830271 -0.06777519 0.4368948 3092288
0.052318588 -0.063725866 0.43615821 3026502
0.052539963 -0.05925557 0.43800372 3421003
0.053311281 -0.053311765 0.43623808 2434116
0.054831281 -0.049308706 0.43737432 3815759
0.058351852 -0.04297287 0.43714535 3486793
0.060534712 -0.038913444 0.43583164 2960451
0.063789859 -0.033468138 0.43658757 3684425
0.065533228 -0.030215919 0.43509567 2960452
0.066539548 -0.028741933 0.4365488 3223621
0.069313534 -0.0240217 0.43665695 3749962
0.071067907 -0.020809939 0.43534607 2960452
0.073288903 -0.017338179 0.43688601 2894657
0.076617084 -0.011394336 0.43564296 2631227
0.077947773 -0.009891849 0.43870962 3289660
0.080248885 -0.0059297206 0.43831128 3157820
0.082374588 -0.0019706839 0.43700522 2565691
0.086097948 0.0035708826 0.43991902 3158076
-0.045141436 0.0098133553 0.43522838 5935
-0.044358607 0.009028743 0.43525037 5934
0.08812049 0.0075080241 0.43813881 2829115
-0.050191008 0.014226996 0.43818939 5676
-0.048580203 0.013005064 0.4370324 5677
0.090758696 0.012235343 0.43751532 2631482
-0.051320586 0.017692063 0.43744418 5419
-0.049623769 0.016104845 0.43552125 5676
0.093158104 0.016902102 0.43582481 2236474
-0.05189826 0.022297578 0.43756858 5161
-0.049849711 0.024728598 0.43520975 5161
0.096822061 0.022525949 0.43817532 2697530
-0.051283494 0.027567996 0.43822694 4078137
-0.049220964 0.027820524 0.43581831 5589055
0.098619096 0.02632462 0.43563923 2170936
-0.05046799 0.031454142 0.43922344 6574403
-0.0480377 0.032718737 0.43707186 6508610
-0.046211157 0.03673232 0.43791652 6508353
-0.04399563 0.038877767 0.43650877 6111028
-0.042485248 0.042647887 0.43720633 6837324
-0.041263375 0.046933223 0.43850526 6970450
-0.038965967 0.048018496 0.43639377 6111285
-0.040023778 0.050326928 0.43937606 6574403
-0.037398197 0.05243092 0.43766183 6442047
-0.034962427 0.053819072 0.43556324 5780009
-0.035894472 0.056660458 0.43820637 6574403
-0.033572379 0.058093093 0.43633839 6508097
-0.031946573 0.062060241 0.4372676 7629926
-0.029289233 0.064279221 0.43590257 6904142
-0.030458968 0.065665603 0.43859547 6705990
-0.02789453 0.06791985 0.43681422 6574403
-0.02646949 0.07238929 0.43801799 6574403
-0.024339207 0.073192202 0.43603966 6574403
-0.025765408 0.075710662 0.4395045 6574403
-0.022882394 0.077648789 0.43737078 6574403
-0.021057772 0.081854902 0.43813923 6377282
-0.018841051 0.083450355 0.43621433 4209465
-0.020199671 0.085551828 0.43915093 2238770
-0.017201357 0.087416694 0.43738455 5161
-0.014516487 0.089060605 0.43501022 5161
-0.015973672 0.091084994 0.43909478 5161
-0.013088057 0.092654556 0.43674234 794159
-0.011082249 0.095384434 0.43883389 4343884
-0.046382807 0.0093401168 0.44257385 1715778
-0.05112626 0.013445527 0.44286922 5677
-0.048749238 0.011249013 0.44231182 532021
-0.053032126 0.017372215 0.44210461 6190
-0.054013532 0.023626182 0.44099826 5931
-0.053718269 0.02740022 0.44211793 1910577
-0.051618516 0.03241878 0.44159865 6377795
-0.049615894 0.034532662 0.44009909 6574403
-0.050550852 0.036413666 0.44366243 6050117
-0.048284717 0.037622288 0.44198576 6574660
-0.04615619 0.041944671 0.44290611 7366238
-0.044287123 0.043332092 0.44078574 7498083
-0.045269556 0.045269556 0.44418865 7102036
-0.043610461 0.046161018 0.44198576 7168087
-0.040502243 0.052054998 0.44170609 6245696
-0.039161816 0.053872339 0.44082233 6574403
-0.03773338 0.057620149 0.44223216 6575176
-0.036211569 0.060989462 0.44314241 7564132
-0.033704881 0.063345902 0.44173226 7498082
-0.031551689 0.066496998 0.44281763 6706505
-0.029804951 0.068750612 0.44062266 6574403
-0.030065708 0.072959885 0.44447756 6574403
-0.028823854 0.072523646 0.44181633 6574403
-0.026869958 0.077221148 0.44228858 6508610
-0.024243806 0.079885326 0.44066709 6574403
-0.025522579 0.081047721 0.44354406 6377282
-0.023044441 0.0830025 0.44202626 6377282
-0.021712707 0.086182714 0.44307235 3946552
-0.018964291 0.088983782 0.44110915 136489
-0.017376028 0.092459112 0.44251236 267818
-0.014696719 0.094138443 0.44041118 465454
-0.014007797 0.095653236 0.44375315 2567991
-0.05287537 0.014128376 0.44751382 143426
-0.054014627 0.016930707 0.44693464 75066
-0.055083547 0.022917971 0.44580096 209989
-0.054204404 0.029310528 0.44518495 3026997
-0.053887136 0.030963477 0.44587716 4539969
-0.050542992 0.038209956 0.44594678 6050117
-0.049464561 0.039411291 0.44589102 6970192
-0.050595418 0.040476833 0.44878763 5133389
-0.048143327 0.042820588 0.44705397 7301476
-0.046383332 0.04597846 0.44718796 6445134
-0.044304121 0.047528364 0.44658196 6772297
-0.03874366 0.059121445 0.44592723 6443589
-0.036866523 0.062702619 0.44755772 7037274
-0.034575071 0.064325385 0.4457618 7300187
-0.035234902 0.065204814 0.44904873 7432032
-0.03255086 0.067458555 0.44712386 6706761
-0.030924974 0.072849274 0.44696039 6443074
-0.03022307 0.075356185 0.44680393 6574403
-0.029082621 0.076793201 0.4457899 5851968
-0.025603408 0.083245285 0.44588888 6311746
-0.024514088 0.084393263 0.44557989 6574403
-0.025466572 0.085697547 0.44819772 5129534
-0.023164332 0.086807631 0.44663721 4735036
-0.020615537 0.090142451 0.44819206 1516337
-0.019464349 0.092487313 0.44650325 1582128
-0.046004437 0.04763291 0.45139936 3692633
-0.043031819 0.049527377 0.45011592 6706504
-0.035486288 0.066485807 0.45225254 5393221
-0.03338493 0.068395123 0.45140082 6575176
-0.032480974 0.071087427 0.4529928 5851969
-0.021941995 0.08858218 0.45053449 2896182
0.28887242 0.17900871 0.51110381 1579032
0.29295394 0.17779194 0.51113975 1447446
0.27906421 0.18458335 0.51101029 1579032
0.28289786 0.1834944 0.51104385 1447446
0.28769821 0.18260173 0.51108456 1381653
0.29272586 0.18255024 0.51112485 1381653
0.27276754 0.18872948 0.51094872 1513239
0.2775194 0.18763505 0.51098961 1381653
0.28253156 0.18758619 0.51102972 1381653
0.28762433 0.18760106 0.51107019 1381653
0.29271781 0.18761595 0.51111078 1381653
0.2635051 0.19422556 0.51085973 1447446
0.26789117 0.19292554 0.51089829 1381653
0.2723411 0.19262023 0.51093459 1381653
0.27743205 0.19263549 0.51097512 1381653
0.28252378 0.19265078 0.51101565 1381653
0.28761643 0.19266607 0.51105618 1381653
0.29270974 0.19268136 0.51109672 1381653
0.26325777 0.19751167 0.51127106 1315860
0.2677063 0.19766952 0.51088375 1381653
0.27233365 0.1976838 0.51092058 1381653
0.27742445 0.19769946 0.51096112 1381653
0.28251606 0.19771513 0.51100159 1381653
0.28760856 0.19773081 0.51104224 1381653
0.29270169 0.19774649 0.51108271 1381653
0.26444754 0.20130894 0.51193863 1315860
0.26747093 0.20244038 0.51112896 1315860
0.27232686 0.20228674 0.51090789 1381653
0.27741751 0.20230275 0.5109483 1381653
0.28250903 0.2023188 0.51098895 1381653
0.28760135 0.20233487 0.51102942 1381653
0.29269445 0.20235088 0.51106995 1381653
0.26831684 0.20697169 0.51159376 1315860
0.27231935 0.20734973 0.51089382 1381653
0.27740991 0.20736617 0.51093423 1381653
0.28250128 0.20738263 0.51097482 1381653
0.28759336 0.20739909 0.51101536 1381653
0.2926864 0.20741554 0.51105589 1381653
0.26939991 0.21035324 0.51147592 1315860
0.2722756 0.21242806 0.5113284 1315860
0.27740231 0.2124293 0.51092029 1381653
0.2824935 0.21244614 0.51096082 1381653
0.28758553 0.21246298 0.51100141 1381653
0.29267836 0.21247987 0.51104188 1381653
0.27359584 0.21680678 0.51193202 1315860
0.27739468 0.21749213 0.51090628 1381653
0.28248578 0.21750937 0.51094681 1381653
0.28757766 0.21752666 0.51098734 1381653
0.29267034 0.21754386 0.51102787 1381653
0.27698198 0.22077993 0.51185572 1315860
0.28248081 0.2207313 0.51093793 1381653
0.28757262 0.22074884 0.51097846 1381653
0.29266524 0.22076635 0.51101899 1381653
0.26270673 0.19901128 0.51675987 1447446
0.26410955 0.20141742 0.51719987 1315860
0.26561239 0.20399368 0.51758105 1315860
0.26755667 0.20732102 0.51773232 1315860
0.26962322 0.21084654 0.51721829 1315860
0.27105948 0.21331556 0.51800042 1315860
0.27351344 0.21750408 0.51751482 1315860
0.27631101 0.22229019 0.51763499 1315860
0.26434988 0.20191465 0.52246588 1381653
0.26563683 0.20411901 0.52268231 1315860
0.26784679 0.20789346 0.52239454 1315860
0.26987141 0.2113677 0.52312022 1315860
0.27112114 0.21348774 0.5220775 1315860
0.27330539 0.21722953 0.52247536 1315860
0.27492464 0.22003435 0.5246591 1315860
0.27623564 0.22224151 0.52253735 1315860
0.27826944 0.22573103 0.52323896 1315860
0.26566142 0.20424622 0.5278815 1315860
0.26758423 0.20752722 0.52744687 1315860
0.26937956 0.21057123 0.5258441 1315860
0.27078438 0.21300836 0.52796942 1315860
0.27346611 0.21758378 0.52732515 1315860
0.27644113 0.22267517 0.52755857 1315860
0.27888197 0.22685993 0.52821279 1315860
0.26779607 0.20796616 0.53212482 1315860
0.26950338 0.21089442 0.5326522 1315860
0.27087867 0.21324426 0.5325256 1315860
0.2733967 0.21755396 0.53275007 1315860
0.27644673 0.22276743 0.53260708 1315860
0.27874899 0.22669387 0.53195977 1315860
0.28026897 0.22931068 0.53302646 1315860
0.26862028 0.20946549 0.53761297 1513239
0.26937926 0.21075657 0.53719449 1315860
0.27097568 0.21348596 0.53715879 1315860
0.27341738 0.21766736 0.53751308 1315860
0.27603289 0.22214183 0.53761882 1315860
0.27880603 0.22687985 0.53735644 1315860
0.28133526 0.23121274 0.5378232 1315860
0.26950449 0.2110225 0.5403567 1315860
0.27098411 0.21359499 0.54293269 1315860
0.27332556 0.21758603 0.54213673 1315860
0.27484348 0.2201677 0.54127347 1315860
0.27660277 0.22319694 0.54254085 1315860
0.27903607 0.22735903 0.54259604 1315860
0.28031331 0.2295247 0.54146761 1315860
0.28213146 0.23266049 0.54308897 1315860
0.27117389 0.2139807 0.54667085 1513239
0.27306601 0.21722539 0.54722035 1315860
0.27492276 0.22043356 0.54923397 1315860
0.27614698 0.22249728 0.54741007 1315860
0.27879709 0.22702897 0.54739827 1315860
0.28192347 0.23238397 0.54791909 1315860
0.28406861 0.23603944 0.54713362 1315860
0.27360374 0.218226 0.55217242 1315860
0.27467901 0.22004122 0.5507316 1315860
0.27655217 0.22327808 0.55277938 1315860
0.2790668 0.227584 0.55312979 1315860
0.28024429 0.22956169 0.55093253 1315860
0.28209415 0.23275261 0.55261123 1315860
0.28428432 0.2364884 0.55202562 1315860
0.28549117 0.23857467 0.55339772 1315860
0.2738151 0.21865073 0.55603933 1710618
0.27475721 0.22030991 0.55897486 1315860
0.27584341 0.22214334 0.5575043 1315860
0.27853945 0.22675325 0.55746692 1315860
0.28028971 0.22978707 0.55995595 1315860
0.28166541 0.23210005 0.55754 1315860
0.28410873 0.23627195 0.55714738 1315860
0.28583339 0.23922932 0.55763644 1315860
0.28649014 0.24033061 0.55630535 1315860
0.2765941 0.22350679 0.56237274 1381653
0.27897412 0.22758722 0.56301063 1315860
0.28005612 0.22941305 0.56151271 1315860
0.28205559 0.23284806 0.56247342 1315860
0.28428483 0.23665033 0.56186676 1315860
0.28562272 0.23894872 0.56250566 1315860
0.28731841 0.24185085 0.56264859 1315860
0.27843651 0.22674149 0.56750476 1315860
0.28161874 0.23218465 0.56758058 1315860
0.28410608 0.23643152 0.5671736 1315860
0.28563696 0.23905605 0.56757402 1315860
0.28758478 0.2423837 0.5673756 1315860
0.28923547 0.24521025 0.56760049 1315860
-0.14053825 0.09490221 0.57499611 720965
-0.13871336 0.093469486 0.57495564 720965
-0.13275784 0.094901122 0.5749895 720966
-0.13716102 0.097354859 0.57484806 720965
-0.13218617 0.097454712 0.57475865 720965
-0.12884443 0.098253533 0.57488239 720966
-0.13637079 0.10159005 0.5749169 720965
-0.13217026 0.10210793 0.57468843 720965
-0.12804277 0.10212328 0.57477576 720965
-0.13535058 0.10527267 0.57498866 720965
-0.13211243 0.1072278 0.57481265 787008
-0.12769522 0.10747841 0.57476687 788260
-0.12302377 0.10843269 0.5748536 4884
-0.13118175 0.11147857 0.57490003 526353
-0.12743904 0.11237895 0.57475895 8226
-0.12285521 0.11248779 0.57475835 7969
-0.12652645 0.11563684 0.57495129 2313
-0.12244406 0.11725932 0.5748769 4113
-0.1197932 0.11875603 0.57498944 16966
-0.11979473 0.12083191 0.57499677 4113
-0.10578816 0.1441623 0.57497191 8487297
-0.11077759 0.14827929 0.57485002 8553090
-0.1085666 0.14745146 0.57485652 8487297
-0.11045635 0.15090516 0.5749774 8421504
0.27924615 0.22821157 0.57273352 1381653
0.28021798 0.22983015 0.57008439 1315860
0.28201559 0.23294695 0.57269406 1315860
0.28428534 0.23681813 0.57206517 1315860
0.28564754 0.23915847 0.57272744 1315860
0.28791422 0.24302441 0.57209885 1315860
0.28985935 0.24638034 0.57390511 1315860
0.29017553 0.24688113 0.57146817 1315860
-0.15134445 0.058158964 0.57963854 8816262
-0.14898382 0.058809415 0.5796088 8882055
-0.15595236 0.063600622 0.57960165 8684676
-0.15253094 0.062161069 0.57917941 8684676
-0.14785215 0.062294949 0.57873863 8750469
-0.14289333 0.063479118 0.57928973 6909037
-0.13856275 0.064314164 0.5797506 6711402
-0.15587398 0.065383375 0.57995862 8421504
-0.15225224 0.067395777 0.57877958 8684676
-0.14756256 0.06726259 0.57813531 8684676
-0.14235827 0.067266881 0.57817578 8355968
-0.13728924 0.067338608 0.57879251 8882055
-0.13258156 0.068455502 0.57940096 8947848
-0.12865353 0.069556624 0.57986456 8882055
-0.15583543 0.073541529 0.57932794 8553090
-0.15218696 0.072444186 0.57787138 8487297
-0.14720233 0.072300166 0.57672304 8684676
-0.14241335 0.072209515 0.57679015 8684676
-0.13772109 0.07234741 0.57710201 8750469
-0.1327205 0.072458811 0.57799286 8816262
-0.12807913 0.072928488 0.57896018 8882055
-0.12459157 0.074406333 0.57962048 9013641
-0.15696205 0.077801093 0.57895374 8684676
-0.15245058 0.077655427 0.57722408 8750469
-0.14743911 0.077319145 0.57610065 8618883
-0.14280917 0.077509724 0.57613832 8684676
-0.1377458 0.077449203 0.57633251 8684676
-0.13271828 0.077548921 0.57707494 8684676
-0.12772174 0.077675626 0.57801813 8684676
-0.1228649 0.077933602 0.57928854 8684676
-0.15711112 0.082822949 0.57801068 8553090
-0.1523125 0.082653522 0.57637531 8553090
-0.14748701 0.082571775 0.57580394 8553090
-0.14274924 0.082534693 0.57554662 8553090
-0.13759227 0.08255516 0.57569015 8618883
-0.13253868 0.082641572 0.57629341 7368314
-0.12755297 0.082779378 0.57725465 6710389
-0.12278198 0.082692899 0.57863754 8684676
-0.11877174 0.082840644 0.57966876 8750469
-0.16049501 0.0862597 0.57964599 8421504
-0.15768763 0.087365419 0.57850552 8421504
-0.152154 0.087658115 0.5762881 8421504
-0.14746508 0.087751947 0.57571828 8553090
-0.14269099 0.087689787 0.57531071 7763324
-0.1374968 0.08768668 0.57529104 3748701
-0.13242614 0.08776477 0.57580364 918343
-0.1273715 0.087860234 0.57643235 1444940
-0.12240034 0.087316833 0.57771319 8289665
-0.11757565 0.087289847 0.57897067 8684676
-0.11453882 0.088911369 0.57989353 8618883
-0.1576525 0.092398688 0.57880265 8421504
-0.15262114 0.092395477 0.57700408 8421504
-0.1474569 0.092420071 0.57568592 6776180
-0.14275831 0.092779718 0.57523346 1642572
-0.13685678 0.092549965 0.57516569 720965
-0.13223265 0.092495717 0.57539052 720966
-0.1273509 0.092764504 0.57572556 720966
-0.12214262 0.092148699 0.57669955 5262185
-0.11731074 0.092284583 0.57809567 8750469
-0.113043 0.093186468 0.57937783 8816262
-0.15666689 0.097302817 0.57940733 8421504
-0.15233627 0.097379148 0.57796705 6183790
-0.14759576 0.097184591 0.57622606 1181768
-0.14273407 0.097578168 0.57548392 655428
-0.13951066 0.098539151 0.57503569 720965
-0.1265626 0.097098634 0.57537961 720966
-0.12210343 0.097163245 0.57610518 1181513
-0.11710995 0.097331695 0.57710487 7829117
-0.11225514 0.097636908 0.57891291 8618883
-0.15531391 0.1009279 0.57982051 8421504
-0.15228774 0.10258747 0.57869399 7039349
-0.14738579 0.10260667 0.5767312 1115975
-0.14254743 0.10217679 0.57587302 655428
-0.13857634 0.10278678 0.57510382 720965
-0.12553628 0.10219272 0.57516682 720964
-0.12228668 0.10213365 0.57563311 787263
-0.11739375 0.1024529 0.57641655 3288897
-0.11219839 0.10277557 0.57799971 8553090
-0.10858373 0.10325344 0.57937509 8816262
-0.15203609 0.10664002 0.57928485 8421504
-0.14723241 0.10761105 0.57736993 4341088
-0.14238855 0.10757098 0.57618541 655428
-0.13756266 0.10747346 0.57520211 655428
-0.13431923 0.10942609 0.57501358 720965
-0.1256929 0.10563739 0.5750922 985142
-0.12252339 0.10602788 0.57514751 592142
-0.11789254 0.10750604 0.57584238 1285
-0.11273786 0.10764812 0.57722479 5197393
-0.10751285 0.10768052 0.5787937 8684676
-0.10371017 0.10893935 0.57978326 8684676
-0.14725345 0.11182973 0.57915682 6644594
-0.1427903 0.11256417 0.5778082 918854
-0.13751434 0.11259013 0.57572091 787512
-0.13297296 0.11326048 0.57517177 395282
-0.12913372 0.11461266 0.57501608 22364
-0.11780648 0.11261738 0.57542074 257
-0.11281202 0.11281255 0.57641965 723468
-0.10777762 0.11226614 0.57802981 8158333
-0.10328048 0.11258626 0.5793317 8684676
-0.099890508 0.11453415 0.57986987 8750469
-0.14228714 0.11728247 0.57861745 4012370
-0.137275 0.11751535 0.57653248 198152
-0.13227153 0.11773822 0.57550508 10540
-0.12747124 0.11813283 0.57523644 2056
-0.12396146 0.11903414 0.57508028 3342
-0.11751015 0.11765213 0.5753547 8226
-0.11288349 0.11765438 0.57605946 0
-0.10776604 0.11713739 0.57723778 4407877
-0.10278669 0.11739642 0.57851481 8750469
-0.098652922 0.11802818 0.57956558 8750469
-0.14139648 0.12232888 0.57921803 6513507
-0.13756648 0.12245514 0.57775688 790544
-0.13260576 0.1225097 0.57614923 1028
-0.12717628 0.12250432 0.57554412 7712
-0.12243477 0.12243484 0.57521749 8483
-0.11767638 0.12253787 0.57531744 0
-0.11261624 0.12228579 0.57611048 328710
-0.10770563 0.12227491 0.57691252 1707812
-0.10263161 0.12242875 0.57764 7433848
-0.097636051 0.12269848 0.57891315 8684676
-0.094661094 0.1239484 0.57987267 8618883
-0.1411995 0.12551053 0.5798409 8421504
-0.13731317 0.12756634 0.5788852 6184542
-0.13242941 0.12736672 0.57704616 264972
-0.12724558 0.12724552 0.57585716 4627
-0.12251075 0.12718295 0.57557452 131586
-0.11781938 0.12716223 0.57548094 1182235
-0.11270955 0.12725309 0.57589364 4200234
-0.10762914 0.12738732 0.57650203 6562593
-0.10253116 0.1275136 0.57707351 5517636
-0.097457722 0.12768553 0.57785392 8618884
-0.093119428 0.12820444 0.57909054 8882055
-0.13618159 0.13189667 0.57940602 8355711
-0.1325396 0.13254008 0.57856148 2894892
-0.12737286 0.13253228 0.57704622 394763
-0.12252677 0.13262445 0.57622999 2888233
-0.11781988 0.1323639 0.57590652 5840676
-0.11274222 0.1324852 0.57605833 6759455
-0.10754513 0.13248317 0.57605124 6825248
-0.10244077 0.13260108 0.57656473 6562595
-0.097328417 0.13272046 0.5770843 6510697
-0.09232571 0.13249151 0.57835835 8618883
-0.08905267 0.13314342 0.57967889 8618883
-0.13117155 0.13723382 0.57943541 1578018
-0.12768394 0.13740686 0.57858694 3347239
-0.12216377 0.13763362 0.57704985 6628128
-0.11746009 0.13772985 0.57626402 6693920
-0.11274194 0.13767979 0.57605571 6825248
-0.1074815 0.13759647 0.57570791 6759456
-0.10231065 0.13762584 0.57583183 5712183
-0.097220734 0.13777344 0.57644731 6576745
-0.092119247 0.13726273 0.57791483 8553090
-0.088382594 0.13757569 0.57936829 8553090
-0.12727146 0.14233086 0.57931119 4791086
-0.12241805 0.14246415 0.57737315 6693920
-0.11741022 0.14286575 0.57601815 6890784
-0.11264185 0.14274806 0.57554394 6103849
-0.10752818 0.14253587 0.57523364 5850199
-0.10235158 0.14267056 0.57557738 8092542
-0.09726873 0.14252368 0.57673371 8421504
-0.092272185 0.14232013 0.57801956 8355711
-0.088593684 0.14217806 0.57937241 8421504
-0.12662195 0.14752185 0.57934076 7631483
-0.12251696 0.14752254 0.57763535 5318455
-0.11749142 0.14764473 0.57641733 5578794
-0.1131095 0.14737232 0.57560933 6116198
-0.10668038 0.14778863 0.57526749 8421504
-0.1022843 0.14747608 0.57624382 8421504
-0.097620115 0.14701444 0.57734585 7960953
-0.12551323 0.15061614 0.57985359 8289662
-0.12201525 0.15228316 0.57863539 4601685
-0.11760612 0.15273131 0.57758552 6643566
-0.11292542 0.15242369 0.57623386 8421248
-0.10745592 0.15258576 0.57633513 8355711
-0.12142824 0.15605785 0.57925373 7960699
-0.11716527 0.15682942 0.57865721 8421504
0.28130949 0.23181985 0.57760751 1315860
0.28410333 0.23659697 0.5775674 1315860
0.28519925 0.23844528 0.57599103 1315860
0.28709739 0.24171475 0.57742661 1315860
0.28932637 0.24553613 0.57801312 1315860
0.29091898 0.24824363 0.57703596 1315860
0.29209459 0.25029215 0.57936382 1315860
-0.15732481 0.053590298 0.58410734 2763385
-0.1521702 0.052827261 0.5835585 6579313
-0.14788465 0.053613018 0.58393973 8421246
-0.1448898 0.05426782 0.58417749 8750209
-0.16059251 0.05844374 0.58380139 1314943
-0.15745024 0.057204805 0.58191431 2499711
-0.15297765 0.056383207 0.58087754 6580341
-0.14711519 0.056919262 0.58142906 8618882
-0.14271924 0.057531133 0.58336413 8355451
-0.13803646 0.05926612 0.58448124 8027000
-0.16120972 0.063053913 0.58330995 7763579
-0.15787257 0.061638743 0.58062953 8158084
-0.14607853 0.060211807 0.58052844 8882055
-0.14229199 0.061185353 0.58125776 7106158
-0.13741252 0.062167525 0.58192921 6580073
-0.1326357 0.062615506 0.58262223 8027003
-0.12807998 0.06360095 0.58345014 8750468
-0.12459203 0.064492553 0.58452791 8552831
-0.16088024 0.06761241 0.58314437 8421504
-0.15726461 0.067807384 0.58080089 8487297
-0.15437476 0.066982865 0.58022171 8684676
-0.13197611 0.066202149 0.58046919 9013641
-0.1272656 0.067450389 0.58131939 8947848
-0.12293033 0.068015687 0.58331937 8487038
-0.119178 0.069081187 0.58469343 8420987
-0.16055709 0.072022676 0.58290577 8882055
-0.15784457 0.072239026 0.58111244 8816262
-0.12583494 0.071382172 0.5805344 8816262
-0.12206562 0.072709486 0.58167344 8816005
-0.11787039 0.072584651 0.58385766 8355195
-0.16129875 0.077612139 0.58200598 8684933
-0.15950343 0.077185474 0.58060318 8487554
-0.12090991 0.075895831 0.58034945 8947848
-0.11750299 0.077243805 0.58208483 8421245
-0.11362144 0.078101255 0.58432245 8289658
-0.16504717 0.084896468 0.58466005 8882055
-0.16220978 0.082604431 0.58231074 8355968
-0.15959282 0.081104681 0.58016723 8553090
-0.11682966 0.081553861 0.5808875 8684675
-0.1125439 0.082718208 0.58312017 8355452
-0.10878056 0.084529094 0.5845508 8355707
-0.16512626 0.089157633 0.58494025 9474192
-0.16229646 0.0878985 0.58090901 8487297
-0.11563825 0.085289754 0.58016151 8882055
-0.11251219 0.087398425 0.58117837 8552832
-0.10831131 0.08800637 0.5832606 8421245
-0.16216002 0.092446499 0.58115858 8553090
-0.11151858 0.091623157 0.58050829 8816262
-0.10770843 0.092653655 0.58233106 8355452
-0.1044659 0.093502618 0.58440143 8355707
-0.1621965 0.097130828 0.58283436 8750469
-0.15878297 0.098500691 0.58048451 8421504
-0.10745689 0.097498268 0.58120298 8487040
-0.1028769 0.097614221 0.58360356 8289402
-0.099659346 0.099659346 0.58464992 8684418
-0.16019706 0.10032013 0.58236384 8421504
-0.15685654 0.10220608 0.5806011 8421504
-0.10640176 0.10193183 0.58077711 8750469
-0.10244962 0.10245036 0.58253551 8487039
-0.098694257 0.10299019 0.58422142 8223864
-0.15582389 0.1069273 0.58172554 7568252
-0.15365355 0.10819966 0.58095634 8421504
-0.10518924 0.10571241 0.58024973 8882055
-0.10196353 0.10720496 0.58112311 8882055
-0.097665459 0.10798651 0.58324879 8355452
-0.094393268 0.1091587 0.58469272 8486780
-0.15517543 0.11098988 0.58323103 4418160
-0.15191691 0.11241987 0.5816837 8093310
-0.14837727 0.11395817 0.58073956 8355711
-0.10101257 0.1110615 0.58030832 8684676
-0.097292587 0.11266867 0.58160454 8553089
-0.093247496 0.11258987 0.58412641 8158072
-0.15120555 0.11616377 0.58279777 7043194
-0.14763397 0.11749034 0.58123386 8290175
-0.14495796 0.11931571 0.58023238 8421504
-0.096532509 0.11715807 0.5804348 8816262
-0.092722401 0.11747679 0.5826683 8487039
-0.089064188 0.11899824 0.58432978 8355451
-0.14602812 0.12202944 0.58125007 8158332
-0.14371967 0.1227847 0.58030343 8421504
-0.092419542 0.12217077 0.58113337 8553089
-0.087953709 0.12268048 0.583381 8289659
-0.084878094 0.12441736 0.58453351 8816262
-0.14525238 0.12532605 0.58141088 7237230
-0.14246924 0.1272793 0.58075172 8289918
-0.1397232 0.12925704 0.58022565 8421504
-0.091640189 0.1262017 0.5806163 8882055
-0.087637708 0.12752178 0.5818646 8553088
-0.083721243 0.12802711 0.58382553 8289658
-0.14154711 0.13181227 0.58342683 8355711
-0.1384652 0.13249546 0.58065486 8355711
-0.086920045 0.13224202 0.58075613 8684676
-0.082841024 0.13260573 0.58303118 8355709
-0.13703927 0.1371337 0.58215714 8289918
-0.13356103 0.13801233 0.58073384 6908013
-0.085984476 0.13747054 0.58035731 8618883
-0.082816847 0.13726088 0.582663 8487296
-0.13609345 0.14029711 0.58260894 8421504
-0.13241348 0.14219449 0.58105814 6775921
-0.12873355 0.14443266 0.58022457 5591402
-0.13120277 0.14682388 0.58163327 7895160
-0.12896277 0.14716142 0.5806669 8553090
-0.12740888 0.15257542 0.5813387 8355711
-0.12400682 0.15435448 0.58014548 8421504
-0.12595357 0.15643646 0.5826984 7236973
-0.12278447 0.15759735 0.58180523 7829366
-0.1184274 0.15877597 0.5810076 8421504
0.28230172 0.23358886 0.58201599 1447446
0.28428584 0.23699212 0.58264059 1315860
0.28578696 0.2395566 0.58248448 1315860
0.28798184 0.24331318 0.58267558 1315860
0.29098094 0.24843685 0.58236736 1315860
0.29307416 0.25203323 0.58339405 1315860
-0.16154726 0.047687341 0.58881581 4802180
-0.15758824 0.048110828 0.58781779 7960700
-0.15362425 0.048614502 0.58803278 6447237
-0.16114648 0.051686253 0.5862928 2828416
-0.15777902 0.051242281 0.58573681 5723519
-0.15280139 0.050581377 0.58572543 5986688
-0.14730331 0.051476199 0.5868023 7828870
-0.14382169 0.053683855 0.58789366 9276813
-0.16269483 0.057726823 0.58720237 2631037
-0.14118256 0.055890162 0.58738959 9539985
-0.13810609 0.057792731 0.58669674 8947846
-0.1331868 0.05945364 0.58633655 8816005
-0.12884097 0.059914038 0.58788157 9408399
-0.16353123 0.062976301 0.58678889 8947861
-0.13044581 0.060733877 0.58556193 9408399
-0.12695697 0.061379712 0.5870946 9144968
-0.12282761 0.063407965 0.58752465 9276556
-0.11960898 0.064323053 0.58941466 9408399
-0.12083326 0.065876707 0.58590269 8552574
-0.11809465 0.067504428 0.58718151 8816260
-0.11622107 0.071062736 0.5861249 8487038
-0.11402326 0.073842995 0.58621192 8552831
-0.11194622 0.077560589 0.58573538 8421245
-0.16530436 0.083972499 0.58557111 8553090
-0.11033884 0.080774367 0.58535832 8289916
-0.10853016 0.082540162 0.58700377 8684675
-0.16560878 0.087303258 0.58664948 9013641
-0.10599241 0.086864971 0.58584887 8816262
-0.10387201 0.089058526 0.58660418 8947848
-0.10501045 0.090762772 0.58508521 8026230
-0.10204212 0.092565507 0.5867871 8355195
-0.099425234 0.093576446 0.58951473 8355451
-0.10092043 0.0959014 0.58585346 8355195
-0.098478131 0.097770095 0.58704317 8947848
-0.096506879 0.10232087 0.58600438 8158329
-0.093982168 0.10352667 0.58789861 7960694
