# .PCD v0.7 - Point Cloud Data file format
VERSION 0.7
FIELDS x y z
SIZE 4 4 4
TYPE F F F
COUNT 1 1 1
WIDTH 1409
HEIGHT 1
VIEWPOINT 0 0 0 1 0 0 0
POINTS 1409
DATA ascii
-0.14476867 0.18729959 0.9068616
-0.14836599 0.18935107 0.90885681
-0.15620975 0.19383095 0.90680617
-0.15983203 0.1958967 0.9088012
-0.16764946 0.20036155 0.90675086
-0.17129667 0.20244153 0.90874559
-0.17908776 0.20689133 0.90669549
-0.18275991 0.20898555 0.90869004
-0.32020938 0.28745139 0.90802324
-0.31623846 0.28518662 0.90603173
-0.3316544 0.29398501 0.90796775
-0.34309804 0.30051786 0.90791231
-0.35454029 0.3070499 0.90785682
-0.36598107 0.31358111 0.90780127
-0.37742051 0.32011154 0.90774578
-0.38885853 0.32664117 0.90769029
-0.40029514 0.33317 0.90763479
-0.41173038 0.33969805 0.90757936
-0.42316425 0.34622529 0.90752393
-0.43459669 0.35275173 0.9074685
-0.44602773 0.35927737 0.90741307
-0.45745733 0.3658022 0.90735757
-0.4688856 0.37232625 0.90730214
-0.48031241 0.37884948 0.90724665
-0.4917379 0.38537198 0.90719134
0.49597988 -0.17848694 0.9119823
0.49817008 -0.17973517 0.90997326
0.48443481 -0.17189622 0.91192627
0.48665032 -0.17315888 0.90991747
0.47289121 -0.16530631 0.9118703
0.47513202 -0.16658342 0.90986174
0.46361506 -0.16000874 0.90980595
0.46134898 -0.15871722 0.91181427
0.45209959 -0.15343489 0.90975028
0.44980821 -0.15212892 0.9117583
0.4394272 -0.14620164 0.91069847
0.42673093 -0.13895477 0.91164643
0.42907283 -0.14028959 0.90963882
0.41519439 -0.13236891 0.91159046
0.41756153 -0.13371813 0.90958309
0.40605167 -0.1271475 0.90952736
0.40365925 -0.12578385 0.91153449
0.39454323 -0.12057766 0.90947169
0.39212555 -0.11919959 0.91147852
0.38303617 -0.11400862 0.90941596
0.38059324 -0.11261614 0.91142255
0.37029648 -0.10673696 0.9103635
0.35753298 -0.099451698 0.91131079
0.36002633 -0.10087299 0.90930468
0.34852353 -0.094306365 0.90924901
0.34600493 -0.092870682 0.91125488
0.3370221 -0.087740548 0.90919334
0.33447829 -0.086290464 0.91119891
0.32552209 -0.081175536 0.90913767
0.32295308 -0.079711065 0.911143
0.31142929 -0.07313247 0.91108716
0.31402349 -0.074611329 0.909082
0.29990691 -0.06655468 0.91103125
0.30252632 -0.068047926 0.90902638
0.17325392 0.0057477606 0.9104169
0.16174848 0.012315874 0.91036105
0.15024446 0.018883184 0.91030526
0.13874184 0.025449686 0.91024941
0.12724064 0.032015387 0.91019374
0.11574086 0.038580284 0.91013801
0.10424246 0.045144372 0.91008216
0.092745475 0.051707655 0.91002637
0.081249908 0.058270134 0.90997058
0.078139223 0.060043823 0.91197968
0.06975574 0.064831808 0.90991479
0.066619873 0.066619873 0.91192365
0.058262993 0.071392685 0.90985906
0.055101942 0.073195122 0.91186762
-0.036990598 0.12576804 0.91141993
-0.033628348 0.12385076 0.90941346
-0.045108438 0.13040438 0.90935773
-0.04849581 0.13233602 0.91136402
-0.056587119 0.13695723 0.90930206
-0.059999608 0.1389032 0.91130811
-0.068064399 0.14350927 0.90924639
-0.071502 0.14546958 0.9112522
-0.08300297 0.15203513 0.91119623
-0.079540268 0.1500605 0.90919071
-0.094502531 0.1585999 0.91114032
-0.091014728 0.15661092 0.90913498
-0.10248779 0.16316056 0.90907931
-0.10600068 0.16516386 0.91108447
-0.11395945 0.1697094 0.90902376
-0.11749743 0.171727 0.91102856
-0.12899277 0.17828935 0.91097271
-0.14048669 0.1848509 0.91091681
-0.15197919 0.19141163 0.91086096
-0.16347028 0.19797155 0.91080505
-0.17495999 0.2045307 0.91074926
-0.32419786 0.2897262 0.91002375
-0.33566782 0.29627404 0.9099679
-0.339699 0.2985732 0.91197699
-0.34713641 0.30282113 0.90991217
-0.35119265 0.30513459 0.91192102
-0.36268488 0.31169516 0.91186494
-0.35860363 0.30936742 0.9098565
-0.37006935 0.31591287 0.90980071
-0.37417573 0.31825495 0.91180903
-0.38153377 0.32245755 0.90974504
-0.38566515 0.32481393 0.91175306
-0.3929967 0.3290014 0.90968925
-0.39715317 0.33137211 0.91169709
-0.40445825 0.33554447 0.90963352
-0.40863976 0.33792946 0.91164112
-0.42012495 0.344486 0.91158515
-0.41591841 0.34208676 0.90957785
-0.42737716 0.34862819 0.90952212
-0.43160871 0.35104176 0.91152918
-0.43883455 0.35516891 0.90946651
-0.44309106 0.3575967 0.91147321
-0.45029044 0.36170873 0.90941072
-0.45457205 0.36415085 0.91141731
-0.46174499 0.36824778 0.90935504
-0.46605164 0.3707042 0.91136146
-0.47319818 0.37478608 0.90929943
-0.47752976 0.37725672 0.91130549
-0.48900646 0.38380843 0.91124952
-0.48464987 0.38132352 0.9092437
-0.49610022 0.38786015 0.90918803
0.49377993 -0.1772332 0.91400021
0.48220953 -0.17062798 0.91394401
0.47064051 -0.16402358 0.9138878
0.45907289 -0.15741996 0.91383147
0.44750673 -0.15081719 0.91377527
0.43594193 -0.1442152 0.913719
0.4243786 -0.13761404 0.91366279
0.41281673 -0.13101369 0.91360664
0.40125626 -0.12441416 0.91355044
0.38969719 -0.11781543 0.91349423
0.37813956 -0.11121751 0.91343802
0.36658335 -0.10462041 0.91338187
0.35502854 -0.098024122 0.91332567
0.34347513 -0.091428638 0.91326946
0.33192325 -0.08483398 0.91321343
0.3203727 -0.078240119 0.91315722
0.30882359 -0.07164707 0.91310108
0.29727587 -0.065054834 0.91304493
0.17898048 0.0024743846 0.91450405
0.17034495 0.0074063023 0.91242796
0.16742305 0.0090721846 0.91444772
0.15881427 0.013988821 0.91237181
0.15586706 0.015669174 0.91439152
0.14728501 0.020570533 0.91231585
0.14431246 0.02226535 0.91433519
0.13275927 0.028860712 0.91427886
0.13575716 0.027151434 0.9122597
0.12120754 0.035455264 0.9142226
0.12423074 0.033731528 0.91220367
0.11270574 0.040310811 0.91214764
0.10965721 0.042049006 0.91416633
0.10118216 0.04688929 0.91209167
0.098108299 0.048641931 0.91411
0.089659981 0.053466961 0.91203564
0.086560816 0.055234045 0.91405374
0.07501477 0.061825357 0.91399759
0.063470133 0.068415858 0.91394138
0.051926907 0.075005531 0.91388506
-0.028835859 0.12111061 0.91349155
-0.040367723 0.12769382 0.9134354
-0.051898167 0.13427621 0.91337925
-0.063427188 0.14085777 0.91332299
-0.0749548 0.14743856 0.9132669
-0.08648099 0.15401852 0.91321075
-0.098005757 0.16059767 0.91315454
-0.10952911 0.16717601 0.91309839
-0.12105104 0.17375353 0.91304225
-0.13257156 0.18033028 0.91298616
-0.14771062 0.18897058 0.91495216
-0.14409067 0.18690619 0.91293001
-0.15560836 0.1934813 0.91287392
-0.1592536 0.19556011 0.91489577
-0.16712464 0.2000556 0.91281784
-0.17079516 0.20214885 0.91483945
-0.17863949 0.20662908 0.91276169
-0.18233529 0.20873678 0.91478312
-0.32070604 0.28772855 0.91410738
-0.31670746 0.28544801 0.91208905
-0.32820392 0.29201099 0.91203296
-0.33222774 0.29430595 0.91405118
-0.34374797 0.30088252 0.91399491
-0.35526681 0.30745828 0.91393864
-0.36678421 0.31403324 0.91388237
-0.37830022 0.32060739 0.91382617
-0.38981479 0.32718071 0.9137699
-0.40132797 0.33375323 0.91371369
-0.41283974 0.34032497 0.91365755
-0.42435005 0.34689587 0.91360128
-0.43585896 0.35346597 0.91354507
-0.44736648 0.36003527 0.91348892
-0.45887253 0.36660373 0.91343266
-0.47037718 0.37317139 0.91337645
-0.48188052 0.3797383 0.91332042
-0.49338236 0.38630438 0.91326427
0.49157026 -0.17597389 0.91602707
0.4799743 -0.1693541 0.91597056
0.46837977 -0.16273512 0.91591412
0.46610898 -0.16144095 0.91794944
0.45678666 -0.15611696 0.91585761
0.45449033 -0.15480818 0.91789281
0.44287303 -0.14817621 0.91783607
0.44519502 -0.14949962 0.91580117
0.43125716 -0.14154506 0.91777933
0.43360475 -0.14288309 0.91574466
0.42201594 -0.13626738 0.91568822
0.41964275 -0.13491473 0.91772264
0.41042852 -0.12965247 0.91563171
0.40802974 -0.12828521 0.91766584
0.39884257 -0.12303839 0.91557527
0.39641818 -0.12165652 0.91760916
0.38480809 -0.11502865 0.91755247
0.38725805 -0.11642513 0.91551888
0.3731994 -0.1084016 0.91749579
0.37567496 -0.10981268 0.91546243
0.3640933 -0.10320105 0.91540605
0.36159217 -0.10177537 0.9174391
0.35251302 -0.096590221 0.91534954
0.34998637 -0.095149957 0.91738248
0.33838198 -0.088525362 0.91732579
0.34093422 -0.089980215 0.91529316
0.32677907 -0.081901588 0.91726917
0.32935682 -0.083371021 0.91523671
0.31647921 -0.076020628 0.91619635
0.30620635 -0.070155092 0.915124
0.30357745 -0.068656482 0.9171558
0.17607112 0.0041331248 0.91653317
0.16448821 0.010745461 0.91647661
0.15290675 0.017356981 0.91642004
0.14132671 0.023967689 0.9163636
0.12974809 0.030577578 0.91630703
0.11817091 0.037186649 0.91625047
0.10659515 0.043794908 0.91619396
0.095020823 0.050402347 0.9161374
0.083447918 0.057008974 0.91608089
0.071876451 0.063614786 0.91602439
0.060306408 0.070219792 0.91596794
-0.035584301 0.12495883 0.91754985
-0.032202601 0.12303045 0.9155162
-0.047166973 0.13157104 0.91749316
-0.043759812 0.12962812 0.91545975
-0.055315599 0.13622499 0.91540337
-0.058748212 0.13818242 0.91743642
-0.066869959 0.14282103 0.91534692
-0.07032802 0.14479299 0.91737974
-0.078422897 0.14941625 0.91529047
-0.081906401 0.15140274 0.91732305
-0.093483359 0.15801169 0.91726649
-0.089974403 0.15601067 0.91523403
-0.10505886 0.1646198 0.91720974
-0.1015245 0.16260429 0.9151777
-0.11307317 0.16919708 0.91512132
-0.11663296 0.17122711 0.91715318
-0.12462041 0.17578904 0.91506487
-0.12820561 0.1778336 0.9170965
-0.13616623 0.18238021 0.91500849
-0.13977686 0.18443929 0.91703993
-0.15134665 0.19104414 0.91698325
-0.16291502 0.19764817 0.91692662
-0.17448197 0.20425141 0.91687006
-0.18604749 0.21085382 0.91681343
-0.32472241 0.29001924 0.91613477
-0.33626932 0.29661104 0.91607815
-0.34781492 0.30320209 0.91602176
-0.35935906 0.30979228 0.91596526
-0.37090173 0.31638166 0.91590875
-0.37503758 0.31874055 0.91794413
-0.38244304 0.32297024 0.91585231
-0.38660425 0.32534364 0.91788745
-0.39398286 0.32955799 0.91579574
-0.39816946 0.33194587 0.91783065
-0.40973327 0.33854729 0.9177739
-0.4055213 0.33614495 0.9157393
-0.41705832 0.34273109 0.91568285
-0.42129567 0.34514791 0.91771722
-0.4285939 0.34931642 0.91562641
-0.43285659 0.35174772 0.91766047
-0.44012806 0.35590094 0.91556996
-0.44441611 0.3583467 0.91760373
-0.45166084 0.36248466 0.91551358
-0.45597425 0.36494491 0.91754717
-0.46753094 0.37154227 0.91749048
-0.46319216 0.36906755 0.91545713
-0.47472206 0.37564963 0.91540068
-0.47908613 0.37813878 0.91743374
-0.48625052 0.38223088 0.91534424
-0.49063995 0.38473454 0.91737711
-0.49777755 0.38881132 0.91528779
0.499872 -0.18071632 0.91914237
0.48935077 -0.17470899 0.91806298
0.4871214 -0.17343846 0.92010796
0.47772914 -0.16807455 0.91800618
0.475474 -0.16678931 0.92005086
0.46382815 -0.16014102 0.91999394
0.45218366 -0.15349354 0.9199369
0.44054064 -0.14684688 0.91987991
0.42889911 -0.14020106 0.91982305
0.41725898 -0.13355605 0.91976607
0.40562028 -0.12691186 0.91970909
0.39398301 -0.1202685 0.9196521
0.3823472 -0.11362596 0.91959512
0.37071285 -0.10698424 0.9195382
0.35907993 -0.10034335 0.91948128
0.34744844 -0.093703285 0.91942441
0.33581841 -0.087064028 0.91936749
0.32418978 -0.080425598 0.91931051
0.31256261 -0.073787995 0.91925365
0.30093691 -0.067151211 0.91919678
0.17314881 0.0057992423 0.91857135
0.17021348 0.0074727866 0.92061859
0.1585793 0.014114389 0.92056155
0.16154033 0.01242618 0.91851455
0.14694658 0.020755166 0.92050445
0.14993328 0.019052295 0.91845769
0.13832769 0.025677595 0.91840094
0.1353153 0.027395122 0.92044741
0.12672351 0.03230207 0.91834408
0.12368546 0.034034252 0.92039031
0.11512078 0.038925733 0.9182874
0.11205706 0.040672563 0.92033327
0.10043011 0.047310051 0.92027628
0.10351949 0.045548577 0.91823065
0.088804595 0.053946719 0.9202193
0.091919623 0.052170597 0.91817385
0.080321178 0.05879179 0.91811699
0.07718052 0.060582556 0.92016226
0.068724185 0.065412179 0.91806024
0.065557882 0.067217581 0.92010528
0.053936686 0.073851772 0.92004818
0.057128623 0.072031744 0.9180035
-0.027371371 0.12026815 0.91964942
-0.038981058 0.12689579 0.9195925
-0.050589297 0.13352257 0.91953546
-0.062196113 0.14014858 0.91947865
-0.07380148 0.14677373 0.91942167
-0.085405417 0.15339807 0.91936475
-0.097007908 0.16002159 0.91930783
-0.10860898 0.1666443 0.91925097
-0.12020859 0.17326617 0.91919398
-0.13180679 0.17988725 0.91913718
-0.14340355 0.18650751 0.91908032
-0.15499885 0.19312692 0.91902339
-0.16659275 0.19974552 0.91896653
-0.17818521 0.20636332 0.91890973
-0.18190493 0.20848463 0.9209584
-0.32120943 0.28800949 0.92027366
-0.32875657 0.29232007 0.91817111
-0.33280876 0.29463121 0.92021662
-0.34032899 0.29892641 0.91811436
-0.34440669 0.30125213 0.92015958
-0.35189995 0.30553195 0.91805762
-0.35600314 0.30787218 0.92010248
-0.36759818 0.31449145 0.9200455
-0.36346945 0.31213662 0.91800082
-0.37919179 0.32110989 0.91998851
-0.39078397 0.32772753 0.91993153
-0.40237471 0.33434433 0.91987455
-0.413964 0.34096032 0.91981757
-0.42555186 0.34757549 0.91976058
-0.43713829 0.35418984 0.91970366
-0.44872329 0.36080337 0.91964668
-0.46030685 0.36741608 0.91958976
-0.47188899 0.374028 0.91953284
-0.48346967 0.38063908 0.91947591
-0.49504894 0.38724932 0.91941899
0.49655667 -0.17882694 0.92221922
0.48488209 -0.17216225 0.92216206
0.47320884 -0.16549835 0.92210478
0.46153709 -0.15883528 0.9220475
0.44986677 -0.15217304 0.92199022
0.43584469 -0.14417042 0.92399526
0.43819788 -0.14551163 0.92193294
0.42653051 -0.13885106 0.92187577
0.42415133 -0.13749503 0.9239378
0.41486451 -0.1321913 0.92181849
0.4124594 -0.13082047 0.92388028
0.40076897 -0.12414673 0.92382282
0.40320006 -0.12553239 0.92176139
0.38907999 -0.11747383 0.92376542
0.39153698 -0.11887428 0.92170417
0.37987536 -0.11221701 0.92164695
0.37739244 -0.11080176 0.92370796
0.36821517 -0.10556056 0.92158973
0.36570635 -0.10413051 0.9236505
0.3552891 -0.098182522 0.92256284
0.34361887 -0.091520324 0.9225055
0.3306568 -0.084121756 0.92347819
0.33324334 -0.085596167 0.92141819
0.32158899 -0.078943029 0.92136109
0.31897649 -0.077453822 0.92342067
0.30993605 -0.072290711 0.92130393
0.30729771 -0.070786737 0.92336333
0.17892642 0.0024966476 0.92273223
0.167265 0.0091538066 0.92267489
0.15560505 0.015810138 0.92261761
0.14394653 0.022465644 0.92256033
0.13228945 0.02912032 0.92250299
0.12063383 0.035774171 0.92244565
0.10897966 0.042427193 0.92238837
0.097326927 0.049079392 0.92233104
0.085675649 0.05573076 0.92227376
0.074025832 0.06238132 0.92221665
0.062377438 0.06903103 0.92215931
0.0507305 0.075679928 0.92210203
-0.030757591 0.12219907 0.92170143
-0.034158956 0.12413865 0.92376268
-0.042392969 0.12884137 0.92164427
-0.045820139 0.13079567 0.92370522
-0.057479877 0.13745187 0.92364782
-0.054026898 0.13548285 0.92158705
-0.065659389 0.14212349 0.92152989
-0.069138154 0.14410724 0.9235903
-0.077290423 0.1487633 0.92147261
-0.080794983 0.15076178 0.92353284
-0.088920034 0.1554023 0.92141551
-0.092450373 0.15741549 0.92347544
-0.1041043 0.16406839 0.92341805
-0.10054819 0.16204047 0.92135835
-0.11575679 0.17072044 0.92336065
-0.11217491 0.16867784 0.92130125
-0.12380018 0.17531435 0.92124403
-0.12740782 0.17737167 0.92330319
-0.13542402 0.18195006 0.92118692
-0.13905741 0.18402208 0.92324579
-0.1470464 0.18858494 0.92112976
-0.15070555 0.19067165 0.92318839
-0.16235225 0.19732042 0.92313105
-0.15866736 0.195219 0.92107266
-0.17399748 0.20396835 0.92307365
-0.17028686 0.20185223 0.92101556
-0.18564129 0.21061544 0.92301631
-0.32525399 0.29031622 0.92232835
-0.33687901 0.29695261 0.92227113
-0.34850258 0.30358815 0.92221385
-0.36012471 0.31022289 0.92215663
-0.37174538 0.3168568 0.92209935
-0.38336456 0.32348984 0.92204201
-0.39498237 0.33012211 0.92198485
-0.40659869 0.33675352 0.92192757
-0.41084158 0.3391735 0.92398977
-0.41821364 0.34338415 0.92187041
-0.42248219 0.34581876 0.92393225
-0.42982709 0.35001394 0.92181319
-0.4341214 0.35246325 0.92387486
-0.44143909 0.35664287 0.92175591
-0.44575912 0.3591069 0.9238174
-0.45739543 0.36574972 0.92376
-0.45304969 0.36327103 0.92169875
-0.4646588 0.36989832 0.92164153
-0.46903026 0.3723917 0.92370254
-0.47626644 0.37652478 0.92158425
-0.4806636 0.37903282 0.92364502
-0.48787275 0.38315049 0.92152715
-0.4922955 0.38567314 0.92358756
-0.4994776 0.38977537 0.92147005
0.49433333 -0.17755987 0.92428279
0.49209997 -0.17628708 0.9263556
0.48150298 -0.17023648 0.92526156
0.46979076 -0.16355032 0.92520392
0.45692414 -0.15620625 0.92618227
0.45923579 -0.15752371 0.92411029
0.44753951 -0.15084665 0.92405277
0.44520184 -0.14951432 0.92612457
0.43348095 -0.1428232 0.92606682
0.42176151 -0.13613293 0.92600906
0.41004354 -0.12944348 0.9259513
0.39832702 -0.12275486 0.92589355
0.38661197 -0.11606709 0.92583579
0.37489837 -0.10938015 0.92577809
0.3631863 -0.10269406 0.92572045
0.35147563 -0.096008778 0.92566276
0.33976641 -0.08932434 0.92560506
0.32805866 -0.082640737 0.92554736
0.31635237 -0.075957961 0.92548966
0.30464754 -0.06927602 0.92543197
0.17304179 0.0058516548 0.92687321
0.17599069 0.0041703954 0.92479801
0.16430335 0.010842353 0.92474049
0.16132841 0.012538477 0.92681533
0.15261747 0.01751348 0.92468292
0.14961649 0.019224465 0.92675751
0.13790604 0.025909619 0.9266997
0.14093304 0.024183776 0.92462534
0.12619704 0.032593936 0.92664182
0.12925008 0.030853244 0.92456782
0.11756856 0.03752188 0.9245103
0.11448951 0.039277423 0.92658401
0.10588849 0.04418968 0.92445266
0.10278345 0.04596008 0.92652631
0.094209865 0.050856654 0.92439508
0.09107884 0.052641898 0.92646849
0.079375684 0.059322879 0.92641068
0.082532711 0.0575228 0.92433757
0.070857011 0.064188115 0.92428005
0.067673989 0.066003032 0.92635286
0.059182763 0.0708526 0.92422253
0.055973757 0.072682343 0.92629504
-0.037575565 0.12608689 0.92583305
-0.049262673 0.13275874 0.92577541
-0.060948323 0.13942972 0.92571771
-0.072632514 0.14609988 0.92566001
-0.084315248 0.15276921 0.92560232
-0.095996529 0.15943772 0.92554462
-0.10767635 0.16610537 0.92548692
-0.11935472 0.17277221 0.92542928
-0.13103165 0.17943823 0.92537171
-0.14270709 0.18610339 0.92531395
-0.1543811 0.19276774 0.92525631
-0.16605364 0.19943126 0.92519867
-0.17772472 0.20609392 0.92514098
-0.32931674 0.29263335 0.9243924
-0.33339769 0.29496086 0.92646575
-0.34096751 0.29928443 0.92433488
-0.3450743 0.30162668 0.92640787
-0.35261682 0.30593467 0.92427737
-0.35674948 0.3082917 0.92635012
-0.36842322 0.31495592 0.92629236
-0.36426467 0.3125841 0.92421985
-0.37591109 0.3192327 0.92416233
-0.38009548 0.32161924 0.92623454
-0.38755605 0.32588047 0.92410481
-0.39176631 0.32828179 0.92617685
-0.39919958 0.3325274 0.92404735
-0.40343568 0.33494347 0.92611909
-0.41510355 0.34160435 0.92606133
-0.42677 0.34826437 0.92600358
-0.43843502 0.35492358 0.92594588
-0.45009854 0.36158195 0.92588812
-0.46176067 0.36823952 0.92583048
-0.47342125 0.3748962 0.92577267
-0.48508042 0.38155207 0.92571497
-0.49673817 0.38820714 0.92565733
0.4898566 -0.17500859 0.92843771
0.47810364 -0.16829918 0.92837965
0.46635213 -0.16159061 0.9283216
0.45460215 -0.15488286 0.9282636
0.44285357 -0.14817595 0.92820555
0.43110651 -0.1414699 0.92814755
0.41936094 -0.13476469 0.92808962
0.40761676 -0.1280603 0.92803156
0.39587411 -0.12135676 0.92797363
0.38413289 -0.11465405 0.92791563
0.36987662 -0.10651775 0.92994648
0.37239316 -0.10795217 0.92785764
0.3581121 -0.099801734 0.92988831
0.36065486 -0.10125113 0.92779964
0.346349 -0.093086533 0.92983001
0.34891808 -0.094550945 0.92774177
0.33718273 -0.087851584 0.92768377
0.3345874 -0.086372189 0.92977178
0.32544887 -0.081153058 0.92762583
0.32282731 -0.079658687 0.92971367
0.31106865 -0.072946019 0.92965543
0.31371647 -0.074455373 0.9275679
0.3019855 -0.067758523 0.92750996
0.18182062 0.00083788298 0.9290157
0.17007963 0.007540476 0.9289577
0.15834008 0.01424223 0.92889953
0.14660202 0.020943146 0.92884147
0.13486542 0.027643222 0.9287833
0.12313029 0.034342464 0.92872524
0.11139663 0.041040864 0.92866713
0.099664442 0.047738429 0.92860913
0.087933712 0.054435156 0.92855108
0.076204456 0.061131045 0.92849302
0.064476661 0.0678261 0.92843497
0.052750338 0.07452032 0.92837697
-0.029292922 0.12135639 0.92797083
-0.041007526 0.12804392 0.92791283
-0.052720673 0.13473061 0.9278549
-0.056194242 0.13671137 0.9299438
-0.067932069 0.14341214 0.92988551
-0.064432345 0.14141645 0.92779684
-0.076142572 0.14810148 0.92773902
-0.079668418 0.15011206 0.92982721
-0.087851323 0.15478566 0.92768103
-0.091403313 0.15681119 0.9297691
-0.099558614 0.16146901 0.92762309
-0.10313673 0.16350944 0.92971087
-0.11486868 0.17020687 0.92965269
-0.11126444 0.16815151 0.9275651
-0.12659915 0.17690346 0.92959446
-0.1229688 0.17483319 0.92750716
-0.1346717 0.18151404 0.92744929
-0.13832818 0.18359922 0.92953634
-0.14637315 0.18819407 0.92739141
-0.15005571 0.19029412 0.92947811
-0.15807314 0.19487324 0.92733353
-0.16178179 0.19698818 0.92941993
-0.17350639 0.20368142 0.92936182
-0.16977164 0.20155156 0.92727554
-0.18146871 0.20822908 0.92721766
-0.18522955 0.21037383 0.92930371
-0.32579288 0.29061732 0.92860639
-0.33749697 0.29729882 0.92854828
-0.34919959 0.30397952 0.92849028
-0.36090073 0.31065935 0.92843217
-0.37260044 0.31733835 0.92837411
-0.38429868 0.32401654 0.92831612
-0.39599547 0.3306939 0.92825812
-0.40769079 0.33737043 0.92820013
-0.41938463 0.34404609 0.92814207
-0.43107706 0.35072094 0.92808414
-0.44276795 0.35739493 0.92802608
-0.4544574 0.36406809 0.92796808
-0.46614546 0.37074044 0.92791015
-0.47055 0.37325266 0.92999923
-0.47783199 0.37741196 0.92785215
-0.48226258 0.37993905 0.929941
-0.49397367 0.38662454 0.92988271
-0.48951709 0.38408265 0.92779422
0.49938384 -0.18044962 0.93058747
0.49714667 -0.17917469 0.93268871
0.4853394 -0.17243427 0.93263006
0.48760313 -0.17372435 0.93052924
0.47353369 -0.16569473 0.93257153
0.47582385 -0.16699991 0.93047094
0.464046 -0.16027628 0.93041259
0.46172947 -0.15895605 0.93251306
0.4522697 -0.15355353 0.93035436
0.44992667 -0.15221818 0.93245447
0.4393101 -0.14615639 0.93134594
0.42752349 -0.13942777 0.93128753
0.41573834 -0.13269998 0.93122911
0.40517908 -0.1266709 0.93012124
0.40273038 -0.12527521 0.93222028
0.390935 -0.11854158 0.93216175
0.39341012 -0.11995234 0.93006301
0.37914112 -0.11180881 0.93210328
0.38164264 -0.11323463 0.93000478
0.36734876 -0.10507688 0.93204486
0.35555783 -0.098345779 0.93198633
0.34376839 -0.091615535 0.93192786
0.33198041 -0.084886134 0.93186939
0.32019392 -0.078157566 0.93181086
0.30840892 -0.071429856 0.93175244
0.17887136 0.0025193149 0.93110979
0.1671041 0.0092369094 0.93105143
0.15533827 0.01595366 0.93099302
0.14357397 0.022669574 0.93093479
0.1318111 0.029384641 0.93087637
0.12874298 0.031133924 0.93297887
0.11695524 0.037863206 0.93292034
0.12004972 0.036098868 0.93081802
0.10516896 0.044591639 0.93286169
0.10828981 0.042812251 0.93075967
0.096531376 0.049524792 0.93070132
0.093384176 0.05131923 0.93280309
0.08477442 0.056236494 0.93064302
0.081600867 0.058045976 0.9327445
0.073018938 0.062947355 0.93058473
0.069819033 0.064771876 0.93268591
0.058038682 0.071496926 0.93262732
0.061264925 0.069657378 0.93052644
0.049512386 0.076366559 0.93046814
-0.036150876 0.12526698 0.93215907
-0.032714181 0.12330729 0.93006027
-0.047917917 0.13198444 0.93210053
-0.044454943 0.13000974 0.93000197
-0.059683487 0.13870107 0.93204206
-0.071447574 0.14541683 0.93198353
-0.083210193 0.15213177 0.93192506
-0.094971329 0.15884584 0.93186659
-0.10673099 0.1655591 0.93180811
-0.11848918 0.1722715 0.9317497
-0.13024589 0.17898306 0.93169123
-0.14200112 0.18569377 0.93163276
-0.15375488 0.19240364 0.93157429
-0.16550717 0.19911268 0.93151587
-0.17725797 0.20582087 0.9314574
-0.18900734 0.21252824 0.93139911
-0.3298845 0.29295087 0.93069857
-0.33399466 0.29529503 0.93280035
-0.34161472 0.2996473 0.93064028
-0.34575111 0.30200642 0.93274176
-0.35750604 0.30871698 0.93268311
-0.35334346 0.3063429 0.93058199
-0.36507073 0.31303766 0.93052369
-0.36925951 0.31542671 0.93262458
-0.37679654 0.31973156 0.9304654
-0.38101155 0.32213557 0.93256605
-0.38852084 0.32642463 0.93040705
-0.39276206 0.32884359 0.93250746
-0.40451112 0.33555081 0.93244898
-0.4002437 0.33311689 0.93034881
-0.4119651 0.33980826 0.93029052
-0.41625866 0.34225711 0.93239033
-0.42368498 0.34649882 0.93023223
-0.42800477 0.34896263 0.9323318
-0.4354035 0.35318857 0.93017405
-0.43974942 0.35566732 0.93227333
-0.44712043 0.35987741 0.9301157
-0.45149261 0.36237115 0.93221486
-0.45883596 0.36656547 0.93005747
-0.46323425 0.36907411 0.93215626
-0.47497445 0.37577626 0.93209779
-0.4867132 0.38247755 0.93203932
-0.49845043 0.38917801 0.93198079
0.49489933 -0.17789397 0.93479943
0.48306552 -0.17113839 0.93474054
0.47123319 -0.16438368 0.93468171
0.45940238 -0.1576298 0.93462288
0.44757304 -0.15087679 0.93456405
0.43574524 -0.14412464 0.93450534
0.42391887 -0.13737331 0.93444651
0.412094 -0.13062285 0.93438768
0.40027064 -0.12387323 0.93432891
0.38844872 -0.11712445 0.93427008
0.37662831 -0.11037653 0.93421131
0.36480945 -0.10362948 0.93415266
0.35299203 -0.096883252 0.93409389
0.34117606 -0.090137877 0.93403512
0.32936159 -0.083393343 0.93397635
0.31754863 -0.076649666 0.93391758
0.30573717 -0.069906846 0.93385893
0.17293282 0.0059050233 0.93532652
0.1759088 0.0042083445 0.93321341
0.16411513 0.010941008 0.93315476
0.16111262 0.012652824 0.93526757
0.15232292 0.017672826 0.93309605
0.14929391 0.019399775 0.93520868
0.1374767 0.026145874 0.93514973
0.14053223 0.024403799 0.93303752
0.12566097 0.032891124 0.93509084
0.11384673 0.039635528 0.93503201
0.10203399 0.046379086 0.93497318
0.090222724 0.05312179 0.93491435
0.078412943 0.059863642 0.93485546
0.066604652 0.066604652 0.93479663
0.054797843 0.073344804 0.93473774
-0.039603114 0.12723555 0.93426734
-0.051396552 0.13396806 0.93420851
-0.063188508 0.14069974 0.9341498
-0.074978985 0.14743058 0.93409109
-0.086767972 0.15416057 0.93403232
-0.098555483 0.16088971 0.93397361
-0.1103415 0.16761799 0.93391478
-0.12577939 0.17642881 0.93597209
-0.12212605 0.17434546 0.93385613
-0.13390911 0.18107207 0.93379742
-0.13758892 0.18317053 0.93591309
-0.14569068 0.18779781 0.93373871
-0.14939696 0.1899114 0.93585414
-0.15747078 0.19452274 0.93368
-0.16120352 0.19665141 0.93579525
-0.17300858 0.20339057 0.93573624
-0.1692494 0.2012468 0.93362129
-0.18102653 0.20797001 0.93356258
-0.18481214 0.21012887 0.93567723
-0.32633916 0.29092249 0.93497044
-0.33812341 0.29764977 0.93491155
-0.34990618 0.30437621 0.93485272
-0.36168745 0.31110179 0.93479383
-0.37346727 0.31782657 0.934735
-0.38524562 0.32455045 0.93467617
-0.39702246 0.3312735 0.93461734
-0.4087978 0.33799571 0.93455851
-0.42057171 0.34471709 0.93449974
-0.43234414 0.35143763 0.93444097
-0.44411504 0.35815728 0.93438214
-0.45588449 0.36487612 0.93432337
-0.46765238 0.37159404 0.93426448
-0.4794189 0.37831125 0.93420583
-0.49118391 0.38502753 0.93414706
0.49264178 -0.17660743 0.93691969
0.47848672 -0.16852894 0.93899029
0.48078129 -0.16983663 0.93686056
0.46892229 -0.16306667 0.93680149
0.46660087 -0.16174367 0.93893087
0.45706478 -0.15629756 0.93674237
0.45471656 -0.15495928 0.9388715
0.44283375 -0.14817573 0.93881214
0.44520873 -0.14952931 0.93668318
0.43095246 -0.14139305 0.93875283
0.43335423 -0.14276192 0.93662417
0.42150128 -0.1359954 0.93656522
0.41907263 -0.1346112 0.9386934
0.40964973 -0.12922971 0.93650609
0.40719435 -0.12783024 0.9386341
0.39531758 -0.12105013 0.93857485
0.3977997 -0.12246487 0.93644702
0.38344228 -0.11427088 0.93851554
0.38595119 -0.1157009 0.93638802
0.37410414 -0.10893777 0.93632895
0.37156847 -0.10749248 0.93845624
0.36225858 -0.1021755 0.93626988
0.35969615 -0.10071493 0.93839687
0.34782538 -0.093938239 0.93833756
0.35041451 -0.095414072 0.93621087
0.3359561 -0.087162413 0.93827832
0.338572 -0.088653512 0.93615192
0.32673094 -0.081893802 0.93609291
0.32408831 -0.080387436 0.93821907
0.31489137 -0.075134933 0.9360339
0.312222 -0.073613323 0.93815982
0.18179165 0.00084554253 0.93750834
0.16994332 0.0076094018 0.9374491
0.15809651 0.014372409 0.93739003
0.14625117 0.021134561 0.93733084
0.13440733 0.02789586 0.93727165
0.12256497 0.034656301 0.93721241
0.11072413 0.041415896 0.93715334
0.098884769 0.048174631 0.93709415
0.087046914 0.054932516 0.93703502
0.075210556 0.061689559 0.93697602
0.063375682 0.068445735 0.93691689
0.051542304 0.075201072 0.93685782
-0.031249564 0.12246451 0.93644422
-0.034706578 0.12443578 0.93857205
-0.046554659 0.13119949 0.93851268
-0.043071009 0.12921304 0.93638521
-0.058401246 0.13796237 0.93845338
-0.054890957 0.13596068 0.93632609
-0.066709422 0.1427075 0.93626714
-0.070246339 0.14472438 0.93839413
-0.0785264 0.14945348 0.93620813
-0.082089923 0.15148553 0.93833476
-0.093932025 0.15824585 0.93827552
-0.090341881 0.15619858 0.93614912
-0.10215588 0.16294284 0.93609011
-0.10577263 0.1650053 0.93821627
-0.11396838 0.16968626 0.9360311
-0.11761173 0.1717639 0.93815696
-0.12944934 0.17852163 0.93809772
-0.14128545 0.18527852 0.93803841
-0.15312006 0.19203456 0.93797916
-0.16495319 0.19878973 0.93791991
-0.17678483 0.20554408 0.93786079
-0.18861496 0.21229756 0.93780154
-0.3304601 0.29327279 0.93709141
-0.34227085 0.30001521 0.93703234
-0.35408011 0.30675673 0.93697321
-0.36588782 0.31349742 0.93691403
-0.37769413 0.32023731 0.93685502
-0.38194019 0.32265902 0.93898463
-0.38949889 0.3269763 0.93679589
-0.3937715 0.32941315 0.93892521
-0.40130213 0.3337144 0.9367367
-0.40560132 0.33616644 0.93886584
-0.41310397 0.34045175 0.93667769
-0.41742969 0.3429189 0.93880647
-0.42490429 0.34718817 0.93661863
-0.42925653 0.3496705 0.93874711
-0.43670309 0.3539238 0.93655956
-0.44108191 0.35642129 0.93868786
-0.44850042 0.36065853 0.93650049
-0.4529058 0.36317119 0.93862861
-0.46029627 0.36739245 0.93644148
-0.46472815 0.36992022 0.93856925
-0.47209063 0.37412548 0.93638241
-0.47654903 0.37666842 0.93850994
-0.48388347 0.38085768 0.93632334
-0.48836839 0.38341573 0.93845057
-0.49567488 0.38758904 0.93626434
0.48809585 -0.17401679 0.94118923
0.49037394 -0.17531504 0.93904954
0.47618157 -0.16721527 0.94112951
0.46426883 -0.16041465 0.9410699
0.45235762 -0.15361488 0.9410103
0.4404479 -0.14681597 0.94095069
0.42853969 -0.14001793 0.94089109
0.41663298 -0.13322073 0.94083148
0.40472776 -0.1264244 0.94077182
0.39282408 -0.11962893 0.94071221
0.3809219 -0.11283433 0.94065267
0.36902127 -0.10604059 0.94059312
0.35712209 -0.099247709 0.94053358
0.34522444 -0.092455685 0.94047397
0.33332828 -0.085664518 0.94041443
0.32143363 -0.078874215 0.94035488
0.30954048 -0.07208477 0.94029528
0.17881531 0.0025423977 0.93964088
0.1758254 0.0042469907 0.94178325
0.16392343 0.011041475 0.94172347
0.16694023 0.009321535 0.93958145
0.15202297 0.017835097 0.9416638
0.15506664 0.016099816 0.93952203
0.14319456 0.022877237 0.9394626
0.14012402 0.024627859 0.94160408
0.13132399 0.029653804 0.93940324
0.12822658 0.031419758 0.94154435
0.11633066 0.038210798 0.94148475
0.11945491 0.036429513 0.93934381
0.10758733 0.04320436 0.93928432
0.10443623 0.045000978 0.94142509
0.09572126 0.049978357 0.93922496
0.092543311 0.051790293 0.94136536
0.083856679 0.05675149 0.93916553
0.080651902 0.058578752 0.9413057
0.068762004 0.06536635 0.94124609
0.071993604 0.063523769 0.93910611
0.060132038 0.0702952 0.9390468
0.056873608 0.072153084 0.94118643
-0.038179331 0.12641601 0.94070941
-0.050054178 0.13319501 0.94064987
-0.06192752 0.13997316 0.94059032
-0.073799357 0.14675044 0.94053072
-0.085669689 0.15352687 0.94047117
-0.097538516 0.16030243 0.94041157
-0.10940585 0.16707714 0.94035208
-0.12127168 0.173851 0.9402926
-0.13313599 0.18062399 0.94023305
-0.14499882 0.18739612 0.94017351
-0.15686013 0.19416739 0.94011396
-0.16871993 0.20093781 0.94005442
-0.18057825 0.20770738 0.93999493
-0.33459982 0.29563379 0.9392221
-0.33875844 0.29800555 0.9413625
-0.34643716 0.30239138 0.93916273
-0.35062248 0.30477837 0.94130284
-0.36248502 0.31155035 0.94124323
-0.358273 0.3091481 0.93910336
-0.37010735 0.31590399 0.939044
-0.37434605 0.31832147 0.94118357
-0.38620558 0.32509175 0.94112396
-0.3980636 0.33186114 0.9410643
-0.4099201 0.33862966 0.94100463
-0.42177516 0.34539735 0.94094509
-0.43362865 0.35216418 0.94088542
-0.44548067 0.35893014 0.94082582
-0.45733118 0.36569524 0.94076622
-0.4691802 0.3724595 0.94070667
-0.48102769 0.3792229 0.94064707
-0.4928737 0.38598543 0.94058746
0.49775013 -0.1795304 0.94339854
0.48580733 -0.17271258 0.94333863
0.47386602 -0.16589564 0.94327873
0.46192619 -0.15907955 0.94321877
0.44998789 -0.15226433 0.94315881
0.43805113 -0.14545 0.94309896
0.42611593 -0.13863651 0.94303912
0.41418219 -0.1318239 0.94297922
0.40224996 -0.12501214 0.94291937
0.39031926 -0.11820126 0.94285947
0.37839007 -0.11139124 0.94279963
0.37584665 -0.10994154 0.94495642
0.36389187 -0.1031169 0.94489628
0.36646238 -0.10458207 0.94273973
0.35193858 -0.096293122 0.94483614
0.35453627 -0.09777379 0.94268
0.34261161 -0.090966359 0.9426201
0.33998686 -0.089470223 0.94477612
0.33068848 -0.084159791 0.94256026
0.32803661 -0.082648188 0.94471598
0.31608787 -0.07582701 0.94465584
0.31876686 -0.077354096 0.94250047
0.30684677 -0.070549257 0.94244069
0.17282185 0.0059593739 0.94393539
0.16089286 0.012769275 0.94387537
0.1489654 0.019578312 0.94381541
0.13703947 0.026386481 0.94375539
0.12511504 0.033193786 0.94369543
0.11319212 0.040000223 0.9436354
0.10127073 0.046805799 0.9435755
0.089350857 0.053610511 0.9435156
0.077432483 0.060414355 0.94345564
0.06551563 0.067217335 0.94339567
0.053600296 0.074019462 0.94333583
-0.029764704 0.12161008 0.94291645
-0.041667942 0.12840529 0.94285661
-0.057101246 0.13721344 0.94495356
-0.053569667 0.13519964 0.94279677
-0.065469891 0.14199314 0.94273698
-0.069028452 0.14402233 0.94489336
-0.077368595 0.14878576 0.94267714
-0.080954157 0.15083037 0.94483334
-0.089265779 0.1555775 0.94261724
-0.092878334 0.15763754 0.94477326
-0.10480099 0.16444384 0.94471312
-0.10116146 0.1623684 0.94255739
-0.11305565 0.16915844 0.94249767
-0.11672214 0.17124926 0.94465303
-0.12494831 0.17594761 0.94243783
-0.12864175 0.17805381 0.94459289
-0.13683945 0.18273592 0.94237798
-0.14055987 0.18485752 0.94453281
-0.15247646 0.19166036 0.94447279
-0.14872912 0.18952338 0.94231826
-0.16061725 0.19630997 0.94225848
-0.16439155 0.19846234 0.94441277
-0.17250387 0.20309569 0.94219863
-0.1763051 0.20526344 0.94435269
-0.18438898 0.20988055 0.94213885
-0.18821716 0.21206367 0.94429266
-0.33104366 0.29359916 0.9435727
-0.34293604 0.30038816 0.94351274
-0.35482693 0.30717632 0.94345284
-0.36671627 0.31396359 0.94339287
-0.37860408 0.32074997 0.94333285
-0.39049044 0.32753557 0.94327301
-0.40237528 0.33432028 0.94321311
-0.41425863 0.34110412 0.94315326
-0.4261404 0.34788707 0.9430933
-0.43802071 0.35466918 0.9430334
-0.44989949 0.36145043 0.94297355
-0.46177676 0.36823082 0.94291365
-0.47365251 0.37501034 0.94285375
-0.48552686 0.38178906 0.94279402
-0.49004653 0.38436693 0.9449507
-0.49739963 0.38856688 0.94273418
0.49547836 -0.17823575 0.94555813
0.49319604 -0.17693515 0.94772744
0.48350832 -0.17140241 0.94549787
0.4811987 -0.17008622 0.94766694
0.46920294 -0.16323818 0.94760656
0.4715398 -0.16456994 0.94543767
0.45720866 -0.15639099 0.94754606
0.45957282 -0.15773836 0.94537747
0.44760737 -0.15090762 0.94531727
0.44521591 -0.14954469 0.94748563
0.43564343 -0.14407778 0.94525713
0.43322471 -0.14269926 0.94742519
0.421235 -0.13585469 0.94736469
0.42368102 -0.13724878 0.94519693
0.40924683 -0.12901101 0.94730425
0.41172019 -0.13042067 0.94513685
0.39976081 -0.12359343 0.9450767
0.39726025 -0.12216821 0.94724393
0.38527513 -0.11532626 0.94718349
0.38780299 -0.11676705 0.94501656
0.37329158 -0.1084852 0.94712311
0.36130953 -0.101645 0.94706267
0.34932902 -0.094805673 0.94700229
0.33735001 -0.087967217 0.94694185
0.32537255 -0.08112964 0.94688147
0.31339666 -0.074292943 0.94682121
0.18176213 0.00085334334 0.94615757
0.16980451 0.0076796007 0.94609731
0.1578484 0.014504988 0.94603699
0.14589384 0.021329509 0.94597685
0.13394079 0.028153157 0.94591659
0.12198925 0.034975938 0.94585639
0.11003923 0.041797847 0.94579607
0.10687186 0.043603718 0.94796658
0.094896153 0.050440297 0.94790608
0.098090738 0.048618887 0.94573581
0.086143769 0.055439062 0.94567561
0.082921982 0.057276007 0.94784564
0.074198335 0.06225837 0.94561547
0.070949323 0.064110838 0.94778502
0.058978204 0.070944794 0.94772452
0.062254403 0.069076806 0.94555521
0.050312001 0.075894371 0.94549501
-0.036735784 0.12558512 0.94724107
-0.03324227 0.12359305 0.94507384
-0.045172516 0.13040368 0.94501364
-0.048693161 0.13241123 0.94718063
-0.060649019 0.13923648 0.94712019
-0.072603352 0.14606085 0.94705981
-0.084556155 0.15288436 0.94699943
-0.096507438 0.15970699 0.94693899
-0.1084572 0.16652876 0.94687867
-0.12040543 0.17334966 0.94681829
-0.13235214 0.18016969 0.94675791
-0.14429733 0.18698885 0.94669759
-0.15624098 0.19380713 0.94663721
-0.16818313 0.20062456 0.94657689
-0.18012375 0.20744109 0.94651651
-0.19206287 0.21425681 0.94645631
-0.33521345 0.29597726 0.94573301
-0.33940235 0.29836628 0.94790322
-0.34713274 0.30278164 0.94567269
-0.35134876 0.30518615 0.94784272
-0.3590506 0.30958518 0.94561255
-0.36329365 0.31200513 0.94778222
-0.37096691 0.31638786 0.94555235
-0.37523705 0.31882328 0.94772178
-0.3828817 0.32318968 0.94549221
-0.3871789 0.32564053 0.94766128
-0.39479497 0.32999063 0.94543201
-0.3991192 0.33245689 0.94760078
-0.40670669 0.33679065 0.94537175
-0.41105801 0.33927241 0.94754034
-0.41861695 0.34358987 0.94531161
-0.4229953 0.34608707 0.9474799
-0.43052569 0.35038823 0.94525146
-0.43493104 0.35290083 0.94741946
-0.44686529 0.35971373 0.94735903
-0.44243288 0.35718569 0.94519126
-0.45433858 0.36398232 0.94513118
-0.45879802 0.3665258 0.94729865
-0.46624273 0.37077805 0.94507098
-0.47072917 0.37333691 0.94723815
-0.47814539 0.37757292 0.94501084
-0.4826588 0.38014722 0.94717771
-0.494587 0.38695666 0.94711739
0.49090332 -0.17562859 0.94990683
0.47887853 -0.168764 0.94984609
0.46685526 -0.16190027 0.94978529
0.45483363 -0.15503745 0.94972467
0.44281346 -0.14817549 0.94966394
0.43079484 -0.1413144 0.9496032
0.41877776 -0.13445421 0.94954252
0.40676218 -0.12759487 0.94948179
0.39474812 -0.12073641 0.94942099
0.38273564 -0.11387884 0.94936031
0.37072474 -0.10702215 0.94929969
0.35871533 -0.10016633 0.94923902
0.34670743 -0.093311384 0.94917834
0.33470109 -0.08645732 0.94911766
0.3226963 -0.079604127 0.94905704
0.310693 -0.072751805 0.94899631
0.17875822 0.0025659073 0.94832981
0.17574047 0.004286353 0.95051199
0.16372819 0.011143805 0.95045114
0.16677333 0.0094077261 0.94826925
0.15478997 0.016248671 0.94820869
0.15171747 0.018000379 0.95039034
0.14280814 0.023088742 0.94814807
0.13970827 0.024856072 0.95032942
0.13082786 0.029927941 0.94808763
0.12770061 0.031710889 0.95026863
0.11569449 0.038564831 0.95020783
0.1188491 0.036766268 0.94802713
0.10368992 0.045417897 0.95014709
0.091686875 0.052270085 0.9500863
0.07968536 0.059121396 0.9500255
0.067685388 0.065971829 0.94996476
0.055686943 0.072821386 0.94990396
-0.04024535 0.12758632 0.94941813
-0.052229993 0.13442802 0.94935757
-0.064213097 0.14126882 0.94929683
-0.076194666 0.14810874 0.94923609
-0.088174716 0.1549478 0.94917548
-0.10015322 0.16178596 0.94911474
-0.1121302 0.16862328 0.94905412
-0.12410565 0.17545971 0.94899344
-0.13607958 0.18229529 0.94893295
-0.14805196 0.18912996 0.94887227
-0.16002283 0.19596377 0.94881159
-0.16382207 0.19813035 0.95099604
-0.17199215 0.20279671 0.94875097
-0.17581871 0.2049789 0.95093518
-0.18395995 0.20962878 0.94869035
-0.1878138 0.21182653 0.95087421
-0.33163539 0.29393005 0.95014429
-0.34361053 0.30076632 0.95008343
-0.35558414 0.30760172 0.9500227
-0.36755621 0.3144362 0.94996184
-0.37952676 0.32126984 0.94990104
-0.39149582 0.32810262 0.94984031
-0.40346336 0.33493456 0.94977969
-0.41542932 0.34176555 0.94971889
-0.42739376 0.34859571 0.94965816
-0.43935665 0.35542497 0.94959742
-0.45131806 0.3622534 0.94953674
-0.46327791 0.3690809 0.949476
-0.47523624 0.37590757 0.94941533
-0.48719305 0.38273337 0.94935465
-0.49914831 0.38955829 0.94929397
0.48860002 -0.174316 0.95209634
0.47654769 -0.16743568 0.95203531
0.46449688 -0.16055623 0.95197427
0.45244762 -0.15367766 0.95191324
0.44039989 -0.14679997 0.9518522
0.42590141 -0.1385255 0.95398939
0.42835379 -0.13992317 0.95179129
0.41630912 -0.13304725 0.95173025
0.41382915 -0.1316338 0.95392817
0.40426606 -0.12617221 0.95166928
0.4017584 -0.12474298 0.9538669
0.38968924 -0.11785304 0.95380563
0.39222449 -0.11929804 0.95160824
0.3801845 -0.11242476 0.95154727
0.37762156 -0.11096397 0.95374429
0.36814606 -0.10555237 0.95148629
0.3655555 -0.1040758 0.95368308
0.35349098 -0.097188517 0.9536218
0.3561092 -0.098680861 0.95142543
0.34142798 -0.090302117 0.95356059
0.3440738 -0.091810219 0.95136446
0.33203998 -0.084940456 0.95130348
0.32936659 -0.083416604 0.95349944
0.32000771 -0.078071587 0.95124257
0.3173067 -0.076531969 0.95343822
0.30797696 -0.071203582 0.95118159
0.18475012 -0.00085930288 0.95276535
0.17270878 0.006014734 0.95270413
0.16066903 0.01288789 0.95264316
0.1486308 0.019760165 0.95258206
0.1365941 0.026631556 0.95252091
0.12455896 0.033502065 0.95245981
0.11252537 0.040371694 0.95239872
0.10049331 0.047240444 0.95233768
0.088462792 0.05410831 0.95227659
0.07643383 0.060975298 0.95221555
0.064406395 0.067841403 0.95215446
0.05238051 0.074706629 0.95209342
-0.031757537 0.12273858 0.95166641
-0.035272043 0.1247426 0.95386398
-0.047313116 0.13161649 0.9538027
-0.043771092 0.12959677 0.95160538
-0.055783112 0.13645408 0.9515444
-0.059352644 0.1384895 0.95374143
-0.067793593 0.1433105 0.95148343
-0.071390621 0.14536163 0.95368016
-0.083427049 0.15223287 0.95361888
-0.079802535 0.15016606 0.95142251
-0.091809936 0.15702073 0.95136154
-0.09546195 0.15910324 0.95355773
-0.1038158 0.16387452 0.95130056
-0.1074953 0.16597274 0.95349658
-0.11582012 0.17072745 0.95123965
-0.11952709 0.17284134 0.9534353
-0.13155735 0.17970905 0.95337409
-0.12782291 0.17757948 0.95117867
-0.13982417 0.18443066 0.95111781
-0.14358605 0.18657589 0.95331287
-0.15182389 0.19128095 0.95105696
-0.15561321 0.19344184 0.95325166
-0.16763882 0.20030691 0.95319045
-0.17966291 0.20717111 0.95312935
-0.19168545 0.21403444 0.9530682
-0.33583558 0.29632553 0.95233476
-0.3478381 0.30317742 0.95227373
-0.35983908 0.3100284 0.95221269
-0.37183848 0.31687853 0.95215166
-0.38383636 0.32372776 0.95209056
-0.39583269 0.33057612 0.95202953
-0.4078275 0.33742359 0.95196849
-0.41982079 0.34427023 0.95190752
-0.43181249 0.35111594 0.95184648
-0.44380271 0.35796079 0.9517855
-0.44826925 0.36050829 0.9539836
-0.45579132 0.36480474 0.95172441
-0.46028531 0.36736792 0.95392233
-0.46777847 0.37164786 0.95166349
-0.47229984 0.37422666 0.95386112
-0.47976404 0.37849006 0.95160246
-0.48431277 0.38108447 0.95379972
-0.49174809 0.38533139 0.95154148
-0.49632424 0.38794148 0.95373857
0.49607077 -0.17858548 0.95656717
0.49836761 -0.17989436 0.95435715
0.48396134 -0.17167257 0.95650554
0.4862861 -0.17299736 0.95429593
0.47420603 -0.1661012 0.9542346
0.47185352 -0.16476056 0.95644403
0.46212754 -0.15920596 0.95417327
0.45974725 -0.15784943 0.95638245
0.44764248 -0.15093918 0.95632082
0.45005062 -0.15231159 0.95411199
0.43675727 -0.14472395 0.95515496
0.42343768 -0.13712136 0.95619768
0.41133761 -0.1302138 0.95613611
0.39923909 -0.12330711 0.95607454
0.38714215 -0.11640132 0.95601302
0.37504679 -0.10949641 0.95595151
0.36295295 -0.10259239 0.95588994
0.35086066 -0.095689274 0.95582843
0.33876997 -0.088787042 0.95576698
0.32668078 -0.081885681 0.9557054
0.31459317 -0.074985221 0.95564389
0.18173207 0.00086128945 0.95496798
0.1696631 0.0077511063 0.95490652
0.15759569 0.014640037 0.95484513
0.14241453 0.023304194 0.95699573
0.14552985 0.021528086 0.95478386
0.13346554 0.028415246 0.95472246
0.13032247 0.030207194 0.95693409
0.12140279 0.035301518 0.95466107
0.11823197 0.037109308 0.95687246
0.10614304 0.044010527 0.95681083
0.10934158 0.042186908 0.95459968
0.09405566 0.05091086 0.9567492
0.097281925 0.049071413 0.95453835
0.085223809 0.055955026 0.95447689
0.081969835 0.057810307 0.95668757
0.073167257 0.062837765 0.95441562
0.069885567 0.064708851 0.95662588
0.057802852 0.071606517 0.95656425
0.061112259 0.06971962 0.95435435
0.049058799 0.076600581 0.95429301
-0.038802821 0.12675589 0.95607173
-0.050871532 0.13364555 0.9560101
-0.06293869 0.14053434 0.95594859
-0.075004295 0.14742224 0.95588702
-0.087068357 0.15430926 0.95582557
-0.099130854 0.16119538 0.955764
-0.11119179 0.16808063 0.95570248
-0.1232512 0.17496499 0.95564103
-0.13530904 0.18184847 0.95557958
-0.14736533 0.18873103 0.95551801
-0.15942007 0.19561273 0.95545655
-0.17147325 0.20249353 0.95539504
-0.18352491 0.20937347 0.95533365
-0.195575 0.21625252 0.9552722
-0.34005523 0.29873204 0.95453537
-0.34429443 0.30114976 0.95674628
-0.35208517 0.3055996 0.95447403
-0.35635197 0.30803305 0.95668459
-0.36840796 0.31491548 0.95662302
-0.36411366 0.31246632 0.95441282
-0.37614051 0.31933209 0.95435143
-0.38046238 0.32179698 0.95656133
-0.3881658 0.326197 0.95429009
-0.39251533 0.32867765 0.95649981
-0.40456668 0.33555743 0.95643824
-0.40018961 0.33306104 0.95422882
-0.41221181 0.33992413 0.95416743
-0.41661641 0.34243625 0.95637655
-0.42423251 0.34678641 0.95410615
-0.42866465 0.34931424 0.95631498
-0.43625167 0.3536478 0.95404488
-0.44071135 0.35619137 0.95625341
-0.45275646 0.36306757 0.95619184
-0.46480009 0.36994293 0.95613039
-0.47684208 0.37681735 0.95606875
-0.48888257 0.38369092 0.95600724
0.49376333 -0.17727055 0.95878756
0.48162591 -0.17034167 0.95872563
0.46949011 -0.16341369 0.9586637
0.45735586 -0.1564866 0.95860183
0.44522321 -0.14956042 0.95854002
0.43309212 -0.14263512 0.95847815
0.42096257 -0.13571072 0.95841628
0.40883458 -0.1287872 0.95835441
0.39670816 -0.12186459 0.95829254
0.38458332 -0.11494289 0.95823079
0.37246007 -0.10802206 0.95816898
0.36033833 -0.10110212 0.95810711
0.34821817 -0.094183072 0.9580453
0.33609957 -0.087264925 0.95798349
0.32398254 -0.080347665 0.95792168
0.31186706 -0.073431306 0.95785987
0.17870004 0.0025898556 0.9571808
0.17565393 0.0043264516 0.95940399
0.16352931 0.011248047 0.959342
0.16660331 0.0094955256 0.95711917
0.15450813 0.016400304 0.95705736
0.15140624 0.018168749 0.95928007
0.13928476 0.025088558 0.95921814
0.12716481 0.032007471 0.9591561
0.11504645 0.038925491 0.95909417
0.10292966 0.045842621 0.9590323
0.090814419 0.052758854 0.95897037
0.078700751 0.059674196 0.9589085
0.06658864 0.06658864 0.95884651
0.054478098 0.073502198 0.95878464
-0.042349979 0.12877852 0.95828968
-0.054446455 0.13568403 0.95822775
-0.066541381 0.14258868 0.95816606
-0.078634739 0.14949241 0.95810419
-0.090726539 0.15639527 0.95804238
-0.10281678 0.16329724 0.95798057
-0.11490545 0.17019831 0.95791876
-0.12699258 0.1770985 0.95785701
-0.13907814 0.18399779 0.95779526
-0.15116215 0.1908962 0.95773351
-0.15497661 0.19307141 0.95995921
-0.16324459 0.19779372 0.95767176
-0.16708688 0.19998482 0.95989722
-0.1791956 0.20689733 0.95983517
-0.17532547 0.20469032 0.95760995
-0.18740478 0.21158604 0.95754814
-0.19130273 0.21380892 0.95977306
-0.33646649 0.29667866 0.95902932
-0.3485533 0.30357867 0.95896739
-0.36063856 0.31047782 0.95890546
-0.3727223 0.31737605 0.95884359
-0.38480443 0.32427338 0.95878166
-0.39688498 0.33116981 0.95871967
-0.40896404 0.33806542 0.95865792
-0.42104149 0.34496006 0.95859599
-0.43311742 0.35185388 0.95853418
-0.44519177 0.35874677 0.95847231
-0.45726451 0.36563873 0.95841038
-0.46933576 0.37252986 0.95834857
-0.48140544 0.37942007 0.9582867
-0.49347356 0.38630942 0.95822489
0.49144509 -0.17594947 0.9610182
0.47927961 -0.16900456 0.96095598
0.46711573 -0.16206056 0.96089381
0.45495337 -0.15511744 0.96083158
0.44279262 -0.14817522 0.96076936
0.43063349 -0.14123392 0.96070731
0.42816341 -0.13982618 0.96294683
0.41597763 -0.13286968 0.96288437
0.4184759 -0.13429351 0.96064514
0.40631992 -0.127354 0.96058309
0.40379348 -0.1259141 0.96282208
0.39416546 -0.12041538 0.96052092
0.39161086 -0.1189594 0.96275961
0.37942985 -0.11200561 0.96269721
0.38201255 -0.11347765 0.96045876
0.36725038 -0.10505271 0.9626348
0.36986125 -0.10654083 0.96039665
0.35771152 -0.099604905 0.96033454
0.3550725 -0.098100714 0.9625724
0.34289619 -0.091149621 0.96250999
0.34556341 -0.092669882 0.96027255
0.33072147 -0.084199429 0.96244758
0.33341679 -0.085735746 0.96021044
0.32127178 -0.078802511 0.96014833
0.31854835 -0.077250145 0.9623853
0.18474786 -0.00086736085 0.96169972
0.17259362 0.0060711326 0.96163744
0.160441 0.013008729 0.96157527
0.1482899 0.019945426 0.96151298
0.13614041 0.026881225 0.96145076
0.12399246 0.033816125 0.96138847
0.1118461 0.040750127 0.96132624
0.0997013 0.047683232 0.96126395
0.087558083 0.054615438 0.96120173
0.075416446 0.061546754 0.96113962
0.063276365 0.068477169 0.96107739
