# .PCD v0.7 - Point Cloud Data file format
VERSION 0.7
FIELDS x y z
SIZE 4 4 4
TYPE F F F
COUNT 1 1 1
WIDTH 1390
HEIGHT 1
VIEWPOINT 0 0 0 1 0 0 0
POINTS 1390
DATA ascii
-0.1169349 0.098585069 0.39893347
-0.13584298 0.10047352 0.39881185
-0.13363907 0.10058843 0.3983171
-0.1305964 0.10045868 0.39780372
-0.12765513 0.10040288 0.39758307
-0.12446009 0.10042892 0.39768648
-0.12131957 0.10050143 0.39797381
-0.11855213 0.10058971 0.39832348
-0.1161605 0.10092533 0.39874601
-0.13357885 0.10343231 0.39859697
-0.13065383 0.10337433 0.39797834
-0.12765349 0.10327014 0.39757764
-0.12456977 0.10317739 0.39752764
-0.12143992 0.10338537 0.39771497
-0.11847283 0.10339449 0.39805695
-0.1155313 0.10351115 0.39850619
-0.11331436 0.10450111 0.39885461
-0.13295144 0.10621738 0.39876986
-0.130744 0.10631916 0.3982527
-0.12760775 0.10636622 0.39768305
-0.12473597 0.10645564 0.39742208
-0.12153241 0.10647529 0.39749593
-0.11838776 0.10654893 0.39777112
-0.11562705 0.10629074 0.39814752
-0.1127447 0.10656947 0.39863688
-0.11047456 0.10759575 0.39899147
-0.13202627 0.10900261 0.39887238
-0.13058522 0.10918497 0.39852735
-0.12778875 0.10954812 0.39793265
-0.12475217 0.10969576 0.39747319
-0.12148611 0.10966003 0.39734417
-0.11830938 0.10970508 0.39750758
-0.11554085 0.10944079 0.3978506
-0.11248559 0.10949245 0.39825645
-0.10985945 0.10961967 0.39879099
-0.12987493 0.11225441 0.39870945
-0.12759739 0.11262483 0.39817682
-0.12480165 0.11260825 0.39763063
-0.12147284 0.1125146 0.39730027
-0.11826184 0.11252793 0.3973476
-0.11545429 0.11258586 0.39755246
-0.1125723 0.11257231 0.39787772
-0.10953158 0.112526 0.39839926
-0.10740127 0.11301217 0.39880395
-0.12939794 0.11476719 0.39890254
-0.12728296 0.11578341 0.39843729
-0.12460387 0.11544132 0.39779204
-0.12148708 0.11539467 0.39734641
-0.11823677 0.11537044 0.39726332
-0.11539344 0.11539342 0.39734262
-0.11259369 0.11546233 0.39758018
-0.10947728 0.11557956 0.39798394
-0.10647394 0.11560934 0.39859661
-0.10469833 0.11657128 0.3989206
-0.12676774 0.11849866 0.39862576
-0.12418985 0.11844677 0.3979682
-0.12115236 0.11828475 0.39742407
-0.11815757 0.11832611 0.39720932
-0.11542353 0.11833174 0.39722842
-0.11252553 0.11825933 0.39733937
-0.10954568 0.11827281 0.39765269
-0.10648533 0.11857435 0.39813015
-0.10386386 0.11884721 0.39871061
-0.1264551 0.12105874 0.39888763
-0.12429896 0.12142475 0.39831755
-0.12114456 0.12131311 0.39760572
-0.11830117 0.12154482 0.39728904
-0.1152795 0.12150059 0.39714488
-0.11247683 0.12143193 0.39716703
-0.1096581 0.12148394 0.3973375
-0.10662699 0.12147413 0.39771384
-0.10346816 0.12143157 0.39834145
-0.10138804 0.12194313 0.39883915
-0.12409864 0.12421828 0.39863625
-0.12130218 0.12435239 0.39791489
-0.11828559 0.12473744 0.39742664
-0.11533925 0.12465223 0.39715528
-0.11244425 0.12461971 0.39705199
-0.10959595 0.12463854 0.3971121
-0.10636172 0.12457761 0.39743748
-0.10335317 0.12452628 0.3978985
-0.10071846 0.12444253 0.39854935
-0.098928288 0.12554899 0.39886642
-0.12355803 0.12679537 0.39882627
-0.12142853 0.12735592 0.3983292
-0.11834221 0.12766594 0.39761636
-0.11536811 0.12754972 0.39725465
-0.11242913 0.12746732 0.39699811
-0.10956202 0.12746429 0.39698896
-0.10663056 0.1274469 0.39713192
-0.1035288 0.12768014 0.39748529
-0.10053641 0.12746587 0.39811313
-0.098220088 0.12764429 0.39866993
-0.1212182 0.13020597 0.39862275
-0.1184374 0.1306397 0.39793563
-0.1153881 0.13043857 0.3973234
-0.11243826 0.13034229 0.39703017
-0.10952882 0.13028914 0.39686859
-0.10668865 0.13031766 0.39695558
-0.10352762 0.13039494 0.39719111
-0.10043481 0.13056546 0.39771062
-0.097438008 0.13049482 0.39839152
-0.0954905 0.13145673 0.39878222
-0.12068743 0.13309804 0.39884964
-0.11855503 0.13364352 0.39833078
-0.11544424 0.13337012 0.39751616
-0.11238521 0.13332427 0.397066
-0.109515 0.13349365 0.39681807
-0.10663185 0.13346861 0.39674407
-0.10344921 0.13351749 0.3968896
-0.10040134 0.13341184 0.39732781
-0.097603582 0.13348743 0.39786702
-0.094738752 0.133761 0.39856333
-0.092482187 0.13494483 0.39899242
-0.11834342 0.13643916 0.39862701
-0.1155366 0.13634719 0.39783376
-0.11247318 0.13641328 0.39722756
-0.10952472 0.13672677 0.39685306
-0.10660353 0.13665272 0.39663827
-0.10373937 0.13664976 0.39663002
-0.10049502 0.13650967 0.39690146
-0.097486347 0.1365526 0.39738894
-0.094431415 0.13644144 0.39811018
-0.091863967 0.1369369 0.39873934
-0.11780548 0.13902846 0.39883536
-0.11564797 0.13935181 0.39821702
-0.11259282 0.13954401 0.3975012
-0.10955943 0.13963434 0.39697847
-0.10660917 0.13952193 0.3966592
-0.10370452 0.13946466 0.39649647
-0.10051347 0.13950279 0.39660513
-0.097389713 0.13963984 0.39699498
-0.094574183 0.13941133 0.39755958
-0.09160053 0.13952084 0.39829135
-0.08938732 0.14010602 0.39883137
-0.11544847 0.14216842 0.3985621
-0.11265929 0.14261766 0.39780983
-0.10961938 0.14257656 0.39719546
-0.1066285 0.1424097 0.39673081
-0.10370119 0.14232081 0.39648339
-0.10047351 0.14230776 0.3964473
-0.097321212 0.14240405 0.39671564
-0.094561785 0.14255932 0.39714831
-0.091432683 0.14250156 0.39782086
-0.088594101 0.14247 0.39861637
-0.11473243 0.14508793 0.39878148
-0.11266541 0.14549994 0.3981936
-0.10968925 0.14553508 0.39744848
-0.10667593 0.14533676 0.39690703
-0.1036316 0.14539403 0.39652106
-0.10045201 0.14549451 0.39636186
-0.11403988 0.14713661 0.3988753
-0.11243729 0.14838247 0.39854968
-0.10978646 0.14853424 0.39780045
-0.10673686 0.14828518 0.39713365
-0.11153512 0.15129934 0.39873934
-0.10940102 0.15160346 0.39810556
-0.10674684 0.15119451 0.39743742
-0.14787847 0.059803762 0.40186876
-0.14545231 0.059453607 0.40160316
-0.14253826 0.059075061 0.40139821
-0.13957188 0.058941066 0.40131345
-0.13648373 0.059121348 0.40140232
-0.13389178 0.05960812 0.4017719
-0.15075237 0.062159453 0.40147853
-0.14840409 0.061430182 0.4011336
-0.14538039 0.061402123 0.40047881
-0.14233454 0.06143067 0.40024856
-0.13933514 0.061364677 0.40023318
-0.13651991 0.061397549 0.40044647
-0.13359497 0.061569903 0.40119737
-0.13132668 0.062461745 0.40186906
-0.15370953 0.065081865 0.40163603
-0.15151031 0.064363986 0.40092829
-0.14858343 0.064553373 0.39986318
-0.14553969 0.06412337 0.3994289
-0.1426304 0.064111166 0.39935252
-0.13948067 0.064426236 0.39944473
-0.13640974 0.064623892 0.39987189
-0.1334849 0.064233266 0.4006128
-0.13075808 0.064715296 0.4014605
-0.15625744 0.068521246 0.40197876
-0.15453158 0.067440525 0.40143287
-0.15160063 0.067497686 0.40021151
-0.14861134 0.067615859 0.39926785
-0.13907094 0.06707561 0.39912966
-0.13651852 0.067718916 0.39938626
-0.1334769 0.067459725 0.39998648
-0.1306022 0.067477919 0.40084094
-0.12820694 0.067752399 0.4017202
-0.15618794 0.070302531 0.40179995
-0.15437993 0.070421204 0.4010022
-0.151503 0.070701241 0.39995408
-0.14871819 0.070578091 0.39925745
-0.13595371 0.070256718 0.39913747
-0.13341546 0.070681527 0.39948484
-0.13035868 0.070503995 0.40027156
-0.12765037 0.070663363 0.40117678
-0.12577438 0.071042508 0.40188551
-0.15616547 0.073191449 0.40174213
-0.15455996 0.073675506 0.4011912
-0.1515798 0.073624313 0.40015665
-0.14854224 0.073576331 0.39933729
-0.13318618 0.073277608 0.39918667
-0.13049042 0.073535994 0.39967859
-0.12745111 0.073608264 0.40054008
-0.12493122 0.073716983 0.40150648
-0.15434271 0.076726757 0.40145522
-0.15159796 0.076484881 0.40039518
-0.14842521 0.076373987 0.39943752
-0.14647458 0.077376008 0.39903182
-0.13232915 0.075462401 0.39906254
-0.13029732 0.076276854 0.39930743
-0.12749289 0.076391548 0.39995083
-0.12451752 0.076636337 0.40091288
-0.1223712 0.077081993 0.40172052
-0.15368491 0.079558857 0.40157163
-0.15140757 0.079498038 0.40065643
-0.14851557 0.079304375 0.39968055
-0.14610371 0.07966014 0.399142
-0.12970629 0.078591712 0.39911357
-0.12759988 0.079449587 0.39940664
-0.12454034 0.079417206 0.40025178
-0.12168397 0.079699092 0.40130746
-0.11997052 0.080463529 0.40187055
-0.15328912 0.081899226 0.40180066
-0.15160786 0.082497969 0.40118635
-0.14867906 0.082278632 0.40012011
-0.14566034 0.082613572 0.39929831
-0.12679556 0.082226165 0.399167
-0.12448686 0.082453072 0.39967656
-0.12152047 0.082452014 0.40065673
-0.1191108 0.082767874 0.40162089
-0.15106489 0.085279413 0.40150616
-0.14846136 0.085247993 0.40050706
-0.14569013 0.08568377 0.39966601
-0.14344576 0.086211458 0.39911583
-0.12427729 0.085511893 0.39921165
-0.12156443 0.085491955 0.39996213
-0.11847766 0.085391022 0.40118214
-0.11655802 0.086361617 0.40176883
-0.15058389 0.087885968 0.40183425
-0.14846244 0.088364221 0.40106705
-0.14551391 0.088673785 0.4000428
-0.14311981 0.08873862 0.39931083
-0.12344639 0.08781606 0.3990469
-0.12133477 0.088569492 0.39945555
-0.11844359 0.08847145 0.40038642
-0.11594513 0.088610843 0.40142599
-0.14815794 0.091067202 0.40147915
-0.14548288 0.091847315 0.40056852
-0.14261968 0.091452278 0.39952305
-0.14073142 0.09214133 0.39907452
-0.12089151 0.090938605 0.39916733
-0.11859757 0.091561891 0.39968875
-0.1153436 0.091479465 0.40090933
-0.11326823 0.092015199 0.40166816
-0.1476759 0.09367913 0.40181071
-0.14533702 0.094696745 0.40105492
-0.14248033 0.094506018 0.39994141
-0.14030749 0.09445855 0.39923334
-0.11817895 0.094228201 0.39933914
-0.1154661 0.094537959 0.40007928
-0.1125535 0.094584167 0.40127465
-0.11056241 0.095337421 0.40192714
-0.14523925 0.097495481 0.40158549
-0.14237072 0.097586237 0.400444
-0.13959558 0.097266495 0.39942813
-0.13786027 0.098625928 0.3990984
-0.11736554 0.096484572 0.39917466
-0.11546689 0.097410232 0.39952719
-0.1124237 0.09747988 0.40054092
-0.10983587 0.097884849 0.40154442
-0.14461774 0.10003643 0.40187258
-0.14252745 0.10056488 0.4010877
-0.13946839 0.10034948 0.39989746
-0.1371814 0.10081571 0.39921752
-0.11474634 0.10016289 0.39924765
-0.11254711 0.10051618 0.39976192
-0.10956478 0.10052527 0.40093297
-0.10737791 0.10097609 0.40176702
-0.14215037 0.10328322 0.40149996
-0.13938963 0.10327814 0.4003875
-0.13655593 0.10376814 0.39949369
-0.13497284 0.10437906 0.39907527
-0.11407731 0.10256162 0.39900622
-0.11211096 0.10341581 0.3993279
-0.10945563 0.10346133 0.40018898
-0.10650846 0.10361245 0.40140542
-0.10475022 0.10475022 0.40188035
-0.14168637 0.10544944 0.40178245
-0.13954292 0.10626648 0.4010357
-0.13625115 0.10667814 0.39986745
-0.13404308 0.10680258 0.39916456
-0.11145986 0.10570093 0.39908361
-0.1094014 0.10647388 0.39950916
-0.10662853 0.10650843 0.40054354
-0.10410655 0.1067626 0.40157318
-0.13912845 0.10907595 0.4014588
-0.13650687 0.10953737 0.40047634
-0.13343875 0.10961203 0.39940697
-0.10877503 0.10908359 0.39916912
-0.10639165 0.10949367 0.3998794
-0.10358137 0.10958508 0.40100679
-0.10164215 0.10997634 0.40177307
-0.13833064 0.11247691 0.40185925
-0.13659565 0.11233131 0.40107456
-0.1334469 0.11252793 0.39989328
-0.13123438 0.11287241 0.39919919
-0.10630205 0.1121845 0.39931449
-0.10352696 0.11253435 0.40022469
-0.10082553 0.11262222 0.40136656
-0.13616194 0.11524856 0.40151978
-0.13357693 0.11551592 0.40049955
-0.13070925 0.11545861 0.39942709
-0.10546803 0.11446695 0.39911026
-0.10339697 0.11536247 0.39959484
-0.10040759 0.11554441 0.4007192
-0.098433815 0.11574463 0.40154594
-0.13540262 0.11776765 0.40177441
-0.13350154 0.11866809 0.40114191
-0.13055207 0.11828998 0.39986411
-0.12828605 0.11904571 0.39917421
-0.10273845 0.11776068 0.39929444
-0.10064323 0.11857583 0.39983645
-0.097518533 0.118466 0.40117073
-0.095645167 0.11955654 0.40169775
-0.13283324 0.12164637 0.40155271
-0.13048075 0.12125773 0.40041205
-0.12777025 0.12187434 0.39947069
-0.099889502 0.1213614 0.39945093
-0.097560503 0.12150955 0.40030921
-0.094811119 0.12178425 0.40142816
-0.1322526 0.12355655 0.40174553
-0.13040982 0.12444069 0.40109107
-0.12757145 0.12447955 0.39988825
-0.12547469 0.12511468 0.39920208
-0.099362567 0.12348331 0.39916623
-0.097418062 0.12452111 0.39961022
-0.094518289 0.1244701 0.40080038
-0.092272267 0.12497889 0.40165997
-0.12970147 0.12716714 0.40141863
-0.12749989 0.12749971 0.40047324
-0.12497023 0.12773234 0.39950648
-0.096702889 0.12719019 0.39925069
-0.094441906 0.12751284 0.40001336
-0.09170755 0.12757823 0.40115511
-0.089524627 0.12866899 0.40186968
-0.12937775 0.12937775 0.40181956
-0.12737423 0.13049039 0.40112659
-0.1245314 0.13046783 0.39986235
-0.12258111 0.13086121 0.39915895
-0.096088126 0.12919715 0.39902321
-0.094225638 0.13030027 0.39941099
-0.091352217 0.13046162 0.40049666
-0.089012288 0.13077262 0.40146825
-0.12691824 0.13312688 0.40157214
-0.12443823 0.13364881 0.40049997
-0.12212934 0.13329732 0.39944679
-0.093526274 0.13269356 0.3991484
-0.091555461 0.1333686 0.39966184
-0.088487208 0.13354127 0.40088707
-0.086427577 0.13389924 0.40179437
-0.12649702 0.13519596 0.40187827
-0.12434905 0.13644205 0.40112689
-0.12151572 0.13629945 0.39979801
-0.11965695 0.13717939 0.39921197
-0.090886198 0.13604113 0.39925352
-0.088495232 0.13654864 0.40005091
-0.085575804 0.13667899 0.4013508
-0.12400773 0.13910085 0.40164125
-0.12142906 0.13948748 0.40046221
-0.11887307 0.13967559 0.39940041
-0.088258915 0.13936171 0.3994236
-0.085675992 0.13951513 0.40050465
-0.083404809 0.1397323 0.40163496
-0.12363085 0.14103344 0.40198714
-0.12124067 0.14234117 0.4010742
-0.1184123 0.14259894 0.39980823
-0.1166279 0.14290515 0.39911413
-0.087472349 0.14182752 0.39912066
-0.12079301 0.14506035 0.40159228
-0.11850499 0.14547531 0.40050766
-0.11590023 0.14579821 0.39939678
-0.11846678 0.14827198 0.40123948
-0.11537869 0.14854933 0.39977226
-0.1133713 0.14936219 0.39905453
-0.11775047 0.15122786 0.40171558
-0.11550505 0.15142526 0.40056747
-0.11302485 0.15157026 0.39941925
-0.11539818 0.15431648 0.40140891
-0.11263167 0.15447998 0.40000352
-0.11438303 0.15689936 0.40176544
-0.14463134 0.053688891 0.40495503
-0.14240918 0.05367732 0.40486774
-0.13988961 0.053691328 0.40497336
-0.15104575 0.056286175 0.40472251
-0.14834075 0.055688035 0.40444729
-0.14550014 0.055414982 0.4040547
-0.14257577 0.055354215 0.40378872
-0.13954802 0.055325676 0.40373757
-0.13650513 0.055385351 0.40386087
-0.13365097 0.055632591 0.40422282
-0.13116142 0.056274541 0.40463942
-0.15407674 0.058979377 0.40450212
-0.15145977 0.058454473 0.40368441
-0.14849646 0.058290221 0.40290958
-0.14548503 0.057794034 0.40260103
-0.14247468 0.057465453 0.40241715
-0.13934195 0.057333197 0.40233728
-0.13632271 0.057456084 0.40235126
-0.13336711 0.058085099 0.40280282
-0.13065709 0.058575835 0.4036431
-0.12835328 0.059005994 0.40468404
-0.15659013 0.062066376 0.40433541
-0.15450837 0.061378002 0.40353611
-0.15200511 0.061266027 0.40243044
-0.13234411 0.060551964 0.40202349
-0.13018504 0.061358377 0.40282524
-0.12777072 0.061577253 0.40399832
-0.12572713 0.06219418 0.40484607
-0.15958495 0.065367751 0.40490225
-0.15757656 0.06452059 0.40387127
-0.15491395 0.06432882 0.40246433
-0.12974243 0.063722529 0.40220132
-0.12749805 0.064542025 0.40306777
-0.12503934 0.064695351 0.40435475
-0.15959392 0.06771984 0.40423083
-0.15741086 0.067489594 0.40290496
-0.15560354 0.066376336 0.40216276
-0.12692709 0.067214556 0.40247738
-0.12438543 0.067545027 0.40373507
-0.12232745 0.068324596 0.40457201
-0.16022819 0.070420422 0.4041785
-0.15785667 0.070610382 0.40272775
-0.12654856 0.06925723 0.402042
-0.12442946 0.070387803 0.40274942
-0.12146823 0.070778348 0.40419149
-0.11941397 0.071940526 0.40489933
-0.16082744 0.073666602 0.40435195
-0.15798897 0.073364705 0.40269414
-0.12365178 0.072848439 0.40235108
-0.12157022 0.073523954 0.40321943
-0.11909476 0.07386975 0.40438959
-0.16041131 0.076559402 0.40422201
-0.15746975 0.076166376 0.40269318
-0.15557098 0.077604234 0.40207863
-0.12121031 0.076193303 0.40252918
-0.11838387 0.0764945 0.40388077
-0.1162155 0.077517621 0.40478277
-0.15986745 0.079249755 0.40446118
-0.15748063 0.079286017 0.40325284
-0.15531194 0.079833277 0.4023467
-0.12025722 0.078720316 0.40222368
-0.11850321 0.079492703 0.40285096
-0.11579222 0.079633079 0.40425763
-0.15958938 0.081438065 0.40491349
-0.15747306 0.082365505 0.40395036
-0.15468085 0.082665622 0.40259215
-0.11763342 0.08230684 0.40241778
-0.11545073 0.082478449 0.40348232
-0.11309285 0.082851291 0.4046821
-0.15686162 0.08496885 0.40433615
-0.1544589 0.085592285 0.40314984
-0.15258276 0.086179413 0.40232682
-0.11711836 0.084484756 0.40203339
-0.11525665 0.085480146 0.40262517
-0.11273675 0.0855463 0.40393603
-0.11063211 0.086534031 0.40483519
-0.1544003 0.088401683 0.40391561
-0.15180996 0.088713698 0.40257543
-0.11455639 0.088003054 0.40220475
-0.11232585 0.088499852 0.40318066
-0.11009847 0.088814586 0.40434039
-0.15386763 0.091124274 0.40446424
-0.15158291 0.091544941 0.40321967
-0.14968394 0.091987669 0.40233767
-0.11214513 0.0912273 0.40240458
-0.10950655 0.091522172 0.40373367
-0.10748429 0.092337847 0.40466893
-0.15137802 0.094425149 0.40398854
-0.14876889 0.094671145 0.40256125
-0.11135453 0.093218617 0.40216956
-0.10936309 0.094345838 0.40285432
-0.10672259 0.094829179 0.40420544
-0.15090379 0.097257368 0.40463549
-0.14867343 0.097576506 0.40334257
-0.14669217 0.097593196 0.40226007
-0.10889619 0.096871458 0.40227678
-0.10658892 0.097494967 0.40335649
-0.10432215 0.097834669 0.40459406
-0.15012336 0.099716976 0.40499172
-0.14811024 0.10039161 0.40388328
-0.14576344 0.10065861 0.40258905
-0.10608987 0.10031949 0.40268767
-0.10349749 0.10058232 0.40406787
-0.10184802 0.10148285 0.40475112
-0.14754055 0.10350996 0.40458694
-0.1455043 0.1033715 0.40324482
-0.14305873 0.10460328 0.40224448
-0.1055523 0.10265052 0.40217438
-0.10361807 0.10338724 0.40299216
-0.10096473 0.10376108 0.40438303
-0.14524832 0.10625802 0.40402836
-0.1425631 0.1068477 0.4025822
-0.10273748 0.10612577 0.40251687
-0.10062204 0.10656025 0.40353718
-0.098660327 0.10681076 0.4046531
-0.14454752 0.10950595 0.40472054
-0.14237373 0.10940088 0.40321317
-0.14019567 0.11008903 0.40218377
-0.10021627 0.10937856 0.40276086
-0.09771499 0.10966154 0.4041014
-0.14247788 0.11225642 0.40425536
-0.13991085 0.11270139 0.40273878
-0.099352695 0.1119804 0.40233359
-0.097462177 0.11258028 0.40314424
-0.095395043 0.11263692 0.40440825
-0.14141698 0.11490887 0.40446651
-0.13922001 0.1155483 0.40322444
-0.13731146 0.11590766 0.40223545
-0.09697596 0.11524612 0.40246043
-0.094407007 0.11553419 0.40387326
-0.092374183 0.1164718 0.40482727
-0.13920327 0.11837168 0.40419111
-0.13680252 0.11850893 0.40272588
-0.096113011 0.11751166 0.40213877
-0.094377354 0.11835358 0.40278324
-0.09198802 0.11860033 0.40420282
-0.13856103 0.12079991 0.40464869
-0.13637546 0.12142473 0.40341607
-0.13446711 0.12176453 0.4024086
-0.093660168 0.12082007 0.4022862
-0.091392532 0.12147086 0.40341786
-0.089277633 0.12221591 0.40450549
-0.13620009 0.12434784 0.40431941
-0.13361251 0.12447023 0.40274814
-0.13161714 0.12581584 0.40201801
-0.091009349 0.12435226 0.4025186
-0.088602372 0.12465057 0.40393248
-0.086527854 0.12595826 0.40480629
-0.13580374 0.12631175 0.40476966
-0.13362199 0.12743223 0.40369168
-0.13122492 0.12790653 0.40240291
-0.090308875 0.1265775 0.40213397
-0.088378862 0.12739858 0.4029606
-0.085968487 0.12787551 0.40436342
-0.13275523 0.13020393 0.40410143
-0.13041143 0.1306532 0.40277177
-0.12873882 0.13163999 0.40208778
-0.087681837 0.13037363 0.40228403
-0.085611708 0.13051525 0.40348798
-0.083405375 0.13122195 0.40471357
-0.13255562 0.13255562 0.40488455
-0.13050045 0.13353446 0.40379572
-0.12824164 0.13368572 0.40242374
-0.085091352 0.13322274 0.40276363
-0.082805827 0.1338204 0.40401992
-0.12973602 0.13629965 0.40429106
-0.12756577 0.1366514 0.40296277
-0.12586808 0.13747552 0.40218496
-0.084752321 0.13553131 0.40215638
-0.082450576 0.13649146 0.40319401
-0.080222473 0.13683188 0.40457249
-0.12739599 0.13951506 0.40388945
-0.1252294 0.13960359 0.40246353
-0.081900619 0.13932011 0.40257433
-0.12695754 0.14191499 0.40449983
-0.12456176 0.14260574 0.40307713
-0.12255598 0.14322373 0.40202913
-0.12418798 0.14523689 0.40379563
-0.12183833 0.1459152 0.40245208
-0.1239775 0.14782399 0.40469643
-0.12158849 0.14849925 0.40322629
-0.11935382 0.14982712 0.40223521
-0.12308913 0.15011761 0.40497619
-0.12102991 0.15126449 0.40389252
-0.11902073 0.15183271 0.4027437
-0.12046875 0.15441918 0.40476254
-0.1185366 0.15430854 0.40335986
-0.11650719 0.15534309 0.40242723
-0.11818174 0.15714145 0.4042519
-0.11579557 0.15773723 0.40298
-0.11712609 0.15945202 0.40456498
-0.14747792 0.047325008 0.40676227
-0.14533398 0.046803534 0.40733519
-0.14351229 0.04685653 0.4077948
-0.15373245 0.050878063 0.40584058
-0.15136628 0.050088789 0.40587604
-0.14856596 0.049448229 0.40612713
-0.14551127 0.049562629 0.40656471
-0.14278954 0.049555633 0.40738654
-0.13974506 0.050381862 0.40774938
-0.1379908 0.050412644 0.4079985
-0.15710494 0.053344086 0.40580559
-0.15430294 0.05265262 0.40541565
-0.15135914 0.052646637 0.40536699
-0.14852509 0.052678585 0.4056147
-0.14573507 0.052533127 0.40570396
-0.14250322 0.052122694 0.4060393
-0.13947721 0.052149963 0.40625551
-0.13655391 0.052438378 0.40633225
-0.13358705 0.052633502 0.40669242
-0.13062677 0.053142037 0.40716693
-0.12865545 0.053667489 0.4075689
-0.1628229 0.056601994 0.40752238
-0.16040689 0.055932216 0.40655696
-0.15735941 0.055624798 0.40575409
-0.1542694 0.055566214 0.40532792
-0.15145496 0.055041187 0.40523157
-0.14870764 0.054440852 0.40511498
-0.13267659 0.054459643 0.40525484
-0.13018611 0.055397995 0.40562993
-0.12752084 0.055594973 0.40688291
-0.12558211 0.056726258 0.40753564
-0.16289274 0.058464926 0.40769678
-0.16052733 0.05864853 0.40700597
-0.15746562 0.058591474 0.40602714
-0.1548596 0.057874233 0.40527812
-0.12727198 0.058278624 0.40567085
-0.12466601 0.058783837 0.4070805
-0.12252115 0.059972815 0.4079496
-0.162221 0.062902018 0.40785721
-0.16037698 0.061654303 0.40691003
-0.15793042 0.061178051 0.40557626
-0.12631179 0.060537104 0.40515986
-0.12431531 0.061379399 0.40600178
-0.12206263 0.06201084 0.4072406
-0.16263771 0.064687259 0.40751874
-0.16065039 0.064359613 0.40608284
-0.12365209 0.064064972 0.40532547
-0.12138589 0.064543799 0.40661684
-0.1195012 0.065449774 0.40768862
-0.163109 0.067665808 0.40701187
-0.16102539 0.067042775 0.4054637
-0.12125524 0.067113988 0.40561044
-0.11892008 0.067698956 0.40711898
-0.16520977 0.071750343 0.40797079
-0.16345325 0.070295379 0.40665048
-0.16188633 0.070893452 0.40517825
-0.12048691 0.069319606 0.40523303
-0.11836831 0.070361726 0.40632969
-0.11635341 0.071135364 0.40761051
-0.16505477 0.073398292 0.40758801
-0.16345108 0.073482767 0.40615898
-0.11789689 0.073063664 0.40545994
-0.11581881 0.073562682 0.40685892
-0.16508158 0.076106861 0.4076542
-0.163442 0.07635659 0.40618917
-0.16190337 0.077479839 0.40522087
-0.11516932 0.07635241 0.40603209
-0.1131174 0.076728575 0.40754163
-0.1631546 0.079192705 0.40671861
-0.16112497 0.080288328 0.40556109
-0.11465114 0.078830332 0.40527526
-0.11271245 0.079485409 0.40647748
-0.11071245 0.08018364 0.40782106
-0.1624893 0.082163513 0.40730062
-0.1605171 0.082719579 0.40602648
-0.11186451 0.082131453 0.40584484
-0.11000197 0.08283779 0.4070107
-0.16023803 0.085209377 0.40679032
-0.15807848 0.086098388 0.40553373
-0.11144042 0.08440242 0.40511897
-0.10936978 0.085503861 0.40622297
-0.10754548 0.085852422 0.40766767
-0.15947197 0.08818756 0.4074125
-0.15748401 0.088630669 0.4060747
-0.15599534 0.088774867 0.40506381
-0.10878461 0.088060021 0.40551174
-0.10682618 0.088682197 0.40687764
-0.15720893 0.091498852 0.40702218
-0.15523076 0.09170004 0.40561113
-0.10628583 0.091312125 0.40606016
-0.10433061 0.091835134 0.40747789
-0.15663309 0.094126567 0.40767395
-0.15450305 0.094553493 0.40620258
-0.10556596 0.093741715 0.40547916
-0.1036128 0.094616793 0.4067069
-0.10184564 0.095595069 0.407664
-0.15406092 0.097405255 0.40703079
-0.15239236 0.097609691 0.40584591
-0.10306901 0.097264782 0.40586558
-0.10096513 0.097743675 0.40730858
-0.15325156 0.099962935 0.40748209
-0.15152262 0.10057546 0.40639153
-0.14940993 0.10118962 0.40503809
-0.10227356 0.099348076 0.40547386
-0.10055596 0.10051569 0.40625513
-0.098637171 0.10096493 0.40757355
-0.15086834 0.10329539 0.40700108
-0.14899696 0.10353854 0.4056533
-0.09967263 0.10319765 0.40562305
-0.097714521 0.10358815 0.40700018
-0.095993839 0.10482085 0.40779558
-0.15034226 0.10549688 0.4075655
-0.14845796 0.10642507 0.40642992
-0.14663771 0.10751015 0.40545344
-0.097321741 0.10632394 0.405938
-0.095312431 0.10670286 0.40739983
-0.14791147 0.10934175 0.40728185
-0.14589469 0.10966486 0.4057593
-0.096319117 0.10889802 0.40544948
-0.094493203 0.10954709 0.40662012
-0.092640117 0.11065373 0.40760475
-0.14754617 0.11148751 0.40796533
-0.14550366 0.11231344 0.40662536
-0.1437995 0.11342989 0.40569952
-0.09383712 0.11239808 0.40570086
-0.092041634 0.11274584 0.40702003
-0.14464624 0.11526187 0.40725917
-0.1425464 0.11578281 0.40570232
-0.093193337 0.11439025 0.40521392
-0.091279447 0.11538728 0.40629065
-0.089508556 0.11632475 0.40729642
-0.14250992 0.11845151 0.40689012
-0.14048754 0.11879905 0.40529308
-0.09055955 0.11822683 0.40542147
-0.088655286 0.11862645 0.40681532
-0.14165778 0.12084372 0.40725622
-0.13968971 0.12169873 0.40590721
-0.088055216 0.1211101 0.40601832
-0.086232789 0.12188797 0.40717781
-0.13938019 0.12428284 0.4068349
-0.13763495 0.12471261 0.40550435
-0.087589853 0.12340561 0.40521589
-0.085391633 0.12448928 0.40651539
-0.083475552 0.12539719 0.40773043
-0.13881336 0.1268065 0.40753222
-0.13669339 0.12762879 0.4060553
-0.13483085 0.12898451 0.4051376
-0.084886812 0.12722832 0.40549427
-0.083011009 0.1275719 0.40694189
-0.13611446 0.1302429 0.40678677
-0.13396116 0.13127948 0.40545431
-0.082201593 0.13033709 0.40616718
-0.080246665 0.13108967 0.40751827
-0.13566159 0.13272041 0.40763381
-0.13369411 0.13377425 0.4063687
-0.081708319 0.13270748 0.40534914
-0.079740711 0.13369471 0.40655342
-0.07760819 0.13498676 0.4078165
-0.1330037 0.13630687 0.40699902
-0.13101377 0.13686618 0.40553722
-0.078904271 0.13630776 0.40591055
-0.13049786 0.13966048 0.40643319
-0.12996835 0.14245859 0.40730444
-0.12796743 0.14297177 0.40577331
-0.12724788 0.14548856 0.40633029
-0.12536542 0.14656425 0.40525028
-0.12699346 0.14805694 0.40734574
-0.12508403 0.1488345 0.40603042
-0.12613223 0.15040259 0.40772906
-0.124228 0.15163982 0.40660918
-0.1224571 0.15206635 0.40530208
-0.12388677 0.15427576 0.40759966
-0.12192668 0.15451346 0.40596867
-0.12113316 0.15744528 0.4066844
-0.11935967 0.15812993 0.40554115
-0.12054996 0.16024265 0.40750414
-0.1185486 0.16046545 0.40610313
-0.14231327 0.044532768 0.40942445
-0.1399495 0.044291921 0.41038692
-0.14401859 0.045305077 0.40839598
-0.14207909 0.046324324 0.40856987
-0.13954271 0.046582751 0.40991834
-0.13712177 0.047633369 0.41068697
-0.14143068 0.048616756 0.40836871
-0.1395005 0.049089964 0.40877467
-0.13647635 0.049399465 0.40930104
-0.13366784 0.049647007 0.40978864
-0.13078579 0.050227962 0.4100998
-0.12818432 0.050755117 0.41077021
-0.13293199 0.051184412 0.40828419
-0.13019615 0.051691208 0.40865445
-0.12742804 0.052324906 0.40953332
-0.12512536 0.053232301 0.41028595
-0.16228563 0.05556719 0.40801972
-0.1265424 0.05437265 0.40826163
-0.1243774 0.055237666 0.40921909
-0.12236003 0.056122597 0.41028962
-0.16661 0.058863018 0.40982896
-0.16452566 0.058427371 0.40846452
-0.12366986 0.057673164 0.40834126
-0.12161066 0.058423903 0.40958434
-0.11966617 0.059647843 0.4107793
-0.16625027 0.061313927 0.41020668
-0.16346052 0.061182376 0.40865543
-0.12085386 0.061010335 0.40874243
-0.11910796 0.06175597 0.41002032
-0.16567366 0.064525165 0.41015905
-0.16378553 0.064176299 0.40861368
-0.11842689 0.064336099 0.40918499
-0.11649165 0.065005474 0.41068995
-0.16607359 0.067759134 0.40979886
-0.16473398 0.067072175 0.40861601
-0.11757073 0.066831775 0.40864822
-0.11590853 0.067664728 0.40972519
-0.16620134 0.070308693 0.40937558
-0.11507908 0.070422046 0.40903363
-0.11324845 0.070720702 0.41053885
-0.16667427 0.07361225 0.40945828
-0.11452271 0.072911441 0.40829206
-0.11271665 0.073566362 0.40952015
-0.11078316 0.074472956 0.41081116
-0.16667973 0.07655783 0.40951347
-0.11181404 0.076284252 0.40893826
-0.11019954 0.076772802 0.41014636
-0.16614692 0.079563372 0.4096756
-0.16464034 0.080294631 0.40838367
-0.11151814 0.078393944 0.40807742
-0.10942992 0.079430461 0.40945035
-0.10778426 0.080004685 0.41067857
-0.16573888 0.082560807 0.41049591
-0.16398266 0.082650088 0.40884209
-0.10864489 0.082105845 0.40869293
-0.10695842 0.082751505 0.40997756
-0.16337195 0.085426375 0.40958801
-0.16169214 0.086186975 0.40837961
-0.10626283 0.085379787 0.40918809
-0.10462387 0.085964419 0.41048631
-0.16262338 0.088249922 0.41026381
-0.16091532 0.088756196 0.40890083
-0.10550795 0.087821208 0.40855873
-0.10368516 0.088727228 0.40981069
-0.1601653 0.09134794 0.40949762
-0.15886602 0.092149965 0.40868944
-0.10306887 0.091267347 0.40892977
-0.10125621 0.091855749 0.41034254
-0.15942955 0.09395653 0.41013914
-0.15787998 0.094833493 0.40913442
-0.10228202 0.093441434 0.40842834
-0.10055289 0.094558164 0.40945134
-0.098722875 0.095388748 0.41073394
-0.15717024 0.097307451 0.40971246
-0.1555558 0.097606063 0.40838552
-0.099745512 0.097165152 0.40870219
-0.097850189 0.097850718 0.41012493
-0.15649353 0.099519521 0.41020003
-0.15483935 0.10053737 0.4091793
-0.09904898 0.09904898 0.40826052
-0.097358465 0.10040262 0.40909076
-0.095470838 0.10107745 0.41051823
-0.1540346 0.10338783 0.40989062
-0.15209702 0.10385287 0.40832853
-0.096409649 0.10291848 0.40851888
-0.0947337 0.1036486 0.40970752
-0.092978179 0.10483196 0.41072106
-0.15171184 0.10646687 0.40927532
-0.14987944 0.10789847 0.40830746
-0.093919046 0.10639961 0.40886453
-0.09228491 0.10671599 0.41027576
-0.1507457 0.10934483 0.40986148
-0.14902461 0.11020204 0.40865597
-0.093161471 0.10862701 0.40827754
-0.091498628 0.10938882 0.40944812
-0.089732587 0.11046877 0.41056085
-0.1500968 0.11229464 0.41091886
-0.14838535 0.11257976 0.40926313
-0.14684686 0.11298744 0.40806699
-0.090700574 0.11207531 0.40862012
-0.088994928 0.11270995 0.40992838
-0.1477908 0.11500321 0.41000465
-0.14605738 0.1158288 0.40874118
-0.088163383 0.11526924 0.40920299
-0.086387262 0.11629406 0.41038465
-0.14703821 0.11740834 0.41065714
-0.14510016 0.11872722 0.40936685
-0.08752951 0.11772921 0.40834442
-0.085724734 0.11862342 0.40960574
-0.14465003 0.1209733 0.41018656
-0.14294808 0.12187181 0.40894461
-0.084859923 0.12113767 0.40892836
-0.08334285 0.12187069 0.41004083
-0.14226252 0.12452545 0.4097015
-0.14064407 0.1248125 0.40822333
-0.084300168 0.12332121 0.40816206
-0.082311496 0.12452124 0.4094483
-0.080400176 0.12560211 0.41080615
-0.14175829 0.12658359 0.41038299
-0.13997479 0.12757772 0.40906328
-0.081655711 0.12721069 0.40843812
-0.08006727 0.12765552 0.40981799
-0.1391575 0.13014057 0.40969831
-0.13742566 0.13116266 0.40850624
-0.079078659 0.1301997 0.40924779
-0.077479325 0.13135302 0.41025406
-0.1385659 0.1330087 0.41079456
-0.13677786 0.13345663 0.40913892
-0.078675859 0.13243587 0.40826786
-0.076746009 0.13356331 0.40962821
-0.13577935 0.13614914 0.40965217
-0.13432159 0.1372706 0.40877581
-0.075789116 0.13630398 0.40912226
-0.13516442 0.13886756 0.4105908
-0.13346194 0.1396838 0.40926149
-0.13277645 0.14239225 0.41007674
-0.13136442 0.14266978 0.40875259
-0.13030522 0.1455972 0.40928355
-0.12846789 0.14687303 0.40813968
-0.12981966 0.14794311 0.41008419
-0.12809995 0.14889595 0.40884352
-0.12930869 0.15005736 0.41081089
-0.12745735 0.15146935 0.40962097
-0.12565327 0.15292113 0.40856305
-0.12657514 0.15433316 0.41035748
-0.12486324 0.15495339 0.40887031
-0.12418358 0.15727773 0.40954575
-0.1226247 0.15797597 0.40829438
-0.12317474 0.16016416 0.41012582
-0.12183645 0.16056246 0.40894234
-0.13870567 0.043290466 0.41182274
-0.13693687 0.04365905 0.41286811
-0.13828045 0.045599181 0.41104713
-0.13622962 0.046196297 0.41210335
-0.13363717 0.047011584 0.41273826
-0.13128036 0.047365412 0.41352072
-0.13280985 0.048598055 0.41132706
-0.13032953 0.048761901 0.41223928
-0.12763061 0.049674209 0.41257453
-0.12554488 0.050440799 0.41305789
-0.12412341 0.052139375 0.41220486
-0.12218383 0.05316776 0.41289055
-0.12108201 0.055390652 0.41219088
-0.11946613 0.056284834 0.4132922
-0.1205292 0.057483159 0.41119573
-0.11866437 0.058606654 0.41258344
-0.16935214 0.061796885 0.41248259
-0.16767779 0.061952055 0.41131741
-0.11780952 0.061281823 0.41180331
-0.11643061 0.061877362 0.41302973
-0.16893916 0.064518094 0.41349649
-0.16741304 0.064424217 0.4119429
-0.11533893 0.064485729 0.41245526
-0.11375631 0.065642796 0.41353795
-0.16894117 0.067501016 0.41350135
-0.16740049 0.067182519 0.41154742
-0.11457435 0.066754878 0.41165486
-0.11304837 0.067931935 0.41263387
-0.16834372 0.070606969 0.41203907
-0.11199015 0.070305765 0.41214055
-0.11048327 0.071086608 0.41338626
-0.16936126 0.073541619 0.41306907
-0.16797508 0.073419526 0.41113678
-0.11132975 0.072364494 0.41146278
-0.10963741 0.073629327 0.41254774
-0.16929889 0.076732233 0.41300738
-0.1679471 0.076744035 0.41106829
-0.1088067 0.07626278 0.41174677
-0.10718317 0.076846644 0.41321763
-0.16850699 0.079605371 0.41243869
-0.16731003 0.08050172 0.41132501
-0.10654647 0.079487175 0.4122653
-0.10481323 0.080568016 0.4135704
-0.16731749 0.082543373 0.41225713
-0.10564868 0.082134649 0.41165993
-0.10406841 0.08283747 0.41298494
-0.16579224 0.085498795 0.41216305
-0.10334633 0.085280426 0.41227636
-0.10163201 0.086340398 0.41352716
-0.16436237 0.088503398 0.41230622
-0.10256743 0.087720804 0.41154519
-0.1007982 0.088785268 0.41281617
-0.16282168 0.091416039 0.41235939
-0.16134417 0.092355631 0.41124791
-0.10011259 0.091196448 0.41194159
-0.098372146 0.092087425 0.41337508
-0.16241583 0.094462544 0.41397944
-0.16087991 0.094372556 0.4119578
-0.099307746 0.093371667 0.41136679
-0.097562075 0.09458591 0.41256589
-0.095878199 0.095878199 0.41364372
-0.15986066 0.09710712 0.4125241
-0.15812248 0.098733097 0.41154999
-0.096765161 0.097012907 0.41177547
-0.095163047 0.09777119 0.41313234
-0.15924463 0.099574506 0.41350102
-0.15772834 0.10081196 0.41246018
-0.096052386 0.099019252 0.41119522
-0.094365321 0.10031492 0.41225493
-0.092694052 0.10127322 0.41358578
-0.15633111 0.10327182 0.41237497
-0.15557975 0.10359606 0.41169795
-0.093408138 0.10293414 0.41152775
-0.091843344 0.10380962 0.41276094
-0.15442699 0.10646292 0.41225365
-0.090971686 0.10632948 0.41198173
-0.089429379 0.10700643 0.41339847
-0.15358174 0.10821377 0.41231507
-0.1524211 0.10957977 0.41185805
-0.090181738 0.10836637 0.41148311
-0.088631801 0.1095581 0.4124794
-0.086941697 0.11082268 0.41372511
-0.15143868 0.11236921 0.41255417
-0.14943188 0.11383522 0.41112882
-0.087675959 0.11218366 0.41172314
-0.086225085 0.11280084 0.41307533
-0.15114044 0.11456819 0.41377604
-0.14899239 0.11592379 0.41196325
-0.085414879 0.11529689 0.41221464
-0.083677746 0.11650255 0.41357747
-0.14800094 0.11872347 0.41265264
-0.084396496 0.11794685 0.41150418
-0.082995854 0.11877853 0.41266361
-0.1473736 0.12125676 0.41367787
-0.14609179 0.12140916 0.41216603
-0.081859976 0.1213745 0.41213372
-0.080592558 0.12204448 0.41331396
-0.14485531 0.12378988 0.41217375
-0.14367223 0.12510993 0.41162479
-0.081234358 0.12352074 0.41127786
-0.079592258 0.12462024 0.41260099
-0.1440599 0.126192 0.41273549
-0.14248663 0.12780939 0.4119516
-0.078722611 0.12718153 0.41172349
-0.077430941 0.12783757 0.41297674
-0.14213131 0.12996642 0.41289988
-0.14051013 0.13110152 0.41178668
-0.076352566 0.13034043 0.41246635
-0.074944295 0.13161857 0.41341114
-0.14147764 0.13251863 0.41389319
-0.13950287 0.13392213 0.41246808
-0.075513378 0.13283484 0.41163602
-0.074259683 0.13369225 0.41271806
-0.13882881 0.13696328 0.41378698
-0.13747032 0.13623293 0.41158101
-0.13643134 0.1390329 0.41217962
-0.13567871 0.14201578 0.41328573
-0.13402727 0.14268892 0.41164604
-0.13346121 0.14522003 0.41264915
-0.13169251 0.14653112 0.411313
-0.13212207 0.1477534 0.41265458
-0.1309468 0.14903393 0.41207865
-0.12990864 0.15174417 0.41271421
-0.12791038 0.15416111 0.41187534
-0.12699425 0.15715927 0.41292185
-0.124967 0.15834098 0.41115457
-0.13854225 0.041675311 0.4162896
-0.13614802 0.041343898 0.41547897
-0.13460182 0.041444745 0.41648912
-0.13558497 0.042743981 0.41451922
-0.13384074 0.04367597 0.41568497
-0.13189708 0.044717241 0.41664648
-0.13302059 0.045587283 0.41479549
-0.13048092 0.046472531 0.41533032
-0.12786685 0.047187462 0.41606671
-0.12593177 0.047741298 0.41680238
-0.12692796 0.048501968 0.41473636
-0.1244226 0.049468212 0.41553029
-0.122175 0.050386794 0.41629934
-0.12121493 0.052132454 0.41499782
-0.11927745 0.053193022 0.41632065
-0.11858572 0.055337321 0.41527167
-0.11687797 0.056371793 0.41668889
-0.11738142 0.057830226 0.41475043
-0.11614338 0.058736086 0.41577494
-0.11516805 0.06130179 0.41517392
-0.11365907 0.062183529 0.41659951
-0.17035416 0.064328179 0.41467193
-0.11431532 0.06345319 0.41466442
-0.11289419 0.064680085 0.41564986
-0.11187966 0.067114241 0.41488025
-0.11050439 0.067828856 0.41627491
-0.17029923 0.070364393 0.4149932
-0.10952108 0.070358954 0.41539854
-0.10785865 0.071780495 0.41668969
-0.1699536 0.072090209 0.41415092
-0.10841906 0.072803006 0.41480869
-0.10717259 0.073873408 0.41578189
-0.10615465 0.07619562 0.41523078
-0.10457658 0.07752458 0.41659096
-0.10530945 0.078390248 0.41454574
-0.10390411 0.079680607 0.41567823
-0.16894689 0.082603917 0.41442961
-0.1029838 0.082150362 0.41497004
-0.10157105 0.083171681 0.41633502
-0.16730164 0.085518107 0.41405874
-0.10209332 0.084142849 0.41464302
-0.10074406 0.085596047 0.41547418
-0.16594282 0.088578045 0.41439611
-0.099636257 0.088035308 0.41492456
-0.09830194 0.088970527 0.41623554
-0.16505709 0.090949826 0.41498774
-0.097503252 0.0913122 0.4152751
-0.095816679 0.092810661 0.41662046
-0.096419603 0.093726657 0.4146896
-0.095151566 0.094742514 0.4158085
-0.16155192 0.096856877 0.41463751
-0.094030581 0.097313762 0.41511935
-0.092525326 0.098535322 0.41646478
-0.093098111 0.099454015 0.41455406
-0.091769874 0.10064137 0.4155986
-0.15778929 0.1035731 0.41457707
-0.090697065 0.10319394 0.41486081
-0.089480169 0.10387156 0.41627702
-0.088432826 0.10642029 0.41547769
-0.086841255 0.10789368 0.41682503
-0.15431644 0.10947873 0.41428751
-0.087393217 0.10896057 0.41468775
-0.086181454 0.10981346 0.41591081
-0.15342888 0.11189134 0.41491917
-0.085158937 0.11228003 0.41517463
-0.083763525 0.11343737 0.41647577
-0.08410605 0.11475753 0.4144617
-0.082811877 0.11568761 0.41578925
-0.081752472 0.11829085 0.41493684
-0.080524728 0.11919145 0.41623855
-0.079546548 0.12156909 0.41547665
-0.14572342 0.125173 0.41429031
-0.078450941 0.12397448 0.41486737
-0.077257745 0.12497457 0.41611975
-0.14470989 0.12750922 0.41459772
-0.076291047 0.12743825 0.41523883
-0.074776649 0.12888639 0.416632
-0.14358783 0.12975258 0.41459697
-0.075192496 0.12980936 0.41478035
-0.074087963 0.13092931 0.41572428
-0.14097078 0.13424009 0.41459823
-0.072971165 0.1333959 0.41527191
-0.13516563 0.040286135 0.41745675
-0.13331525 0.040948279 0.41858667
-0.13249893 0.043161601 0.41759634
-0.13085753 0.044005737 0.41868702
-0.12891378 0.044987507 0.41916463
-0.12952402 0.045559395 0.41747671
-0.12743747 0.046137288 0.4183813
-0.12477404 0.047356229 0.41872263
-0.12336565 0.048818976 0.41744745
-0.12147674 0.049547251 0.41838947
-0.11957981 0.05052818 0.41913533
-0.12000265 0.05153719 0.41709965
-0.11829729 0.052517675 0.4185234
-0.11734273 0.054843679 0.41745177
-0.11623166 0.055735908 0.41869465
-0.11489616 0.058527432 0.41818228
-0.11390498 0.05903358 0.41958109
-0.11407349 0.060613308 0.4174282
-0.11301427 0.061465636 0.41857788
-0.11168245 0.064248584 0.41806284
-0.11067405 0.06489069 0.41952723
-0.10962585 0.067539878 0.41836202
-0.10840926 0.069758698 0.41808972
-0.10752635 0.070802018 0.41869077
-0.10615624 0.073328204 0.41837725
-0.10484406 0.074564189 0.41966596
-0.10515775 0.075381652 0.4179042
-0.10413356 0.076571465 0.41864043
-0.1027701 0.07924594 0.4182297
-0.10174634 0.080186442 0.41937852
-0.10082582 0.082548387 0.41847935
-0.099650137 0.085037209 0.41812429
-0.098608598 0.086215816 0.41890711
-0.097505592 0.088448048 0.41849908
-0.096426226 0.09069635 0.41796079
-0.095442496 0.091773212 0.41874999
-0.09407562 0.094390191 0.41835058
-0.092732579 0.095760584 0.41966808
-0.093076408 0.096467614 0.41781336
-0.092036784 0.097700253 0.41857475
-0.090744868 0.10017385 0.4181861
-0.089620352 0.10134257 0.41927403
-0.08868093 0.10354431 0.41841567
-0.087424375 0.1058295 0.41817713
-0.08638563 0.10716394 0.41887346
-0.085272335 0.10942129 0.41835514
-0.084291458 0.11142585 0.41785288
-0.083128832 0.11295283 0.41858077
-0.08178883 0.11541021 0.4183329
-0.080622643 0.11658083 0.41967887
-0.079997025 0.11848753 0.41839275
-0.078620709 0.12097638 0.41823789
-0.077645816 0.12223054 0.4189373
-0.076605611 0.12438782 0.41841906
-0.075411156 0.12669127 0.41806901
-0.074402675 0.12803358 0.4187623
-0.073173001 0.1304649 0.41840771
-0.072366118 0.13229515 0.41790396
-0.071356677 0.13384219 0.41861761
-0.13271043 0.03963517 0.4212186
-0.1313161 0.040792622 0.42172256
-0.1302021 0.042939864 0.42133579
-0.12806295 0.044251535 0.42176047
-0.12689158 0.045331944 0.42060804
-0.12447874 0.046285722 0.42160541
-0.12215809 0.047569707 0.42194915
-0.12109955 0.048645709 0.42091459
-0.11890762 0.049941104 0.4218924
-0.11761604 0.051860113 0.42094564
-0.1165372 0.053054214 0.42198819
-0.1152502 0.055535153 0.42148593
-0.11441422 0.05752328 0.42052665
-0.11325191 0.058860257 0.42173123
-0.11195441 0.061484031 0.4211033
-0.11090244 0.062501416 0.42255944
-0.11111391 0.063331135 0.42047527
-0.10983882 0.064808443 0.42169887
-0.10868314 0.067297846 0.42097706
-0.10774764 0.06815052 0.42214438
-0.10659189 0.070588849 0.42140961
-0.1053336 0.073068954 0.42086649
-0.10441148 0.074089535 0.42199776
-0.10314354 0.076629899 0.42131254
-0.10211348 0.078578025 0.42089179
-0.10132351 0.079697877 0.4214679
-0.099778622 0.082483217 0.42145324
-0.098807134 0.083547339 0.42298815
-0.098073684 0.085529462 0.42147899
-0.096672334 0.088096343 0.42128769
-0.09574303 0.089401744 0.42181787
-0.0946991 0.091430418 0.42134705
-0.093390115 0.093693987 0.4212698
-0.092449799 0.095036939 0.42183566
-0.091172956 0.097461797 0.42137069
-0.090096965 0.099220708 0.42150378
-0.089303441 0.10070348 0.42135036
-0.087726012 0.10335393 0.4214806
-0.086543769 0.10484377 0.42271692
-0.086012855 0.10636687 0.42136616
-0.084612936 0.10880684 0.42133379
-0.083677426 0.11042982 0.42134157
-0.08247143 0.11249577 0.42139176
-0.081348613 0.11442029 0.42148376
-0.080378674 0.11600474 0.42171201
-0.078937784 0.11856011 0.42160231
-0.078433543 0.12011321 0.42011788
-0.0771759 0.12165686 0.42152959
-0.075739771 0.12420523 0.42147246
-0.074928328 0.12551415 0.42171544
-0.07394018 0.12735179 0.42150491
-0.072587036 0.12984623 0.42137623
-0.071715981 0.13125761 0.42183933
-0.070817418 0.13331632 0.42139888
-0.13245951 0.038554493 0.42324644
-0.1317424 0.038680386 0.42462844
-0.13045305 0.040539 0.42440033
-0.12934199 0.042476356 0.42429113
-0.12757675 0.043687679 0.42450157
-0.12532739 0.044842329 0.42495406
-0.12414251 0.045716614 0.42417744
-0.12157338 0.04719124 0.42463347
-0.12021875 0.048469149 0.42315683
-0.1183925 0.049577244 0.42447877
-0.11693446 0.050991092 0.42509142
-0.11714547 0.051513482 0.4230842
-0.1161014 0.052663531 0.42445058
-0.11466395 0.055172067 0.42439383
-0.11384373 0.056346897 0.42500335
-0.11270301 0.058495332 0.4244636
-0.11147048 0.060801618 0.42399684
-0.11058209 0.061902549 0.42499068
-0.10933491 0.064343043 0.42436874
-0.10819789 0.066524178 0.42390841
-0.10737605 0.06766773 0.42469117
-0.10592885 0.070378162 0.42435157
-0.10481498 0.071796343 0.42569682
-0.10505725 0.072202981 0.42357761
-0.10398261 0.073679455 0.42453977
-0.10271052 0.0760355 0.42425796
-0.1017829 0.077518418 0.42479625
-0.10067923 0.079624623 0.4244498
-0.099478267 0.081878439 0.42422599
-0.098641753 0.083328992 0.42446712
-0.097446069 0.085384309 0.42453927
-0.096302591 0.087373905 0.42428252
-0.09535744 0.088846721 0.42461714
-0.093866713 0.09148486 0.42441896
-0.092996873 0.092996873 0.42432806
-0.092071064 0.094558917 0.42447242
-0.090632498 0.097015776 0.42461106
-0.089714505 0.098647885 0.42449427
-0.088596731 0.10065156 0.42433447
-0.087348625 0.10267334 0.4247801
-0.086540207 0.104155 0.42457306
-0.085193649 0.10654649 0.42443758
-0.084436588 0.10812467 0.42362157
-0.083331004 0.10970405 0.42466575
-0.081877507 0.11239175 0.42422497
-0.080880776 0.1138464 0.4250133
-0.079997972 0.11559538 0.42439994
-0.078627311 0.1180364 0.42423099
-0.077807039 0.11920094 0.42497417
-0.076728612 0.12131124 0.42431143
-0.075399913 0.12362427 0.42436966
-0.074567042 0.12499287 0.42485982
-0.073291071 0.127446 0.42435038
-0.072298288 0.12929499 0.4241367
-0.071418732 0.13077471 0.42459458
-0.13114795 0.038572688 0.42768469
-0.12982695 0.04026404 0.42750877
-0.1289991 0.041972842 0.42695445
-0.12754136 0.043070842 0.42766368
-0.12561926 0.044313725 0.42724806
-0.12388251 0.04531613 0.42701569
-0.12148698 0.046666618 0.42762333
-0.11826441 0.049044773 0.42743853
-0.11663643 0.050594248 0.42822254
-0.11564028 0.052423969 0.42739618
-0.1145432 0.05451398 0.4266583
-0.11346938 0.05607871 0.42763931
-0.11215703 0.058418728 0.42734212
-0.11115699 0.060386326 0.42646033
-0.11013702 0.061872892 0.42762265
-0.10874832 0.064453222 0.42707327
-0.10697937 0.067463748 0.42744321
-0.10551079 0.07005731 0.42727098
-0.10463036 0.07142663 0.42808312
-0.10370848 0.073251262 0.42746902
-0.10245568 0.075460114 0.42760292
-0.10164396 0.076972157 0.42743292
-0.10026453 0.079441294 0.42758039
-0.099354804 0.081255883 0.42698443
-0.098417215 0.082871467 0.42737281
-0.096776932 0.085595265 0.42750403
-0.095061146 0.088509627 0.42730084
-0.093715921 0.090785317 0.42761272
-0.092826039 0.092440441 0.42706349
-0.091579922 0.094553314 0.42741314
-0.090391494 0.096563809 0.42769638
-0.089569487 0.098051451 0.42745519
-0.088260837 0.10037475 0.42734233
-0.087380044 0.10200755 0.42680165
-0.086344399 0.10368886 0.4273909
-0.084797747 0.10638222 0.427369
-0.083861172 0.1078215 0.42849016
-0.082976758 0.10956553 0.42725468
-0.081609771 0.11197269 0.42722702
-0.080673762 0.11348316 0.42798221
-0.07962317 0.1154539 0.42717996
-0.078434713 0.11755562 0.42735314
-0.077510245 0.11915624 0.42756557
-0.076290749 0.12137 0.42721426
-0.075166024 0.12334889 0.42739224
-0.074298471 0.12485984 0.42794749
-0.072981581 0.12733293 0.42739412
-0.072052032 0.12907717 0.42721283
-0.071183972 0.13067703 0.42740485
-0.12964712 0.039980762 0.43038505
-0.12873 0.041488521 0.4299162
-0.12763929 0.042675812 0.43016008
-0.12509356 0.0443382 0.43048009
-0.12328407 0.045359462 0.42985475
-0.12115062 0.046596982 0.43054086
-0.11947182 0.047711454 0.43008792
-0.11799242 0.048904575 0.43034795
-0.11652097 0.050492711 0.4306488
-0.11514413 0.052655574 0.43034247
-0.11416154 0.054565348 0.42907923
-0.11330236 0.055835076 0.43052053
-0.11175087 0.058590058 0.43022695
-0.11006662 0.061507773 0.43072423
-0.10865933 0.064031467 0.43027896
-0.10780403 0.065536067 0.42996523
-0.10668629 0.067455821 0.43066981
-0.10543133 0.069727354 0.43030432
-0.10459462 0.071238428 0.43005526
-0.10320985 0.073698483 0.43053311
-0.10222226 0.075402997 0.43095252
-0.10140264 0.07697244 0.42995045
-0.09998031 0.079471961 0.43067321
-0.099032633 0.081167921 0.43060377
-0.098187476 0.082664087 0.43030652
-0.096748441 0.085092321 0.43081135
-0.095877677 0.086561628 0.43038806
-0.094907992 0.088313669 0.4301002
-0.093351275 0.091021322 0.4306742
-0.092513807 0.092514388 0.43039212
-0.091335341 0.094595537 0.43020469
-0.09028095 0.096480504 0.42961544
-0.089414366 0.097958788 0.43066764
-0.08790414 0.10062859 0.43012181
-0.086189233 0.103658 0.43046615
-0.084634863 0.10637492 0.43045899
-0.082817294 0.1096039 0.43043223
-0.081368506 0.11215661 0.43029609
-0.080422685 0.11383501 0.43077242
-0.079455525 0.11556033 0.43044695
-0.078172937 0.11784278 0.43122113
-0.077457748 0.1190962 0.43013009
-0.076102681 0.12152925 0.43050954
-0.075090908 0.12333584 0.43138963
-0.074389532 0.12458638 0.43033412
-0.072757393 0.12752034 0.43063089
-0.12843947 0.041772109 0.43285486
-0.12722088 0.042926654 0.43269199
-0.12544905 0.044161193 0.43331331
-0.12406822 0.045008976 0.43395126
-0.1217389 0.046312116 0.43332535
-0.11815103 0.048822653 0.43306562
-0.11660927 0.050309684 0.43241581
-0.11529037 0.052369267 0.43332279
