# .PCD v0.7 - Point Cloud Data file format
VERSION 0.7
FIELDS x y z
SIZE 4 4 4
TYPE F F F
COUNT 1 1 1
WIDTH 143
HEIGHT 1
VIEWPOINT 0 0 0 1 0 0 0
POINTS 143
DATA ascii
0.11841606 0.05544563 0.21955793
0.121593 0.055449579 0.2195735
0.11245766 0.05860465 0.21952307
0.11543513 0.058608558 0.21953763
0.11841302 0.058612455 0.21955223
0.1215901 0.058418687 0.21956822
0.10650122 0.061564814 0.21948861
0.10947785 0.061568916 0.21950313
0.11245491 0.06157301 0.2195178
0.11543235 0.061577108 0.21953247
0.11841018 0.061581206 0.21954705
0.1215872 0.061387654 0.21956295
0.12456586 0.061391741 0.21957754
0.10054666 0.06452404 0.21945412
0.10352246 0.064528331 0.2194687
0.10649866 0.06453263 0.21948329
0.10947525 0.064536922 0.21949801
0.11245221 0.064541228 0.21951252
0.1154296 0.06454552 0.2195271
0.11840738 0.064549819 0.21954173
0.12158407 0.064554401 0.21955734
0.12456269 0.0645587 0.21957202
0.097568981 0.06748683 0.21943425
0.10054429 0.06749133 0.2194488
0.10351999 0.067495815 0.21946335
0.10649613 0.067500308 0.21947809
0.10947262 0.067504801 0.21949264
0.11244952 0.067509301 0.21950722
0.11542682 0.067513786 0.21952185
0.11840452 0.067518279 0.21953645
0.12158119 0.067523092 0.21955204
0.12455969 0.067527577 0.21956673
0.091419034 0.070444085 0.21939881
0.094591759 0.070449077 0.21941434
0.097566627 0.070453778 0.21942902
0.10054187 0.070458472 0.21944354
0.10351752 0.070463158 0.21945818
0.10649354 0.070467845 0.21947274
0.10947 0.070472538 0.2194874
0.11244682 0.070477232 0.21950203
0.11542405 0.070481911 0.21951665
0.1184017 0.070486605 0.21953127
0.12157828 0.070491612 0.21954679
0.12455668 0.070496306 0.21956143
0.085469186 0.073598437 0.21936402
0.088442765 0.073603332 0.21937864
0.091416702 0.073608227 0.21939318
0.094567344 0.073591433 0.21940872
0.097564295 0.073420577 0.21942373
0.10053949 0.073425464 0.21943834
0.10351506 0.073430352 0.21945293
0.10649102 0.073435239 0.21946754
0.10946738 0.073440127 0.21948215
0.11244414 0.073445015 0.21949674
0.1154213 0.073449902 0.2195114
0.11839885 0.07345479 0.21952601
0.12157536 0.07346002 0.21954152
0.079521336 0.076554105 0.21932958
0.082494035 0.076559208 0.21934414
0.085467137 0.07656429 0.2193588
0.088440619 0.076569378 0.2193734
0.091414511 0.076574489 0.21938796
0.094611488 0.076552197 0.21940373
0.097561955 0.076387234 0.21941853
0.10053705 0.076392308 0.2194331
0.10351258 0.076397404 0.21944773
0.10648845 0.076402493 0.21946229
0.10946476 0.076407574 0.21947691
0.11244145 0.07641267 0.21949153
0.11541855 0.076417737 0.21950614
0.11839601 0.076422833 0.2195207
0.12157246 0.076428257 0.21953633
0.07654722 0.079514109 0.21930976
0.079519436 0.079519421 0.21932435
0.082492061 0.079524703 0.21933898
0.085465088 0.079529993 0.21935351
0.088438526 0.079535291 0.2193681
0.091412328 0.079540566 0.21938264
0.094584845 0.079546221 0.21939829
0.097559474 0.079551525 0.21941289
0.10053449 0.079556815 0.2194275
0.1035099 0.079562113 0.21944211
0.10648574 0.079567388 0.21945669
0.10946196 0.079572685 0.21947132
0.11243858 0.079578012 0.21948588
0.11541558 0.07958328 0.21950047
0.118393 0.07958857 0.21951514
0.07040415 0.082467757 0.21927437
0.073573627 0.082473613 0.2192899
0.07654538 0.082479089 0.21930455
0.079517536 0.082484581 0.21931906
0.082490087 0.082490064 0.21933372
0.08546304 0.082495555 0.2193483
0.088436387 0.082501039 0.21936288
0.09141016 0.082506537 0.21937744
0.094582565 0.082512386 0.21939303
0.09755712 0.082517855 0.21940759
0.1005321 0.082523391 0.21942221
0.10350744 0.082528867 0.21943678
0.10648321 0.082534358 0.21945141
0.10945934 0.082539849 0.21946597
0.11243589 0.08254534 0.21948065
0.11547504 0.08258976 0.21949546
0.067431577 0.085426494 0.21925457
0.070402473 0.085432194 0.21926913
0.073571853 0.085438237 0.21928464
0.07654351 0.085443921 0.21929927
0.079515629 0.085449606 0.21931387
0.082488105 0.085455298 0.21932837
0.085461006 0.085460976 0.21934305
0.088434264 0.085466661 0.21935757
0.091407947 0.085472353 0.21937221
0.094580315 0.085478418 0.21938771
0.097554795 0.08548411 0.21940242
0.10052971 0.085489787 0.21941695
0.10350494 0.085495479 0.21943155
0.10648064 0.085501179 0.21944618
0.1094567 0.085506864 0.21946083
0.064459465 0.0885823 0.21923435
0.067429863 0.088588186 0.219249
0.07040067 0.088594072 0.21926357
0.073569968 0.088600367 0.21927911
0.076541565 0.088606253 0.21929373
0.079513624 0.088612169 0.21930829
0.082462341 0.088451967 0.21932293
0.085458949 0.088426247 0.21933784
0.088432163 0.088432133 0.21935236
0.091405794 0.088438027 0.219367
0.09457805 0.0884443 0.2193826
0.097552463 0.088450201 0.21939717
0.10052729 0.088456079 0.21941176
0.1035025 0.08846195 0.21942635
0.1064781 0.088467844 0.21944092
0.070398994 0.091558211 0.21925828
0.073568203 0.091564707 0.21927381
0.076539747 0.091570787 0.21928842
0.07951171 0.091576874 0.21930298
0.08250577 0.091410518 0.21931806
0.085456908 0.091391407 0.21933256
0.088430047 0.091397472 0.21934713
0.091403604 0.091403566 0.21936172
0.094575793 0.091410041 0.21937725
0.097550139 0.091416128 0.21939187
