# .PCD v0.7 - Point Cloud Data file format
VERSION 0.7
FIELDS x y z
SIZE 4 4 4
TYPE F F F
COUNT 1 1 1
WIDTH 869
HEIGHT 1
VIEWPOINT 0 0 0 1 0 0 0
POINTS 869
DATA ascii
-0.021989822 0.019911999 0.57594162
-0.020259172 0.020259172 0.57596588
-0.022203891 0.022463489 0.57587826
-0.019737804 0.022334898 0.57591176
-0.022332346 0.025448339 0.57584202
-0.019346632 0.025579235 0.57586551
-0.024416206 0.027533168 0.5759967
-0.02233112 0.028562913 0.57581013
-0.019212877 0.028559659 0.57574701
-0.016099021 0.028562576 0.57580757
-0.013502213 0.02856219 0.57579941
-0.011252635 0.028910765 0.57584411
-0.021554217 0.031422358 0.57586825
-0.019208707 0.031668335 0.57561815
-0.016090397 0.031661641 0.57549828
-0.013494578 0.031660248 0.57547402
-0.0109019 0.031667791 0.57561123
-0.008483801 0.03237712 0.57591397
-0.021297181 0.034802746 0.57594091
-0.019212361 0.03478986 0.57572752
-0.016091578 0.034778457 0.57553875
-0.013492431 0.034768928 0.5753811
-0.010897516 0.034768626 0.57537723
-0.0079194037 0.034924008 0.5758
-0.019216146 0.037912831 0.57584089
-0.016094642 0.037900131 0.57564813
-0.013494536 0.037888441 0.57547075
-0.01089756 0.037882216 0.57537651
-0.0077890777 0.037907735 0.57576424
-0.0051942738 0.038956996 0.57592225
-0.019010875 0.040410973 0.57591629
-0.016096586 0.040500876 0.57571739
-0.01349595 0.040487759 0.57553095
-0.010898161 0.040478971 0.57540607
-0.0077885427 0.040500998 0.57571954
-0.0046736081 0.040504679 0.57577246
-0.0025970833 0.040514432 0.57591128
-0.018440576 0.04285486 0.57595098
-0.016098477 0.043102164 0.5757848
-0.013497363 0.043087658 0.57559121
-0.010898922 0.043076638 0.57544422
-0.0077862898 0.043083966 0.57554382
-0.0046714786 0.043081194 0.57550645
-0.0018544908 0.043250371 0.57578385
-0.015755912 0.045882493 0.57591939
-0.013501263 0.046215829 0.57575738
-0.010901138 0.046199802 0.57555759
-0.00778487 0.046190225 0.57543921
-0.0046710758 0.046191879 0.57546014
-0.0015576243 0.046216168 0.57576275
-0.013332472 0.048654854 0.57594442
-0.010776196 0.049206808 0.57581758
-0.0077875722 0.049320891 0.57563341
-0.0046714372 0.049309477 0.57550108
-0.0015576282 0.049331754 0.57576156
-0.0098697785 0.051426739 0.57596153
-0.0076425457 0.052161932 0.5758847
-0.0046731383 0.05244204 0.57570124
-0.001557591 0.05244432 0.57572711
-0.004544789 0.055445965 0.57589215
-0.0015579656 0.055568323 0.57581466
0.00051949651 0.056625117 0.57599974
-0.0012986346 0.057917979 0.57594121
0.00051949022 0.058182903 0.57599282
0.014025974 0.074285716 0.57598203
0.0088309059 0.077400289 0.57596487
0.011253811 0.076699026 0.5759005
0.013503411 0.076346107 0.57585019
0.015062785 0.075313926 0.57589984
0.0057136519 0.079991117 0.57591814
0.0077898931 0.079457484 0.57581592
0.010903927 0.07944265 0.57570785
0.012984831 0.078947842 0.57588524
0.0057141385 0.082075827 0.57596719
0.0077862348 0.082534581 0.57554436
0.010281341 0.082354061 0.57573283
0.0077877804 0.084626116 0.57564729
-0.030809788 -0.0036553985 0.57899708
-0.031848133 -0.00052210054 0.57888705
-0.032017656 0.0019139572 0.57880366
-0.028493818 0.0021916409 0.57862616
-0.025566602 0.0020868799 0.5785175
-0.022438807 0.0020871668 0.57859117
-0.020010462 0.0022619364 0.57878917
-0.033938672 0.0052212896 0.57892346
-0.031812251 0.0046933843 0.57822883
-0.028655589 0.0046887742 0.5776763
-0.025528964 0.0046887374 0.577667
-0.022407226 0.0046896306 0.57777679
-0.019290276 0.0046919319 0.57807201
-0.016325379 0.0049943188 0.57857662
-0.014094424 0.0057421732 0.57879299
-0.033924274 0.0078285607 0.57867789
-0.031790152 0.007816989 0.57782471
-0.028632555 0.0078087267 0.577214
-0.025512122 0.0078097167 0.57728577
-0.022391396 0.0078108227 0.57736832
-0.019271217 0.0078125261 0.57749695
-0.016159425 0.0078189671 0.57797599
-0.013044264 0.0078264978 0.57853115
-0.010615428 0.0085271597 0.57885617
-0.034430869 0.010954843 0.57841748
-0.031766519 0.010935583 0.57739502
-0.028615138 0.010925644 0.57686359
-0.025496351 0.010926859 0.57692868
-0.022377022 0.01092816 0.57699764
-0.019257329 0.010929698 0.57707876
-0.016146617 0.010938037 0.57751846
-0.013553437 0.010946875 0.57798719
-0.010954694 0.010954717 0.57840204
-0.0088756084 0.010963987 0.57888043
-0.037051991 0.01330729 0.57861888
-0.034914155 0.013548504 0.57777846
-0.03174321 0.013529758 0.57697558
-0.028604092 0.013521875 0.57663882
-0.025480686 0.013520312 0.57657409
-0.022363251 0.013521918 0.57664257
-0.019245921 0.013524142 0.57673728
-0.016136896 0.01353427 0.5771696
-0.013543353 0.01354334 0.57755679
-0.010946493 0.013553032 0.57797003
-0.0081273438 0.0131978 0.5787217
-0.039164156 0.017232228 0.5789848
-0.037548065 0.016166428 0.57821888
-0.034892894 0.016144212 0.57742846
-0.031734791 0.016127393 0.57682449
-0.028600398 0.016120138 0.57656407
-0.025470393 0.01611382 0.57633895
-0.022350384 0.01611295 0.57631087
-0.019234993 0.016115732 0.57641023
-0.016125642 0.01612564 0.57676578
-0.013533041 0.016135419 0.57711697
-0.010938521 0.01614755 0.57755047
-0.0078242961 0.01617079 0.57838041
-0.0057433546 0.016707864 0.57891208
-0.037559688 0.019301502 0.57839769
-0.034882557 0.019263273 0.57725477
-0.031729754 0.019245842 0.57673365
-0.028597776 0.019238433 0.57651138
-0.025466762 0.019229883 0.5762558
-0.022514099 0.018877173 0.57606602
-0.019097302 0.019097358 0.57617801
-0.016118219 0.019237945 0.57649922
-0.013525131 0.019247254 0.57677901
-0.010929981 0.019257791 0.57709616
-0.0078174369 0.01928365 0.57787281
-0.0048271487 0.019439785 0.57864058
-0.0026108304 0.020364478 0.5789597
-0.037577745 0.022442101 0.57867527
-0.03489757 0.02239682 0.57750297
-0.031728737 0.022366092 0.57671463
-0.028595593 0.022356449 0.5764671
-0.02546349 0.022345381 0.57618177
-0.023377771 0.021299746 0.57601029
-0.018184377 0.022340765 0.5760631
-0.016111685 0.022348588 0.57626504
-0.013519007 0.022358375 0.57651758
-0.010923542 0.02236734 0.57674992
-0.0078089526 0.02238618 0.57724005
-0.0046910578 0.022413921 0.57795644
-0.0016958578 0.022570424 0.5786255
-0.037058413 0.025575381 0.57871711
-0.034791574 0.025409389 0.57790685
-0.031739742 0.025495712 0.5769102
-0.028592683 0.025473354 0.57640815
-0.025460908 0.025460776 0.57612348
-0.018182574 0.024416599 0.576006
-0.016108982 0.025462694 0.57616758
-0.013514168 0.025468847 0.5763098
-0.010916154 0.025470989 0.57635856
-0.0078025693 0.025488891 0.57676256
-0.0046856175 0.025511624 0.57727784
-0.0015634801 0.025542853 0.57798606
0.00078303099 0.025838688 0.57877243
-0.036021862 0.028191142 0.57883763
-0.034432698 0.028694101 0.57844871
-0.031772468 0.028647128 0.57750279
-0.028599663 0.028599599 0.57654738
-0.025592795 0.028710607 0.57616794
-0.010218419 0.027884265 0.57609552
-0.0077978275 0.028592646 0.57641238
-0.0046827146 0.028617701 0.57691735
-0.0015621586 0.028644048 0.57744926
0.0015652578 0.028688617 0.57834941
0.0036543219 0.029756622 0.57882655
-0.033935077 0.031324781 0.57886219
-0.031807352 0.031807099 0.57813668
-0.028618803 0.03174061 0.57692963
-0.025474556 0.031713203 0.57643163
-0.022968223 0.031906128 0.57616144
-0.0074484232 0.031353123 0.57618713
-0.0046801181 0.031722035 0.57659733
-0.0015612626 0.031749636 0.57709908
0.0015636147 0.031785611 0.5777545
0.0041755466 0.031836946 0.57868558
-0.031469453 0.034598231 0.57831544
-0.028633347 0.034880482 0.5772261
-0.025492016 0.034856364 0.57682639
-0.022872003 0.034827676 0.57635343
-0.0067540435 0.033770218 0.57604998
-0.0046779951 0.034826543 0.57633638
-0.0015605284 0.034855653 0.57681876
0.0015624706 0.034887947 0.57735348
0.0043964344 0.034944642 0.57829368
-0.031396996 0.037237778 0.57826567
-0.028648129 0.03750287 0.57752526
-0.025503317 0.037473921 0.57707983
-0.022219412 0.037811443 0.57627577
-0.0045280247 0.037635129 0.57613486
-0.0015594778 0.037951112 0.57642549
0.0015619789 0.037479062 0.57716006
0.0048420052 0.037317246 0.57811195
0.0071339072 0.03775695 0.57875943
-0.031036068 0.039903667 0.57834697
-0.028663734 0.040129147 0.57783961
-0.025509084 0.040085219 0.57720864
-0.022503838 0.040328 0.57642823
-0.02026098 0.041041475 0.57601732
-0.0010392915 0.040537443 0.57623786
0.0015615377 0.040070407 0.57699704
0.0046910113 0.040131129 0.57787132
0.0075302003 0.040333871 0.57864255
-0.028537439 0.042992495 0.57829767
-0.025531914 0.043248072 0.57772595
-0.022369217 0.04317731 0.57678366
-0.019847628 0.043332241 0.57608205
-0.00051969022 0.042614534 0.57621455
0.0015606056 0.043167617 0.57666296
0.0046875877 0.043226819 0.57745391
0.0078237541 0.043289226 0.57828689
0.0099194348 0.043854281 0.57885933
-0.024528086 0.046447024 0.57863599
-0.022400983 0.046363935 0.5776
-0.019233886 0.046264742 0.57636541
-0.016799456 0.046934515 0.57608145
0.0015595932 0.046261188 0.57632375
0.0046833921 0.046310563 0.5769403
0.0078180097 0.046384323 0.5778597
0.010438544 0.046450693 0.57868654
-0.022296313 0.049416147 0.57826626
-0.019254267 0.049435511 0.57696909
-0.016110377 0.049370326 0.57621044
-0.013682348 0.050053131 0.57609499
-0.011948478 0.05039141 0.5760026
0.0015593884 0.049374681 0.57626319
0.0046814829 0.049413655 0.57671809
0.0078124758 0.049476393 0.57745165
0.010654296 0.049694188 0.57825428
0.012528348 0.049591195 0.57879025
-0.021658354 0.052449569 0.57864881
-0.019277148 0.052620251 0.57765555
-0.016120926 0.052522417 0.57658249
-0.013514053 0.052496891 0.57630306
-0.011042159 0.052612487 0.5761463
-0.0083127301 0.053512998 0.57605207
0.0015591326 0.05248465 0.57617003
0.0046807551 0.05252637 0.57662803
0.0078084129 0.052575 0.57716167
0.010944359 0.052635632 0.57782882
0.013564773 0.052693203 0.57846206
0.015488165 0.053425174 0.57885343
-0.02140896 0.054827824 0.57896376
-0.019168518 0.055679038 0.57831198
-0.016137756 0.055699937 0.57717615
-0.013520722 0.055642948 0.57658744
-0.010917198 0.055625338 0.57640511
-0.0077945697 0.055600531 0.57614839
-0.0057146717 0.056627203 0.57602096
0.0016890449 0.055473223 0.57617563
0.0046809926 0.055649169 0.57665282
0.0078091118 0.055703454 0.57721543
0.010942446 0.055753324 0.57773292
0.013556045 0.055788007 0.57809299
0.016043548 0.055955827 0.57848078
0.01827308 0.05690759 0.5788731
-0.01861611 0.058283746 0.57871324
-0.016026003 0.058760747 0.57784206
-0.013529901 0.058802757 0.57697517
-0.01092062 0.058762789 0.57658476
-0.0077967066 0.058734491 0.57630706
-0.0046766438 0.058717325 0.57613826
-0.0017665224 0.05933354 0.57606792
0.001856111 0.058871422 0.57619506
0.0046808105 0.058767729 0.57663459
0.007807238 0.058813129 0.57708025
0.010938004 0.058855943 0.57750052
0.013548958 0.058885511 0.57779074
0.016162494 0.058914244 0.57807279
0.018680803 0.058754981 0.57855958
-0.016173385 0.061213925 0.57845408
-0.013544479 0.061470516 0.57759535
-0.010795883 0.061782509 0.57686043
-0.0077993702 0.061874647 0.57650727
-0.0046785739 0.061860546 0.57637596
-0.0015592102 0.0618467 0.57624698
0.0015592237 0.061846893 0.57624841
0.0046794494 0.061871156 0.57647562
0.007803964 0.061909992 0.57683849
0.010932539 0.061950162 0.57721287
0.013543071 0.061464429 0.57753968
0.016155681 0.061495245 0.57782918
0.019430142 0.061158128 0.57833993
0.021747937 0.061763827 0.57871872
-0.015484367 0.063502997 0.57871145
-0.013560038 0.064149 0.57825881
-0.011089231 0.064375311 0.57761639
-0.0078043402 0.064514309 0.57686359
-0.0046801385 0.064481221 0.5765686
-0.001559732 0.06446702 0.57644159
0.0015599102 0.064473785 0.57650208
0.0046808403 0.064490803 0.57665426
0.0078023691 0.064499639 0.57673365
0.010927964 0.064526118 0.57697088
0.013537888 0.064044245 0.57731861
0.01614977 0.064077437 0.57761765
0.019287495 0.064117298 0.57797694
0.022429923 0.064159311 0.57835627
0.02453145 0.064721212 0.57871544
-0.012006243 0.067339532 0.57878733
-0.01043028 0.067275099 0.57823133
-0.0078156814 0.067213073 0.57769817
-0.004684424 0.067140527 0.57707489
-0.0015603891 0.067094266 0.57667935
0.0015605453 0.067101277 0.57674003
0.0046822033 0.067111641 0.57682961
0.0078020003 0.067097768 0.57671094
0.010922845 0.06709671 0.57670254
0.013529989 0.067129157 0.57698172
0.016140262 0.067163594 0.57727784
0.019274866 0.067200951 0.57759929
0.022411581 0.067234188 0.57788497
0.025050253 0.067321867 0.57863814
-0.0099187093 0.069430962 0.57881695
-0.0076786992 0.07015074 0.57860076
-0.0046914178 0.070365638 0.5779171
-0.0015613413 0.070252188 0.57698607
0.0015610902 0.0702485 0.5769558
0.0046823984 0.070236981 0.5768618
0.0078017553 0.07021641 0.57669282
0.010919144 0.070194826 0.57651603
0.013520926 0.070204385 0.5765956
0.016127683 0.070232786 0.57682896
0.019258251 0.070265986 0.57710171
0.022393845 0.070305452 0.57742554
0.025431888 0.07055591 0.57841039
-0.0067875185 0.073618524 0.57890511
-0.0046930709 0.073517337 0.57810944
-0.0015617837 0.073397793 0.5771693
0.0015610898 0.073375158 0.57699209
0.0046815351 0.073345512 0.57675964
0.0077988901 0.073310524 0.5764848
0.010913997 0.073280044 0.57624477
0.013407034 0.073062792 0.57617092
0.016113663 0.073290475 0.57632738
0.019246554 0.073344134 0.57674766
0.022394443 0.073432058 0.57743812
0.025561554 0.073553413 0.57839292
-0.0067884065 0.075716838 0.5789808
-0.0046948427 0.076673068 0.57831538
-0.0015617262 0.076511808 0.57710034
0.0015602278 0.076457419 0.57669044
0.0046784747 0.076416858 0.57638466
0.0076644495 0.076255165 0.57614446
0.010217706 0.075680286 0.57605296
0.016243268 0.076537266 0.57631081
0.019255476 0.076500431 0.57701272
0.022407742 0.076602295 0.57778102
-0.0046936739 0.079781808 0.57816607
-0.0015612849 0.079613015 0.57694203
0.0015599519 0.079563051 0.57657897
0.0043806769 0.079375163 0.57629305
0.013771376 0.079769954 0.57619578
0.016125228 0.079584487 0.57673407
-0.0044871578 0.082329214 0.57847703
-0.0015629389 0.082830347 0.57760394
0.0015620772 0.082798176 0.57737988
0.0043824809 0.082828455 0.57655782
0.011691768 0.082881503 0.57615066
0.013520221 0.082680829 0.57656246
-0.0036533556 0.084549196 0.57867348
-0.0015650505 0.085552983 0.57840258
0.001711679 0.085683331 0.57777554
0.0046804883 0.085816354 0.5766663
0.0077973679 0.086290598 0.57636011
0.010924464 0.085832939 0.57677591
-0.0011486554 0.087814786 0.57887042
0.0014338447 0.088262029 0.57820785
0.0046891789 0.08857701 0.57771093
0.0020883661 0.090324849 0.57889634
-0.0338303 -0.010227939 0.58154672
-0.031628799 -0.010310256 0.58125186
-0.029897314 -0.0099657709 0.58156329
-0.036886223 -0.0075172093 0.58148795
-0.034577828 -0.0078588752 0.58088696
-0.031922899 -0.0078502269 0.58024377
-0.028953042 -0.0077300076 0.58104259
-0.026763001 -0.0068219416 0.58184099
-0.039756764 -0.0045108902 0.58154154
-0.037197094 -0.0047154268 0.58087957
-0.0345327 -0.0047093229 0.58012897
-0.032013737 -0.0048347753 0.57951713
-0.028758755 -0.0047067157 0.57976723
-0.025795912 -0.0045839674 0.58074826
-0.022807498 -0.0039325324 0.58134204
-0.020469788 -0.0036740648 0.5819537
-0.039838057 -0.0015724575 0.58119327
-0.037176747 -0.0015704934 0.58056527
-0.034543555 -0.0015698136 0.58031219
-0.031874668 -0.0016982991 0.57935977
-0.028733768 -0.0015672983 0.57925767
-0.025614968 -0.0015682989 0.57961464
-0.022490237 -0.0015695598 0.57992101
-0.01937264 -0.0015714328 0.5805409
-0.016380381 -0.0014420333 0.58118916
-0.013376076 -0.00078693806 0.58161151
-0.039869625 0.0010493215 0.58165759
-0.037099112 0.0014420541 0.58139873
-0.034532119 0.0015692745 0.5801158
-0.031512145 0.00087044574 0.57910532
-0.028991614 0.00078348099 0.57919073
-0.025596149 0.00052236853 0.57918411
-0.02246047 0.0005223375 0.57914978
-0.018987352 0.0012190802 0.57942796
-0.016213428 0.0015685771 0.57990956
-0.013091001 0.0015704621 0.5806064
-0.010483776 0.001572066 0.58120871
-0.0083920453 0.0020979075 0.58156455
-0.037066944 0.0048458362 0.58088565
-0.034752145 0.0044418871 0.57942557
-0.015671801 0.0036567785 0.57921565
-0.012935416 0.0045728167 0.57949579
-0.010462143 0.0047075436 0.58000904
-0.0078602247 0.004716171 0.58105737
-0.0057723843 0.0057723843 0.58183819
-0.039587449 0.0081268735 0.58136523
-0.037144855 0.007847188 0.58005995
-0.03499512 0.0078346105 0.57912511
-0.010273601 0.0071392586 0.57920724
-0.0078447368 0.0078446548 0.57989967
-0.0048469938 0.007991014 0.58103383
-0.0020983368 0.0089188013 0.58169758
-0.04013861 0.010584724 0.58098638
-0.037118424 0.010455593 0.57964867
-0.007627937 0.010345048 0.57930529
-0.0047080335 0.010462956 0.58005244
-0.0017814481 0.010586954 0.58111268
-0.040319845 0.013090286 0.58057284
-0.037788242 0.012363795 0.57923776
-0.0067906957 0.012536595 0.57917607
-0.0047049425 0.013070122 0.57967502
-0.0015705776 0.013091643 0.58063185
0.0008744942 0.013813782 0.58163005
-0.042515937 0.017321307 0.58197778
-0.04043223 0.016093759 0.58030593
-0.004404142 0.016049704 0.57938701
-0.001569415 0.016220566 0.58016324
0.0014417974 0.016378097 0.58111084
-0.04286474 0.019598164 0.58101094
-0.040254846 0.019343052 0.57964301
-0.0036568034 0.018284017 0.57921958
-0.0014371431 0.019208003 0.57952136
0.0015704283 0.019363202 0.58026093
0.0040904325 0.019611981 0.58142912
-0.043230176 0.022401687 0.58149391
-0.040285449 0.022496818 0.58008289
-0.00052237749 0.021417478 0.57919413
0.0015687282 0.022477997 0.57960486
0.0047159786 0.022529146 0.58092278
0.0068210741 0.023086667 0.58176696
-0.043012474 0.025702365 0.58159071
-0.040286083 0.025636153 0.58009166
-0.038132004 0.026117884 0.57917047
0.0021951017 0.025399029 0.57946032
0.0047114007 0.025647886 0.58036679
0.0077352505 0.025826462 0.58143878
-0.042467702 0.028311903 0.58131754
-0.040306732 0.028790474 0.58039248
-0.037404511 0.028893342 0.57945722
0.0048344946 0.028612845 0.579454
0.007855041 0.028799389 0.5805828
0.010317422 0.029552853 0.58166641
-0.040357377 0.031447019 0.58111978
-0.037148017 0.031915851 0.58011222
-0.034746148 0.032133728 0.57932711
0.0057479274 0.031874832 0.579373
0.0077201622 0.031794205 0.58028793
0.010490797 0.031471718 0.58157945
-0.039751541 0.033878066 0.58146429
-0.03718796 0.034568749 0.58073509
-0.03450511 0.034504972 0.57966447
-0.032899946 0.034988832 0.57902098
0.0057458794 0.033952925 0.57916659
0.0079979841 0.034305826 0.58009326
0.010485653 0.034077361 0.58129436
0.01206768 0.035153676 0.58174896
-0.039360069 0.036211263 0.58188111
-0.037075486 0.037074972 0.58102417
-0.034518968 0.037133906 0.57989693
-0.032905523 0.037083998 0.57911915
0.0081884442 0.036759343 0.57949132
0.010470069 0.037167612 0.58043051
0.012811351 0.037383944 0.58146626
-0.036532503 0.039678663 0.58142203
-0.034559403 0.040319722 0.58057547
-0.032507807 0.040451985 0.57947463
0.0088786585 0.039692793 0.57907939
0.01045483 0.040250074 0.5795871
0.013094272 0.040328119 0.58071351
0.015560131 0.041085389 0.58154213
-0.033558983 0.043521658 0.58138865
-0.031609524 0.043266505 0.57997334
-0.029252511 0.044400968 0.57917953
0.01070908 0.043097194 0.57920897
0.01307623 0.043411594 0.57992113
0.016245283 0.043493826 0.5810219
0.018363645 0.044072554 0.58174217
-0.033064965 0.045661144 0.58192527
-0.031349175 0.046447515 0.58125013
-0.028797796 0.046600159 0.58053696
-0.026131341 0.04651368 0.57946557
0.013066787 0.046516214 0.57950306
0.016227886 0.046588503 0.58040452
0.019268401 0.046793412 0.58132374
-0.028537428 0.049658872 0.58132726
-0.02562438 0.049678937 0.5798105
-0.023502233 0.050660368 0.57907695
0.013842981 0.049364351 0.57919222
0.016210133 0.049674928 0.57976973
0.019376572 0.049749441 0.58063942
0.021766609 0.050088927 0.58154142
-0.028149361 0.05227698 0.58156812
-0.025655575 0.052881017 0.58051795
-0.023097586 0.052988283 0.57940304
0.016546251 0.052424822 0.57933766
0.019357346 0.052839123 0.58006376
0.02253552 0.052930668 0.58107018
-0.027812427 0.054575436 0.58183885
-0.025677925 0.055546913 0.58102274
-0.022479348 0.055761665 0.57962519
-0.020367987 0.056925911 0.57905948
0.017234685 0.054837633 0.57906735
0.01946873 0.055791982 0.57948887
0.022358624 0.055708081 0.58036613
0.025073206 0.055286396 0.58159244
-0.025562499 0.05807174 0.58138007
-0.022633333 0.058217857 0.58022249
-0.020029837 0.058695819 0.579346
0.020371102 0.058501557 0.57914805
0.022629961 0.058208428 0.58013254
0.025563762 0.058336716 0.58140868
-0.025008351 0.060684357 0.58171201
-0.022530051 0.061301667 0.58093005
-0.019345121 0.061171148 0.57969314
-0.017235007 0.062150482 0.5790782
0.022827348 0.060814083 0.57961768
0.025658479 0.06126437 0.58058512
0.028501393 0.061723102 0.58161467
-0.022202484 0.064159133 0.58150452
-0.019369401 0.064388633 0.58041948
-0.016546646 0.064618103 0.57934982
0.025910143 0.064139701 0.57952589
0.028810726 0.064429536 0.5807941
0.031304564 0.065232098 0.58171964
-0.01908849 0.067445017 0.58098
-0.01621969 0.067494422 0.58011484
-0.013590054 0.067427278 0.5795384
0.026646683 0.067400284 0.57931215
0.028781869 0.067505151 0.58021343
0.031458713 0.067635633 0.58133513
0.03306083 0.068745539 0.5818525
-0.018356679 0.069755383 0.58152145
-0.015905499 0.070437916 0.58138251
-0.013078429 0.070620745 0.58001149
-0.0105551 0.070750706 0.57936192
-0.0083580716 0.071565159 0.5791896
0.026635736 0.069461823 0.5790742
0.028760979 0.070593655 0.57979274
0.031434115 0.070726119 0.58088064
0.033310618 0.07107985 0.58163023
-0.015210277 0.073428988 0.58153892
-0.013097201 0.073867023 0.58085644
-0.010465652 0.073782079 0.58018988
-0.0083626313 0.07369417 0.57949996
0.028749254 0.073701486 0.57955736
0.031416636 0.073828675 0.58055788
-0.015218724 0.075568944 0.58186191
-0.013110136 0.076560535 0.58142209
-0.010470456 0.076433115 0.58045423
-0.0079735238 0.076986998 0.5796966
-0.01232866 0.078955919 0.58168334
-0.010481718 0.079135872 0.58107799
-0.0076951454 0.079707228 0.57979268
-0.012072518 0.082408056 0.5819822
-0.01048189 0.082280226 0.5810805
-0.007974918 0.082228325 0.57978976
-0.0057476936 0.083080299 0.57934946
-0.010316024 0.084799908 0.58158594
-0.0077285399 0.085272625 0.58093357
-0.0050040032 0.085359 0.57961595
-0.0072384612 0.088432595 0.58155924
-0.0047097239 0.088424556 0.58012879
-0.0020901889 0.08882983 0.57936072
-0.0045049964 0.091030739 0.58073413
-0.0014196908 0.091248766 0.58002281
-0.040089116 -0.012132198 0.58485925
-0.03715485 -0.012385143 0.58433956
-0.034077011 -0.012864189 0.58384812
-0.031420201 -0.012814596 0.58387107
-0.028459448 -0.012121683 0.58435225
-0.026902221 -0.012132375 0.58486772
-0.040028922 -0.010533935 0.58397698
-0.037323941 -0.010514025 0.58285969
-0.034671791 -0.011031888 0.58246553
-0.030987049 -0.011029288 0.58232826
-0.028694961 -0.010616468 0.58271372
-0.025798587 -0.010530532 0.58377957
-0.023726743 -0.010017958 0.58460873
-0.04035981 -0.0077565787 0.58304328
-0.037981186 -0.008576463 0.58219558
-0.027822878 -0.0089243194 0.58205748
-0.025627302 -0.0080171442 0.58287746
-0.022957554 -0.0077533363 0.58420944
-0.020569488 -0.006856496 0.58478814
-0.042711731 -0.0047461209 0.58465791
-0.041253883 -0.0049922159 0.58268255
-0.024680546 -0.0057762978 0.58223265
-0.022390148 -0.0053613819 0.58276194
-0.019335438 -0.0048677647 0.58336169
-0.016467229 -0.0044372594 0.58359438
-0.01337341 -0.0041072574 0.58377779
-0.011067002 -0.0036890006 0.58431947
-0.042700574 -0.0015813865 0.5845052
-0.041541442 -0.0015774091 0.58303434
-0.015225912 -0.0026251571 0.58213669
-0.01292398 -0.0022067497 0.58251351
-0.01051436 -0.0015780153 0.58290797
-0.008031345 -0.0014490311 0.5839541
-0.0057995389 -0.00052723079 0.5845753
-0.042727962 0.0015826622 0.58488005
-0.040899031 0.0019971337 0.58286136
-0.038326439 0.0026250985 0.5821237
-0.007460224 0.0011556031 0.58253253
-0.0048691179 0.0017104138 0.5837028
-0.0026352184 0.0026352184 0.58436781
-0.042735603 0.0042207977 0.58498466
-0.04048273 0.0047317659 0.58292574
-0.038330197 0.0036754985 0.5821808
-0.0045984602 0.0045987512 0.58276218
-0.0017116151 0.0048724739 0.58408707
0.00052730326 0.0058003361 0.58465564
-0.042641379 0.0089494251 0.58369488
-0.041104279 0.0076738661 0.58279645
-0.0036757581 0.0068264077 0.58222193
-0.0014262788 0.0075836391 0.58279085
0.0012798988 0.008052513 0.58411962
-0.042594515 0.010516972 0.58305347
-0.041481379 0.0099765351 0.58219141
-0.00052501913 0.0099753635 0.58212304
0.0015791516 0.010521865 0.58332402
0.0036916044 0.010547262 0.58473194
-0.043342881 0.013295739 0.58300382
0.0019275245 0.012788349 0.58271211
0.0044411435 0.013321749 0.58416474
-0.04381977 0.016185548 0.58359885
0.0026255909 0.015228428 0.58223289
0.004734565 0.016304668 0.58318019
0.0071174903 0.016607018 0.58456033
-0.045880556 0.01951245 0.58472151
-0.044406198 0.019180726 0.58267331
0.0055160164 0.019174175 0.58246881
0.0078972466 0.019477507 0.58369321
0.010018531 0.020036835 0.58464211
-0.045809995 0.022640578 0.58382231
-0.044639058 0.023107378 0.58228523
0.0081819119 0.022442715 0.5825668
0.010530663 0.022639722 0.58378536
0.012126004 0.023724791 0.58456063
-0.045774441 0.025781414 0.5833692
-0.044659454 0.025744893 0.58255124
0.0089282831 0.024684077 0.58231598
0.010516522 0.025764346 0.58299512
0.012387988 0.026093505 0.58447558
-0.043804828 0.028910762 0.58282262
0.010682871 0.028195227 0.58252102
0.012859506 0.028950738 0.58363926
-0.043484591 0.031270191 0.58369571
0.013296596 0.031323489 0.58301252
0.01570796 0.031309761 0.58443725
-0.042645764 0.033168927 0.5837549
-0.041165721 0.034158614 0.58267611
0.01326808 0.03402273 0.58260089
0.016328068 0.034234691 0.5839783
0.018460425 0.035338525 0.58480799
-0.038321856 0.038321856 0.58205408
0.014179124 0.036760561 0.58227116
0.016306527 0.037345428 0.58320683
0.01915144 0.037775081 0.58442581
-0.037299115 0.0407135 0.58247465
0.016634032 0.040095955 0.58240873
0.019478688 0.040534649 0.58368593
0.0216312 0.041679628 0.58497381
-0.03656204 0.043401308 0.58328992
-0.034933917 0.04386453 0.58245707
0.019750578 0.043479893 0.58284277
0.022300938 0.044074189 0.58408195
-0.034187596 0.046810061 0.5831604
-0.032028086 0.047779605 0.58215797
0.020483619 0.045694225 0.58234686
0.022618761 0.046813566 0.58321017
0.024778364 0.046920422 0.58454031
-0.033160459 0.049477741 0.58360589
-0.031436179 0.049729951 0.5828619
-0.029930014 0.050408527 0.58219934
0.023227805 0.049713075 0.58266878
0.025651315 0.049368639 0.58439779
-0.03140739 0.052112415 0.58363479
-0.029590903 0.05270293 0.58241099
0.025781401 0.052086744 0.58335942
0.028297035 0.052902777 0.58461958
-0.0288915 0.054892965 0.58242786
0.02653458 0.054907694 0.58258533
0.028423687 0.055267122 0.58360881
0.030399231 0.056053709 0.58448726
-0.027834157 0.057243831 0.58229339
-0.026775785 0.059326742 0.58211893
0.02677195 0.057218481 0.58203554
0.02877906 0.058477022 0.58280706
0.031383865 0.058326315 0.58412033
0.033220675 0.05958629 0.58466566
-0.025745401 0.061736513 0.58256054
0.02959466 0.060765106 0.58248705
0.031555034 0.061531443 0.58311468
0.033609431 0.061844926 0.58408654
-0.024737317 0.063685432 0.58357197
-0.023146376 0.065230206 0.58326727
0.031689387 0.063903704 0.58236378
0.034203742 0.064721979 0.58343112
0.03639669 0.065936029 0.58486074
-0.021940311 0.067223787 0.58382642
-0.020498348 0.068328373 0.58276564
0.034291286 0.067661487 0.58268517
0.036372259 0.067473084 0.58446813
-0.021630405 0.069111779 0.58495229
-0.01967491 0.070594206 0.58325166
-0.016980479 0.071597494 0.58228409
0.034678951 0.070407793 0.58258045
0.036355019 0.070075504 0.58419108
-0.018843558 0.072952233 0.58359772
-0.016813362 0.073557183 0.58255428
-0.016288549 0.075923495 0.5825724
-0.015235552 0.078279212 0.58250529
-0.013760254 0.07951498 0.58231986
-0.012608139 0.082214266 0.58246851
-0.012094494 0.085187525 0.58304161
-0.010683257 0.086341493 0.58254963
-0.0089251557 0.086626515 0.58211201
-0.010524268 0.088401526 0.58343059
-0.0086701522 0.089064553 0.58260441
-0.0073659588 0.091012098 0.58330095
-0.0057874373 0.092072867 0.58335549
-0.042918585 -0.015365914 0.58748943
-0.04065359 -0.016288657 0.58730263
-0.03758695 -0.015882155 0.58697116
-0.034381207 -0.015868489 0.58646744
-0.031442661 -0.015774798 0.58691651
-0.029150765 -0.015370403 0.58766109
-0.040835273 -0.013511415 0.58583635
-0.037713666 -0.013839202 0.58565253
-0.034839202 -0.014252339 0.5852778
-0.030451847 -0.013906066 0.58550262
-0.028241331 -0.013857228 0.58640128
-0.025920998 -0.012696507 0.58655131
-0.042898457 -0.01006262 0.58721387
-0.041730702 -0.010564625 0.58569062
-0.022694962 -0.010028007 0.58519512
-0.043194775 -0.0072283843 0.58643532
-0.041712835 -0.0089761792 0.58543986
-0.021642124 -0.0084458608 0.58526921
-0.019549046 -0.0077495594 0.58582085
-0.0163846 -0.0068711061 0.58603424
-0.043919552 -0.0047627925 0.58670467
-0.015833464 -0.0058056507 0.58519137
-0.012942677 -0.0055472068 0.58573699
-0.010260631 -0.0047610104 0.58643478
-0.0079325922 -0.0037023041 0.58642668
-0.043867826 -0.0015855199 0.58601362
-0.0068642106 -0.0026400811 0.58544612
-0.0047575943 -0.0015866997 0.58613771
-0.0022939483 -0.00088249269 0.58697885
-0.043889612 0.0010576439 0.58630466
-0.0036943313 0.00052776164 0.58516383
-0.0014526346 0.001452527 0.58589417
0.00088208239 0.0022929609 0.58673859
-0.042845577 0.0058185351 0.58649004
-0.00052773079 0.0036941157 0.58512968
0.0015853085 0.004754669 0.58577919
0.0037037625 0.0058201985 0.5866577
0.002639431 0.0073902132 0.585302
0.0044057062 0.0082817236 0.58612174
-0.043917488 0.011111653 0.58667701
0.0052836016 0.010566387 0.58579218
0.006878057 0.011110707 0.58662707
0.0058068316 0.012669261 0.5853104
0.0072933016 0.013423249 0.58596641
0.0085567366 0.016162053 0.58563137
0.010046506 0.016920179 0.58627474
0.010828918 0.01928016 0.58568794
0.012523744 0.020284439 0.58671397
0.013216282 0.022730652 0.58611643
0.015368829 0.023848182 0.58760089
0.013842084 0.025675863 0.58577555
0.015618203 0.025941228 0.5870052
0.014247331 0.027966984 0.58507216
0.016396789 0.028333532 0.58642721
0.017165974 0.030898232 0.58562958
0.019174043 0.031673156 0.58726448
0.019683646 0.034213692 0.58587456
0.021711826 0.034420315 0.58715415
0.020236198 0.036776822 0.58531499
0.022625199 0.037706971 0.58678043
0.022866763 0.040577024 0.58619916
0.023399733 0.043104429 0.58521825
0.025597449 0.044020448 0.58604091
0.026413601 0.046487264 0.58572268
0.028411044 0.046763171 0.58697373
0.026932899 0.0485847 0.58553469
0.028558969 0.04918389 0.58638602
0.030469846 0.04954616 0.58754337
-0.032263163 0.052361529 0.58643085
0.0286905 0.051572125 0.58547562
0.030910879 0.05252441 0.58656484
-0.030161344 0.056090303 0.58669919
-0.029022081 0.056461141 0.58506691
0.031524669 0.055122823 0.58580071
0.03372854 0.056331296 0.58738202
0.034373436 0.058697678 0.58632559
0.035108164 0.061504751 0.58536184
0.03649402 0.061880376 0.58642477
-0.025548523 0.064663447 0.58607268
-0.023748536 0.065968156 0.58514565
0.036987893 0.064463601 0.58586192
0.03807703 0.067162089 0.58635885
-0.03771783 -0.018593539 0.58902496
-0.041946381 -0.017521907 0.5887177
-0.037690196 -0.017518027 0.58858734
-0.035016395 -0.017508149 0.58825552
-0.028110053 -0.015380973 0.58806521
-0.042979557 -0.013265205 0.58832407
-0.044107635 -0.010097838 0.58921719
-0.022819975 -0.01061392 0.58843482
-0.045213744 -0.0074472064 0.58978164
-0.044033729 -0.0079579027 0.58822984
-0.045165904 -0.0058449996 0.58915758
-0.0095541142 -0.0058388468 0.58853745
-0.0076131686 -0.0051349816 0.5889318
-0.0054959818 -0.004078289 0.58973742
-0.0037163191 -0.0026545136 0.58864659
-0.0013285498 -0.0015949256 0.58919156
0.0005328182 -0.0005328182 0.59077042
0.001062373 0.001062373 0.58883226
0.0026588549 0.0037223967 0.58960927
0.016985305 0.02547776 0.58850867
0.017507927 0.027057705 0.58824801
0.032383256 0.052025273 0.58861363
0.033794887 0.052953459 0.59008473
0.034916151 0.055474311 0.58953577
0.035555895 0.057844665 0.58840519
0.036653031 0.059493929 0.5889799
-0.001599688 -0.0026661465 0.59122622
