# .PCD v0.7 - Point Cloud Data file format
VERSION 0.7
FIELDS x y z
SIZE 4 4 4
TYPE F F F
COUNT 1 1 1
WIDTH 1373
HEIGHT 1
VIEWPOINT 0 0 0 1 0 0 0
POINTS 1373
DATA ascii
-0.13854225 0.041675311 0.4162896
-0.13614802 0.041343898 0.41547897
-0.13460182 0.041444745 0.41648912
-0.13558497 0.042743981 0.41451922
-0.13384074 0.04367597 0.41568497
-0.13189708 0.044717241 0.41664648
-0.13302059 0.045587283 0.41479549
-0.13048092 0.046472531 0.41533032
-0.12786685 0.047187462 0.41606671
-0.12593177 0.047741298 0.41680238
-0.12692796 0.048501968 0.41473636
-0.1244226 0.049468212 0.41553029
-0.122175 0.050386794 0.41629934
-0.12121493 0.052132454 0.41499782
-0.11927745 0.053193022 0.41632065
-0.11858572 0.055337321 0.41527167
-0.11687797 0.056371793 0.41668889
-0.11738142 0.057830226 0.41475043
-0.11614338 0.058736086 0.41577494
-0.17178775 0.061753292 0.41497239
-0.11516805 0.06130179 0.41517392
-0.11365907 0.062183529 0.41659951
-0.17182091 0.064151794 0.41595829
-0.17035416 0.064328179 0.41467193
-0.11431532 0.06345319 0.41466442
-0.11289419 0.064680085 0.41564986
-0.17086737 0.067595914 0.4163776
-0.11187966 0.067114241 0.41488025
-0.11050439 0.067828856 0.41627491
-0.17029923 0.070364393 0.4149932
-0.10952108 0.070358954 0.41539854
-0.10785865 0.071780495 0.41668969
-0.1699536 0.072090209 0.41415092
-0.10841906 0.072803006 0.41480869
-0.10717259 0.073873408 0.41578189
-0.10615465 0.07619562 0.41523078
-0.10457658 0.07752458 0.41659096
-0.17020166 0.078929454 0.41475537
-0.10530945 0.078390248 0.41454574
-0.10390411 0.079680607 0.41567823
-0.16894689 0.082603917 0.41442961
-0.1029838 0.082150362 0.41497004
-0.10157105 0.083171681 0.41633502
-0.16902485 0.085263059 0.41646367
-0.16730164 0.085518107 0.41405874
-0.10209332 0.084142849 0.41464302
-0.10074406 0.085596047 0.41547418
-0.16594282 0.088578045 0.41439611
-0.099636257 0.088035308 0.41492456
-0.09830194 0.088970527 0.41623554
-0.16505709 0.090949826 0.41498774
-0.1644651 0.092535034 0.41538319
-0.097503252 0.0913122 0.4152751
-0.095816679 0.092810661 0.41662046
-0.16358346 0.094923943 0.41599977
-0.096419603 0.093726657 0.4146896
-0.095151566 0.094742514 0.4158085
-0.16155192 0.096856877 0.41463751
-0.094030581 0.097313762 0.41511935
-0.092525326 0.098535322 0.41646478
-0.16039011 0.10005695 0.41550282
-0.093098111 0.099454015 0.41455406
-0.091769874 0.10064137 0.4155986
-0.15778929 0.1035731 0.41457707
-0.090697065 0.10319394 0.41486081
-0.089480169 0.10387156 0.41627702
-0.15690768 0.10597821 0.41521195
-0.088432826 0.10642029 0.41547769
-0.086841255 0.10789368 0.41682503
-0.15431644 0.10947873 0.41428751
-0.087393217 0.10896057 0.41468775
-0.086181454 0.10981346 0.41591081
-0.15342888 0.11189134 0.41491917
-0.085158937 0.11228003 0.41517463
-0.083763525 0.11343737 0.41647577
-0.15172106 0.11537819 0.41535985
-0.08410605 0.11475753 0.4144617
-0.082811877 0.11568761 0.41578925
-0.14967924 0.11862151 0.41489863
-0.081752472 0.11829085 0.41493684
-0.080524728 0.11919145 0.41623855
-0.14864403 0.12199377 0.41619086
-0.079546548 0.12156909 0.41547665
-0.14572342 0.125173 0.41429031
-0.078450941 0.12397448 0.41486737
-0.077257745 0.12497457 0.41611975
-0.14470989 0.12750922 0.41459772
-0.076291047 0.12743825 0.41523883
-0.074776649 0.12888639 0.416632
-0.14358783 0.12975258 0.41459697
-0.075192496 0.12980936 0.41478035
-0.074087963 0.13092931 0.41572428
-0.14097078 0.13424009 0.41459823
-0.072971165 0.1333959 0.41527191
-0.071775243 0.13453141 0.41665918
-0.14044625 0.13595197 0.4152585
-0.13755256 0.1401695 0.41443938
-0.13693038 0.1429328 0.41595525
-0.13346756 0.14767419 0.4145216
-0.1305099 0.15294713 0.4146271
-0.13015987 0.15491651 0.41589847
-0.12659103 0.15945241 0.41404057
-0.12594295 0.16107243 0.41436553
-0.12523741 0.16262169 0.41450417
0.092720613 -0.066229008 0.41961393
0.095072463 -0.067343965 0.41831297
0.097843207 -0.068376906 0.41886154
0.1002625 -0.068480961 0.41949901
0.10740735 -0.067208879 0.41785988
0.10964952 -0.066923916 0.41922507
0.088819064 -0.063622676 0.41906738
0.091639936 -0.065242052 0.41814625
0.11208516 -0.06453523 0.41844139
0.086357445 -0.060387373 0.41934526
0.08778391 -0.061760731 0.41818553
0.11321057 -0.062811173 0.41702312
0.11642164 -0.060538363 0.41864848
0.085872576 -0.058381945 0.41870707
0.087059803 -0.059924282 0.41787404
0.11604434 -0.05864089 0.41793752
0.11837185 -0.057610411 0.41931856
0.12002373 -0.057172187 0.41980493
0.083642252 -0.054500081 0.41963637
0.085022226 -0.055827074 0.41823927
0.11826789 -0.056497324 0.41761479
0.12026786 -0.055798981 0.41802144
0.083623566 -0.052595541 0.41954258
0.084562331 -0.052502435 0.41820043
0.11998558 -0.051529858 0.41704032
0.12063923 -0.052455712 0.41843522
0.085196435 -0.049500491 0.41851357
0.12171932 -0.050119054 0.41782555
0.086057432 -0.046673581 0.41864508
0.087358162 -0.045561977 0.41750038
0.12467705 -0.04684848 0.41890216
0.086489402 -0.043963201 0.41949543
0.087703019 -0.043587569 0.41806871
0.12550868 -0.044475276 0.41789693
0.12632063 -0.042987458 0.41808939
0.088670418 -0.040751267 0.41836846
0.12777245 -0.040765867 0.41852015
0.089395531 -0.038077679 0.41940263
0.090836875 -0.03745177 0.41791591
0.13036139 -0.038163356 0.41895613
0.091809466 -0.034940407 0.4186506
0.093392983 -0.03389255 0.41754538
0.13281682 -0.034335881 0.41835785
0.092536598 -0.032359228 0.41963804
0.094131187 -0.031574484 0.41819975
0.13395661 -0.031922989 0.41838288
0.13510136 -0.03141012 0.41959587
0.095082305 -0.028946506 0.41880664
0.09638308 -0.028108418 0.41777343
0.13448307 -0.029383201 0.41767558
0.13575457 -0.028481722 0.41880837
0.0957717 -0.0264979 0.41971678
0.097197331 -0.0255525 0.41841006
0.13671413 -0.026435876 0.4187386
0.098247163 -0.023039971 0.41879812
0.099592924 -0.021978289 0.41775188
0.13789093 -0.023044785 0.41887313
0.098807916 -0.020821592 0.41975018
0.1005309 -0.019602805 0.4185237
0.10203141 -0.018448483 0.4174498
0.13883312 -0.02004947 0.41943696
0.10127101 -0.016925571 0.41936994
0.10263239 -0.016455889 0.41785464
0.1400032 -0.016477939 0.41841057
0.10189125 -0.014772337 0.41997582
0.10364126 -0.013588658 0.41852623
0.10508332 -0.01242921 0.41760844
0.14236128 -0.013469852 0.41869
0.10457519 -0.01115688 0.41934699
0.10601405 -0.010368469 0.41806436
0.10693543 -0.0077973767 0.41896555
0.1084213 -0.0070067821 0.41769987
0.14644644 -0.0067766635 0.4174158
0.14788681 -0.0064298613 0.41936517
0.10789479 -0.0052998886 0.41975445
0.10946311 -0.004385802 0.41833973
0.1478508 -0.0045991498 0.41797957
0.11015686 -0.0016628833 0.41914469
0.11144181 -0.0013448064 0.41764453
0.14855193 -0.0015108226 0.41910747
0.1109075 0.00075721572 0.41969422
0.11227636 0.0016175946 0.41835213
0.14763868 0.002074626 0.41812548
0.11324494 0.0042943987 0.4189252
0.11445711 0.0050487341 0.41772991
0.14914246 0.0042989845 0.41821995
0.15054122 0.0049162423 0.41938549
0.1139029 0.0064330539 0.4195734
0.11549489 0.0076531111 0.41829592
0.14870754 0.0081644421 0.41777503
0.15070359 0.0072970563 0.41843542
0.11632381 0.010300379 0.41909435
0.11763148 0.010831144 0.41769797
0.14007287 0.011672711 0.41749349
0.14250873 0.011090849 0.4182362
0.14541493 0.010198667 0.41878328
0.11698269 0.012493297 0.41976169
0.11853213 0.013590308 0.41855279
0.12032559 0.014429147 0.41735029
0.13404071 0.014516687 0.41805726
0.13658392 0.013847967 0.41872787
0.1392104 0.01276595 0.41875011
0.14118871 0.012491227 0.41969213
0.11961652 0.015755719 0.4192628
0.12132531 0.016699938 0.41842285
0.12313864 0.017698826 0.41752866
0.13042422 0.016962958 0.41794679
0.13270238 0.016068719 0.41919112
0.12232139 0.018836316 0.41937628
0.12390722 0.019415122 0.41843119
0.12762605 0.019246584 0.41841584
0.12964277 0.018520396 0.41907704
-0.13516563 0.040286135 0.41745675
-0.13331525 0.040948279 0.41858667
-0.13249893 0.043161601 0.41759634
-0.13085753 0.044005737 0.41868702
-0.12891378 0.044987507 0.41916463
-0.12952402 0.045559395 0.41747671
-0.12743747 0.046137288 0.4183813
-0.12477404 0.047356229 0.41872263
-0.12336565 0.048818976 0.41744745
-0.12147674 0.049547251 0.41838947
-0.11957981 0.05052818 0.41913533
-0.12000265 0.05153719 0.41709965
-0.11829729 0.052517675 0.4185234
-0.11734273 0.054843679 0.41745177
-0.11623166 0.055735908 0.41869465
-0.11489616 0.058527432 0.41818228
-0.11390498 0.05903358 0.41958109
-0.17350566 0.062477127 0.41730386
-0.11407349 0.060613308 0.4174282
-0.11301427 0.061465636 0.41857788
-0.17319654 0.065026656 0.41837433
-0.11168245 0.064248584 0.41806284
-0.11067405 0.06489069 0.41952723
-0.17255983 0.066833898 0.41866165
-0.10962585 0.067539878 0.41836202
-0.10840926 0.069758698 0.41808972
-0.10752635 0.070802018 0.41869077
-0.17234214 0.073535979 0.4181335
-0.10615624 0.073328204 0.41837725
-0.10484406 0.074564189 0.41966596
-0.17212109 0.075703152 0.4175972
-0.10515775 0.075381652 0.4179042
-0.10413356 0.076571465 0.41864043
-0.1027701 0.07924594 0.4182297
-0.10174634 0.080186442 0.41937852
-0.17170866 0.081137054 0.41842774
-0.10082582 0.082548387 0.41847935
-0.099650137 0.085037209 0.41812429
-0.098608598 0.086215816 0.41890711
-0.16816039 0.087654077 0.41711506
-0.16777545 0.08935456 0.41803059
-0.097505592 0.088448048 0.41849908
-0.096426226 0.09069635 0.41796079
-0.095442496 0.091773212 0.41874999
-0.09407562 0.094390191 0.41835058
-0.092732579 0.095760584 0.41966808
-0.093076408 0.096467614 0.41781336
-0.092036784 0.097700253 0.41857475
-0.090744868 0.10017385 0.4181861
-0.089620352 0.10134257 0.41927403
-0.08868093 0.10354431 0.41841567
-0.087424375 0.1058295 0.41817713
-0.08638563 0.10716394 0.41887346
-0.15692139 0.10800105 0.41723981
-0.085272335 0.10942129 0.41835514
-0.084291458 0.11142585 0.41785288
-0.083128832 0.11295283 0.41858077
-0.08178883 0.11541021 0.4183329
-0.080622643 0.11658083 0.41967887
-0.079997025 0.11848753 0.41839275
-0.078620709 0.12097638 0.41823789
-0.077645816 0.12223054 0.4189373
-0.076605611 0.12438782 0.41841906
-0.075411156 0.12669127 0.41806901
-0.074402675 0.12803358 0.4187623
-0.073173001 0.1304649 0.41840771
-0.072366118 0.13229515 0.41790396
-0.071356677 0.13384219 0.41861761
-0.12998408 0.15711118 0.41774449
0.098783113 -0.069528796 0.42126298
0.10072798 -0.069758289 0.42081088
0.10326936 -0.069914706 0.42162439
0.10625354 -0.069692969 0.42225766
0.092408739 -0.066549502 0.42164451
0.093929239 -0.067563526 0.42164299
0.096837908 -0.068735927 0.42106089
0.10190585 -0.068568625 0.42003602
0.10355413 -0.068656549 0.42057464
0.10644849 -0.068810947 0.42152047
0.10916716 -0.068595313 0.42174861
0.08826153 -0.063913643 0.42181408
0.090863168 -0.065518267 0.42153367
0.11506667 -0.064011157 0.42245808
0.085898422 -0.061193567 0.42142686
0.087087408 -0.062748566 0.42165723
0.11612345 -0.062236693 0.42076501
0.11824881 -0.060455177 0.42157617
0.083593398 -0.057716951 0.42193937
0.084532842 -0.058794446 0.42124933
0.11873153 -0.0588913 0.42126605
0.12031168 -0.05863357 0.42214531
0.082993448 -0.055548586 0.42159036
0.12206665 -0.054378603 0.42163017
0.08259277 -0.052363463 0.42141941
0.12225056 -0.052576561 0.42139307
0.12301964 -0.05217861 0.4222908
0.083063759 -0.049545582 0.42164737
0.084508896 -0.048128385 0.42018181
0.12356146 -0.04965242 0.42024806
0.083403029 -0.046842609 0.42226002
0.084581718 -0.046024341 0.42096686
0.12694462 -0.046035256 0.42183283
0.08353848 -0.044630144 0.42294326
0.085266449 -0.043254949 0.42143658
0.12774158 -0.043677602 0.42111516
0.12910277 -0.04227259 0.42225572
0.086080432 -0.0405377 0.42188963
0.087637745 -0.039531596 0.42065054
0.1285959 -0.041347947 0.42059791
0.13072127 -0.04001642 0.4225626
0.086534217 -0.038502008 0.42267025
0.088311896 -0.037175048 0.42145798
0.13260324 -0.036855344 0.42127764
0.089141577 -0.034649365 0.42218399
0.090644903 -0.033870194 0.42091274
0.091547295 -0.031259466 0.42165372
0.13577986 -0.031479377 0.42052478
0.09250357 -0.029006463 0.42208034
0.093669578 -0.028276019 0.42109916
0.13681711 -0.028424608 0.42021629
0.09479142 -0.025708105 0.42157894
0.096012205 -0.024667166 0.42077079
0.13767689 -0.026928538 0.42052722
0.13855396 -0.025053794 0.42088723
0.095623732 -0.023238728 0.42240754
0.096900918 -0.022595288 0.42106411
0.13833478 -0.023876961 0.42022142
0.097825661 -0.019986339 0.42179912
0.099282198 -0.018844651 0.42069128
0.14013587 -0.019658538 0.42184106
0.098543167 -0.017344911 0.4226746
0.10000426 -0.016529983 0.42133901
0.14055066 -0.017047923 0.42004773
0.14206514 -0.016630849 0.42229605
0.10107104 -0.013865274 0.42172992
0.10243203 -0.012898671 0.42064244
0.14305742 -0.014040119 0.42073509
0.1017933 -0.01143723 0.42271495
0.10347365 -0.010562506 0.42128369
0.14477572 -0.011019674 0.42131841
0.10431319 -0.0079986611 0.42233428
0.10575964 -0.0072977683 0.42096913
0.10666243 -0.0046724603 0.42172927
0.10808894 -0.0037924389 0.42050976
0.10756093 -0.0017774488 0.42240849
0.1088303 -0.0013665922 0.42103252
0.10968502 0.0014129848 0.42165142
0.11110455 0.0022753468 0.42043984
0.14943862 0.0015189117 0.42107353
0.15092483 0.002286901 0.42257589
0.11060199 0.004317909 0.42238283
0.11187907 0.0047096349 0.42107359
0.15104897 0.004173778 0.42080003
0.11280128 0.0074034994 0.42177138
0.11429404 0.0081505701 0.42031652
0.11365807 0.0097784288 0.42241475
0.11505036 0.010842213 0.42122191
0.11598003 0.013507177 0.42185596
0.11736894 0.014221046 0.42046773
0.137449 0.014808004 0.42098981
0.11673378 0.015877863 0.42251566
0.11848557 0.016797375 0.4213405
0.12023237 0.017826252 0.4205347
0.13146767 0.017806862 0.42007726
0.13377878 0.016977066 0.42139196
0.11939617 0.018972522 0.42240876
0.12130227 0.019982645 0.4214322
0.12424549 0.020897366 0.42127776
0.12761149 0.020129126 0.42110339
0.12202314 0.021735357 0.42279673
-0.13271043 0.03963517 0.4212186
-0.1313161 0.040792622 0.42172256
-0.1302021 0.042939864 0.42133579
-0.12806295 0.044251535 0.42176047
-0.12689158 0.045331944 0.42060804
-0.12447874 0.046285722 0.42160541
-0.12215809 0.047569707 0.42194915
-0.12109955 0.048645709 0.42091459
-0.11890762 0.049941104 0.4218924
-0.11761604 0.051860113 0.42094564
-0.1165372 0.053054214 0.42198819
-0.1152502 0.055535153 0.42148593
-0.11441422 0.05752328 0.42052665
-0.11325191 0.058860257 0.42173123
-0.11195441 0.061484031 0.4211033
-0.11090244 0.062501416 0.42255944
-0.11111391 0.063331135 0.42047527
-0.10983882 0.064808443 0.42169887
-0.10868314 0.067297846 0.42097706
-0.10774764 0.06815052 0.42214438
-0.10659189 0.070588849 0.42140961
-0.1053336 0.073068954 0.42086649
-0.10441148 0.074089535 0.42199776
-0.10314354 0.076629899 0.42131254
-0.10211348 0.078578025 0.42089179
-0.10132351 0.079697877 0.4214679
-0.099778622 0.082483217 0.42145324
-0.098807134 0.083547339 0.42298815
-0.098073684 0.085529462 0.42147899
-0.096672334 0.088096343 0.42128769
-0.09574303 0.089401744 0.42181787
-0.0946991 0.091430418 0.42134705
-0.093390115 0.093693987 0.4212698
-0.092449799 0.095036939 0.42183566
-0.091172956 0.097461797 0.42137069
-0.090096965 0.099220708 0.42150378
-0.089303441 0.10070348 0.42135036
-0.087726012 0.10335393 0.4214806
-0.086543769 0.10484377 0.42271692
-0.086012855 0.10636687 0.42136616
-0.084612936 0.10880684 0.42133379
-0.083677426 0.11042982 0.42134157
-0.08247143 0.11249577 0.42139176
-0.081348613 0.11442029 0.42148376
-0.080378674 0.11600474 0.42171201
-0.078937784 0.11856011 0.42160231
-0.078433543 0.12011321 0.42011788
-0.0771759 0.12165686 0.42152959
-0.075739771 0.12420523 0.42147246
-0.074928328 0.12551415 0.42171544
-0.07394018 0.12735179 0.42150491
-0.072587036 0.12984623 0.42137623
-0.071715981 0.13125761 0.42183933
-0.070817418 0.13331632 0.42139888
0.096570581 -0.069088042 0.42321786
0.091865361 -0.06698548 0.4244076
0.094477415 -0.068467438 0.4241024
0.11328319 -0.066592388 0.42434007
0.086472489 -0.063133135 0.42424148
0.088455513 -0.064714745 0.42457524
0.11422689 -0.065327086 0.42358136
0.083872743 -0.060127951 0.42463562
0.085250951 -0.061813198 0.42463613
0.11904501 -0.061629009 0.42441759
0.12060341 -0.060110271 0.42451078
0.082584403 -0.058278508 0.42441827
0.11959113 -0.059986606 0.42363742
0.08091934 -0.054457702 0.42521593
0.081724145 -0.055813342 0.424279
0.080492623 -0.052328605 0.42527965
0.081384167 -0.052727956 0.42364299
0.12392939 -0.052403241 0.4241021
0.080607638 -0.049701493 0.42530814
0.081658624 -0.049428355 0.42374668
0.12535842 -0.049303316 0.42376047
0.080964595 -0.047581006 0.42545375
0.081991009 -0.046486478 0.42435777
0.12719738 -0.046981998 0.4235177
0.082699016 -0.043647271 0.42451528
0.084329247 -0.042355414 0.42308304
0.12884152 -0.04473133 0.42390215
0.13025877 -0.042907748 0.42478108
0.083456144 -0.040769249 0.42511708
0.084721692 -0.040258415 0.42377448
0.13103259 -0.041377701 0.4248057
0.085478686 -0.03754802 0.42456454
0.087397777 -0.036256719 0.42315999
0.13343292 -0.03747049 0.42391747
0.086391635 -0.035144422 0.4250977
0.087830037 -0.034045383 0.42414618
0.088815287 -0.0315523 0.42469907
0.090506047 -0.030550376 0.4234176
0.089443564 -0.029174536 0.4256306
0.091134667 -0.028177643 0.42435175
0.092133477 -0.025677431 0.42493954
0.093658999 -0.024629658 0.4238641
0.092594646 -0.023436818 0.42599893
0.094575219 -0.022207996 0.42454854
0.14077713 -0.021864567 0.42531011
0.095312141 -0.019445898 0.42555296
0.096494757 -0.019221965 0.42414573
0.14169535 -0.019531427 0.42461386
0.097456001 -0.016680183 0.42446819
0.14328575 -0.016856275 0.42478457
0.098212734 -0.01418813 0.42518964
0.099685602 -0.013463668 0.42384234
0.14411429 -0.014908375 0.42384335
0.10062134 -0.010799628 0.42463967
0.10237472 -0.0095499102 0.42354441
0.14634144 -0.010316499 0.42365101
0.10150108 -0.0082502626 0.42548576
0.10309832 -0.0074458648 0.42422783
0.10396516 -0.0049167816 0.42484426
0.10538985 -0.0040502856 0.42368698
0.10478634 -0.0023028185 0.42558044
0.10622669 -0.0014210163 0.42433
0.10708287 0.0013802092 0.42494789
0.10836405 0.0017831681 0.42356226
0.15099007 0.0011467601 0.42382929
0.10784027 0.0038378965 0.42551446
0.10927201 0.0047016158 0.4242664
0.1101862 0.0073689171 0.4250257
0.11164368 0.0080256546 0.4237209
0.11098371 0.0096006673 0.42579553
0.11258824 0.01072324 0.42461008
0.11413763 0.011833667 0.42325035
0.11357163 0.013266909 0.42513365
0.1147112 0.014153702 0.42411968
0.11550412 0.016584843 0.42460984
0.11720499 0.017561913 0.42329919
0.11635029 0.018795332 0.42529264
0.11817317 0.019747239 0.42431265
0.12633583 0.020992359 0.42319277
0.11904289 0.021566216 0.42509371
0.1206612 0.022066915 0.4242661
0.12452356 0.021839311 0.42481884
-0.13245951 0.038554493 0.42324644
-0.1317424 0.038680386 0.42462844
-0.13045305 0.040539 0.42440033
-0.12934199 0.042476356 0.42429113
-0.12757675 0.043687679 0.42450157
-0.12532739 0.044842329 0.42495406
-0.12414251 0.045716614 0.42417744
-0.12157338 0.04719124 0.42463347
-0.12021875 0.048469149 0.42315683
-0.1183925 0.049577244 0.42447877
-0.11693446 0.050991092 0.42509142
-0.11714547 0.051513482 0.4230842
-0.1161014 0.052663531 0.42445058
-0.11466395 0.055172067 0.42439383
-0.11384373 0.056346897 0.42500335
-0.11270301 0.058495332 0.4244636
-0.11147048 0.060801618 0.42399684
-0.11058209 0.061902549 0.42499068
-0.10933491 0.064343043 0.42436874
-0.10819789 0.066524178 0.42390841
-0.10737605 0.06766773 0.42469117
-0.10592885 0.070378162 0.42435157
-0.10481498 0.071796343 0.42569682
-0.10505725 0.072202981 0.42357761
-0.10398261 0.073679455 0.42453977
-0.10271052 0.0760355 0.42425796
-0.1017829 0.077518418 0.42479625
-0.10067923 0.079624623 0.4244498
-0.099478267 0.081878439 0.42422599
-0.098641753 0.083328992 0.42446712
-0.097446069 0.085384309 0.42453927
-0.096302591 0.087373905 0.42428252
-0.09535744 0.088846721 0.42461714
-0.093866713 0.09148486 0.42441896
-0.092996873 0.092996873 0.42432806
-0.092071064 0.094558917 0.42447242
-0.090632498 0.097015776 0.42461106
-0.089714505 0.098647885 0.42449427
-0.088596731 0.10065156 0.42433447
-0.087348625 0.10267334 0.4247801
-0.086540207 0.104155 0.42457306
-0.085193649 0.10654649 0.42443758
-0.084436588 0.10812467 0.42362157
-0.083331004 0.10970405 0.42466575
-0.081877507 0.11239175 0.42422497
-0.080880776 0.1138464 0.4250133
-0.079997972 0.11559538 0.42439994
-0.078627311 0.1180364 0.42423099
-0.077807039 0.11920094 0.42497417
-0.076728612 0.12131124 0.42431143
-0.075399913 0.12362427 0.42436966
-0.074567042 0.12499287 0.42485982
-0.073291071 0.127446 0.42435038
-0.072298288 0.12929499 0.4241367
-0.071418732 0.13077471 0.42459458
-0.070152506 0.13358025 0.42438278
0.09150853 -0.067380361 0.4269098
0.085721642 -0.06371244 0.42813766
0.088601589 -0.065488227 0.4271217
0.11769941 -0.063850626 0.42647544
0.083415024 -0.060794562 0.42752644
0.084578611 -0.061990649 0.42690897
0.080773145 -0.057584684 0.42850944
0.081963658 -0.058832549 0.42746258
0.080238901 -0.055347767 0.42743096
0.081083402 -0.056489386 0.42607808
0.079236872 -0.052310765 0.42773253
0.079215869 -0.049299713 0.42781413
0.12696694 -0.04978339 0.42789227
0.079707742 -0.046365805 0.42758545
0.080076553 -0.043397456 0.42809495
0.081293032 -0.043607272 0.4263719
0.080771327 -0.040965199 0.42849979
0.081937417 -0.040582906 0.42719606
0.08281076 -0.037829977 0.42767736
0.084231071 -0.036923029 0.42644978
0.083600909 -0.035037156 0.42847738
0.085173987 -0.034467485 0.42700362
0.085986495 -0.031834844 0.42785275
0.087533422 -0.030973133 0.4266116
0.086715765 -0.0295066 0.42859289
0.088473082 -0.028408019 0.42730567
0.089356676 -0.025640404 0.42815977
0.090922333 -0.025111586 0.42671716
0.0916778 -0.022450211 0.42770255
0.09344618 -0.021534733 0.42637813
0.092570446 -0.020213353 0.42825857
0.093968935 -0.019066228 0.42741612
0.14304355 -0.018842205 0.4263494
0.095056482 -0.016310841 0.42769688
0.096540809 -0.01538481 0.4264586
0.095505148 -0.013919601 0.4287158
0.096892558 -0.013412245 0.42733645
0.09785644 -0.011032606 0.42773342
0.099415921 -0.0098771779 0.42669424
0.098585285 -0.0085052019 0.42865866
0.10032044 -0.0076298518 0.42727268
0.10120032 -0.0050186487 0.42809433
0.10269807 -0.0041385023 0.42687467
0.10175133 -0.0027082104 0.42896715
0.10360289 -0.0016187972 0.42746076
0.10501581 -0.00038467333 0.42651248
0.10442352 0.0012880351 0.42829111
0.10572219 0.0016944964 0.42688185
0.10668091 0.0045493152 0.4274362
0.10807151 0.0057689417 0.42642686
0.10751528 0.0074687381 0.42829704
0.10897438 0.0079468833 0.42695367
0.10990518 0.010611671 0.42782915
0.11139846 0.011351811 0.42664891
0.1106906 0.013014871 0.42862681
0.1122352 0.013740816 0.42715499
0.11274914 0.01617514 0.42779052
0.11421049 0.016920228 0.42637253
0.11355867 0.018540435 0.42826632
0.11514673 0.019473566 0.42721635
0.11621225 0.021786964 0.42808262
0.11807076 0.022805801 0.42735708
0.12160153 0.023242572 0.42712474
-0.13114795 0.038572688 0.42768469
-0.12982695 0.04026404 0.42750877
-0.1289991 0.041972842 0.42695445
-0.12754136 0.043070842 0.42766368
-0.12561926 0.044313725 0.42724806
-0.12388251 0.04531613 0.42701569
-0.12148698 0.046666618 0.42762333
-0.11826441 0.049044773 0.42743853
-0.11663643 0.050594248 0.42822254
-0.11564028 0.052423969 0.42739618
-0.1145432 0.05451398 0.4266583
-0.11346938 0.05607871 0.42763931
-0.11215703 0.058418728 0.42734212
-0.11115699 0.060386326 0.42646033
-0.11013702 0.061872892 0.42762265
-0.10874832 0.064453222 0.42707327
-0.10697937 0.067463748 0.42744321
-0.10551079 0.07005731 0.42727098
-0.10463036 0.07142663 0.42808312
-0.10370848 0.073251262 0.42746902
-0.10245568 0.075460114 0.42760292
-0.10164396 0.076972157 0.42743292
-0.10026453 0.079441294 0.42758039
-0.099354804 0.081255883 0.42698443
-0.098417215 0.082871467 0.42737281
-0.096776932 0.085595265 0.42750403
-0.095061146 0.088509627 0.42730084
-0.093715921 0.090785317 0.42761272
-0.092826039 0.092440441 0.42706349
-0.091579922 0.094553314 0.42741314
-0.090391494 0.096563809 0.42769638
-0.089569487 0.098051451 0.42745519
-0.088260837 0.10037475 0.42734233
-0.087380044 0.10200755 0.42680165
-0.086344399 0.10368886 0.4273909
-0.084797747 0.10638222 0.427369
-0.083861172 0.1078215 0.42849016
-0.082976758 0.10956553 0.42725468
-0.081609771 0.11197269 0.42722702
-0.080673762 0.11348316 0.42798221
-0.07962317 0.1154539 0.42717996
-0.078434713 0.11755562 0.42735314
-0.077510245 0.11915624 0.42756557
-0.076290749 0.12137 0.42721426
-0.075166024 0.12334889 0.42739224
-0.074298471 0.12485984 0.42794749
-0.072981581 0.12733293 0.42739412
-0.072052032 0.12907717 0.42721283
-0.071183972 0.13067703 0.42740485
-0.069886379 0.13333067 0.42743853
0.088001117 -0.065516248 0.42983523
0.082658678 -0.060926676 0.43028018
0.084037885 -0.062350687 0.42939308
0.080406383 -0.058071494 0.43068898
0.081476361 -0.059361998 0.43018648
0.07924623 -0.055400316 0.43041864
0.077372029 -0.05171144 0.43109727
0.078378245 -0.053157698 0.43021575
0.077386171 -0.049625114 0.43078393
0.077338383 -0.046636656 0.43091118
0.078586511 -0.046067733 0.42923155
0.07744924 -0.043978404 0.43152282
0.078607172 -0.043300074 0.43019611
0.079586923 -0.040376671 0.43046486
0.080250449 -0.037596826 0.43123972
0.081522897 -0.03693248 0.42991826
0.080643602 -0.035452019 0.43195575
0.082328297 -0.034303427 0.43058458
0.083326422 -0.031878568 0.43105659
0.084592283 -0.031491704 0.42975229
0.083744988 -0.02999239 0.43187696
0.085446782 -0.028741186 0.43064451
0.087111242 -0.027875407 0.4292708
0.086481936 -0.025931126 0.43128181
0.087877452 -0.02543984 0.42999148
0.088757455 -0.022646982 0.43082383
0.090443127 -0.021884248 0.42946598
0.089711927 -0.020043828 0.43153831
0.091397427 -0.019287851 0.43018606
0.092287712 -0.01648232 0.43102804
0.093645878 -0.016016239 0.42964748
0.094366752 -0.013203594 0.43058613
0.095350243 -0.010594307 0.43107787
0.096684635 -0.010268869 0.42966214
0.097457945 -0.0077653574 0.43051675
0.099445216 -0.0065780883 0.42903274
0.098378234 -0.0053656274 0.43114209
0.09984386 -0.0043375264 0.43014815
0.10079069 -0.0017202755 0.43077296
0.10240716 -0.0006453906 0.42955589
0.10157555 0.00077853783 0.43150753
0.10305422 0.0016635798 0.43025854
0.1040877 0.0044025145 0.43063518
0.10539029 0.0054246797 0.4296084
0.10467926 0.0070047271 0.43146741
0.10614993 0.0078718374 0.43022305
0.10699439 0.010398559 0.4309988
0.10839858 0.010615473 0.42955261
0.10781366 0.012455208 0.43155256
0.10929607 0.013309188 0.43038818
0.11016245 0.016171101 0.43099862
0.11145528 0.01653141 0.42958727
0.11093768 0.018684432 0.43159252
0.11240842 0.019521249 0.430415
0.11418803 0.020515138 0.42917877
0.1133194 0.021699656 0.431178
0.11509212 0.022760637 0.43015036
0.11592694 0.024508236 0.43133152
0.11862983 0.024595657 0.43012971
-0.13096431 0.038473196 0.43088636
-0.12964712 0.039980762 0.43038505
-0.12873 0.041488521 0.4299162
-0.12763929 0.042675812 0.43016008
-0.12509356 0.0443382 0.43048009
-0.12328407 0.045359462 0.42985475
-0.12115062 0.046596982 0.43054086
-0.11947182 0.047711454 0.43008792
-0.11799242 0.048904575 0.43034795
-0.11652097 0.050492711 0.4306488
-0.11514413 0.052655574 0.43034247
-0.11416154 0.054565348 0.42907923
-0.11330236 0.055835076 0.43052053
-0.11175087 0.058590058 0.43022695
-0.11006662 0.061507773 0.43072423
-0.10865933 0.064031467 0.43027896
-0.10780403 0.065536067 0.42996523
-0.10668629 0.067455821 0.43066981
-0.10543133 0.069727354 0.43030432
-0.10459462 0.071238428 0.43005526
-0.10320985 0.073698483 0.43053311
-0.10222226 0.075402997 0.43095252
-0.10140264 0.07697244 0.42995045
-0.09998031 0.079471961 0.43067321
-0.099032633 0.081167921 0.43060377
-0.098187476 0.082664087 0.43030652
-0.096748441 0.085092321 0.43081135
-0.095877677 0.086561628 0.43038806
-0.094907992 0.088313669 0.4301002
-0.093351275 0.091021322 0.4306742
-0.092513807 0.092514388 0.43039212
-0.091335341 0.094595537 0.43020469
-0.09028095 0.096480504 0.42961544
-0.089414366 0.097958788 0.43066764
-0.08790414 0.10062859 0.43012181
-0.086189233 0.103658 0.43046615
-0.084634863 0.10637492 0.43045899
-0.082817294 0.1096039 0.43043223
-0.081368506 0.11215661 0.43029609
-0.080422685 0.11383501 0.43077242
-0.079455525 0.11556033 0.43044695
-0.078172937 0.11784278 0.43122113
-0.077457748 0.1190962 0.43013009
-0.076102681 0.12152925 0.43050954
-0.075090908 0.12333584 0.43138963
-0.074389532 0.12458638 0.43033412
-0.072757393 0.12752034 0.43063089
-0.071193852 0.13035583 0.43041539
0.087215297 -0.065313697 0.43363813
0.082773603 -0.061689511 0.43291321
0.079576157 -0.058137499 0.43378583
0.081026405 -0.059889082 0.43400615
0.077549577 -0.055013098 0.43382797
0.078519717 -0.056176133 0.43313894
0.076462276 -0.052461028 0.4334352
0.074862972 -0.049386144 0.4345836
0.075793922 -0.049227174 0.4331862
0.074873902 -0.046257116 0.43464711
0.075800993 -0.046496745 0.43322679
0.074924909 -0.0443273 0.43494317
0.076322399 -0.043677587 0.43329099
0.077120334 -0.040782429 0.43365729
0.07839372 -0.039781727 0.43243903
0.077652775 -0.038160309 0.43440479
0.079010844 -0.037250288 0.43310699
0.079874583 -0.034447081 0.43364397
0.081472754 -0.03352448 0.43222091
0.080556981 -0.032248732 0.43429124
0.081982538 -0.031055123 0.43333748
0.083167724 -0.028481001 0.43367302
0.084625721 -0.0276886 0.43239665
0.083518572 -0.026271099 0.43475354
0.085018933 -0.02567854 0.43327132
0.08598657 -0.022945751 0.43390197
0.087354459 -0.022092119 0.43277854
0.086623564 -0.020773977 0.43459371
0.088346101 -0.019545389 0.43343544
0.090067811 -0.018325485 0.43231201
0.089258038 -0.016844012 0.43433627
0.090815216 -0.016241588 0.43290347
0.091679893 -0.013408063 0.43361935
0.09322089 -0.012481279 0.43246901
0.092579566 -0.01044575 0.43434057
0.093841068 -0.010252627 0.4330838
0.094793893 -0.0078196181 0.43355307
0.096319668 -0.0070190579 0.43237215
0.095568612 -0.0054832725 0.4342767
0.09712366 -0.0044089989 0.4332321
0.09814328 -0.0017603185 0.43382943
0.099678218 -0.00097506901 0.43256316
0.098447934 0.00039222284 0.43488312
0.10036802 0.0015869042 0.43341854
0.10122003 0.0042197797 0.43406653
0.10266826 0.0050755497 0.43283567
0.10360067 0.0076471702 0.43324104
0.10401876 0.010015937 0.4342815
0.10556723 0.010651878 0.43283087
0.10472026 0.012158533 0.43486971
0.1066111 0.013213003 0.43342087
0.10805456 0.014433281 0.43251681
0.10744559 0.016189145 0.43426046
0.10877313 0.016554659 0.43289495
0.10968269 0.019445354 0.43367115
0.11115669 0.020281412 0.43244451
0.11058926 0.021804607 0.43430129
0.11234024 0.022877766 0.43331057
0.11417118 0.023769427 0.43204457
0.11333932 0.024986621 0.43423399
0.11560071 0.025414577 0.43350855
0.11813708 0.025790811 0.43325624
-0.13085163 0.038669582 0.43308583
-0.12957077 0.040237982 0.43315652
-0.12843947 0.041772109 0.43285486
-0.12722088 0.042926654 0.43269199
-0.12544905 0.044161193 0.43331331
-0.12406822 0.045008976 0.43395126
-0.1217389 0.046312116 0.43332535
-0.11815103 0.048822653 0.43306562
-0.11660927 0.050309684 0.43241581
-0.11529037 0.052369267 0.43332279
-0.11415283 0.054340485 0.43345934
-0.11328202 0.055923942 0.43361363
-0.11176616 0.058617473 0.43329465
-0.11020718 0.061428919 0.43382522
-0.10888183 0.063764237 0.43374124
-0.10798553 0.065103188 0.43224049
-0.10681403 0.067428142 0.43381801
-0.10553733 0.069577456 0.43339556
-0.10467085 0.071083218 0.43304452
-0.10337807 0.073480256 0.43335807
-0.10228962 0.075639457 0.43454099
-0.10142987 0.076951109 0.4331018
-0.10008816 0.079263389 0.43293014
-0.099151634 0.081124067 0.43452927
-0.098294526 0.082411095 0.43305612
-0.096961588 0.084840879 0.43349782
-0.095022224 0.088375539 0.43357205
-0.093704909 0.090582788 0.43290639
-0.092579581 0.092579581 0.43311831
-0.091277145 0.094923072 0.43311808
-0.090410128 0.096672297 0.43395507
-0.08949203 0.098089516 0.43329987
-0.088188253 0.10043311 0.43329585
-0.087317564 0.10219679 0.43414661
-0.086401887 0.10360407 0.43348154
-0.084876359 0.10639001 0.43368053
-0.08379218 0.10795551 0.43212035
-0.0828605 0.10982835 0.43336114
-0.081333943 0.11261821 0.43356341
-0.080698974 0.11344638 0.43225235
-0.079771876 0.11535563 0.43356889
-0.078240521 0.1181452 0.43375635
-0.077609263 0.11894887 0.43241441
-0.076686107 0.12089726 0.43380958
-0.07539326 0.12305117 0.43312663
-0.074292675 0.12512258 0.43354142
-0.07274083 0.1278823 0.43361446
-0.071027443 0.13073654 0.4327063
-0.070034996 0.1330263 0.43381217
0.085233793 -0.064023539 0.4355036
0.080888636 -0.060370542 0.43749523
0.081946999 -0.061460201 0.43682802
0.077714413 -0.057200961 0.4373962
0.079383641 -0.0588466 0.43789929
0.076404467 -0.055378418 0.43635866
0.074463919 -0.052086614 0.43684658
0.075431779 -0.053251199 0.43606144
0.073681183 -0.04949148 0.43645447
0.07360851 -0.046448741 0.4364481
0.073853798 -0.043459285 0.43673551
0.075049415 -0.042436197 0.43566597
0.074292324 -0.040499017 0.43737862
0.075605735 -0.04040122 0.43585655
0.076277129 -0.037578445 0.43647227
0.077031277 -0.034849197 0.43710494
0.078441352 -0.03430954 0.43559226
0.07773643 -0.032751899 0.43752015
0.079402432 -0.031452272 0.43633959
0.080338761 -0.028685199 0.43718982
0.081830576 -0.027997008 0.43568486
0.080952391 -0.02645761 0.43784004
0.082596064 -0.025290536 0.43658012
0.083427303 -0.023122951 0.43701831
0.084647976 -0.022411065 0.43595728
0.085690841 -0.019762842 0.43650579
0.087533697 -0.018448807 0.43522125
0.086372428 -0.017550541 0.4372946
0.088016011 -0.016199403 0.43632123
0.088993117 -0.013556804 0.4366115
0.090464734 -0.012437031 0.43547559
0.089382224 -0.010851918 0.43754539
0.091090225 -0.010114473 0.43614608
0.091909431 -0.0075849984 0.43689919
0.093302086 -0.00726745 0.4355799
0.092481673 -0.0056567504 0.43758473
0.09427581 -0.0046091983 0.43632513
0.095193215 -0.0018833753 0.4371506
0.096773125 -0.0012768196 0.43573248
0.095941111 0.00039481939 0.43776208
0.097640418 0.0015752132 0.43653899
0.099332169 0.0027483208 0.43532044
0.098422639 0.0042256238 0.4372623
0.099968188 0.0051130755 0.43604404
0.10072777 0.0073496886 0.43655571
0.10241528 0.0082403095 0.43507478
0.10135685 0.0095446482 0.43728247
0.10280804 0.010549577 0.43614015
0.10381738 0.01317821 0.43666154
0.1053972 0.014271514 0.43550751
0.10440178 0.015986126 0.43764544
0.1060359 0.016633755 0.43613774
0.10724608 0.019204747 0.43677366
0.10841696 0.020205652 0.43585682
0.10784056 0.02172612 0.43798491
0.1093889 0.022429062 0.43628758
0.11110978 0.023557123 0.43531686
0.11029107 0.024582507 0.43726122
0.11225808 0.025758352 0.43639106
0.11512502 0.026325608 0.43565559
0.11592942 0.027208135 0.43720928
-0.13114318 0.038988512 0.43665773
-0.12972464 0.040530253 0.43630227
-0.12794292 0.042909008 0.4364855
-0.12548225 0.044449821 0.43614537
-0.12437338 0.045406155 0.43778065
-0.12076673 0.047206581 0.43616822
-0.11815435 0.049066879 0.43523264
-0.11662786 0.050656546 0.43539712
-0.11565132 0.052317351 0.43615541
-0.11493216 0.054108959 0.43791345
-0.11396842 0.05560397 0.43724653
-0.11251421 0.057829931 0.43619409
-0.11109409 0.060061466 0.43525541
-0.10999066 0.062682852 0.43711054
-0.10850628 0.064867228 0.43589759
-0.10702678 0.067680344 0.43628204
-0.10546114 0.070438027 0.4363113
-0.10407223 0.072654195 0.43544033
-0.10296711 0.07535141 0.43741906
-0.10192944 0.076742247 0.43635461
-0.10028821 0.079577558 0.43606842
-0.098437637 0.083080485 0.43657559
-0.096578881 0.085978106 0.43529704
-0.094996631 0.089478157 0.43704972
-0.093553841 0.0915877 0.43583611
-0.092203043 0.093772456 0.43502787
-0.090530127 0.097219884 0.43641782
-0.089120477 0.099328116 0.43530267
-0.087065078 0.10361139 0.43680882
-0.086034015 0.10489079 0.43557781
-0.084142126 0.10942426 0.43799943
-0.083089098 0.1106542 0.43661761
-0.082027167 0.11185523 0.43516216
-0.080156103 0.11648301 0.43780452
-0.079021595 0.11754954 0.43590257
-0.076074928 0.1233754 0.43704274
-0.072060719 0.13033932 0.43660346
-0.071064398 0.13152803 0.43532458
0.077508114 -0.057634238 0.44070932
0.079459719 -0.058902975 0.43831936
0.074568205 -0.054507762 0.43900323
0.076194644 -0.056352343 0.44000912
0.073289029 -0.052293312 0.43924868
0.071496241 -0.049119271 0.4399156
0.072384864 -0.049443755 0.4385674
0.071425296 -0.046616077 0.43961984
0.072336018 -0.046642736 0.4382714
0.071455449 -0.043667164 0.44015449
0.072548755 -0.043276224 0.43860286
0.07188496 -0.040509291 0.44035119
0.073080339 -0.040221982 0.43894735
0.073815979 -0.03734431 0.4395611
0.074389488 -0.034812164 0.44029093
0.075722463 -0.034439377 0.43891969
0.076786853 -0.032050099 0.43962309
0.078351021 -0.030470006 0.43875441
0.077519611 -0.029815234 0.44077468
0.079041496 -0.028437817 0.43959695
0.080207296 -0.02556379 0.43994376
0.081297025 -0.024725139 0.43863493
0.080689803 -0.023451718 0.44071954
0.082096651 -0.022267573 0.43932042
0.083053082 -0.019830545 0.4397673
0.084435031 -0.019180527 0.4384954
0.083825573 -0.017480012 0.44048768
0.085374564 -0.016428543 0.43934393
0.086271919 -0.013650966 0.44000036
0.087570824 -0.013210463 0.43855295
0.086943187 -0.011513025 0.44018081
0.088343054 -0.010234209 0.43925217
0.089351185 -0.0076357988 0.43982443
0.090737939 -0.0073140995 0.43837556
0.089487299 -0.00596582 0.44097966
0.091526873 -0.0047547952 0.43932244
0.092548452 -0.0023827446 0.44040567
0.09393248 -0.0014253618 0.43908113
0.094946951 0.0014283478 0.43974414
0.096289158 0.0021751455 0.43844852
0.095734276 0.0039726002 0.4404434
0.097118311 0.004952108 0.43922153
0.098078005 0.0074380385 0.4398233
0.099526048 0.0080412263 0.4384819
0.098672427 0.0094037345 0.44055632
0.10030028 0.01049937 0.43927833
0.10126108 0.012992845 0.43986535
0.10266769 0.014120851 0.43895361
0.10338488 0.016737994 0.43945906
0.10426667 0.019187002 0.44013205
0.10603154 0.0198346 0.43885836
0.10680153 0.022110704 0.4399229
0.1083629 0.023333702 0.43850172
0.10765856 0.024233107 0.44047263
0.10927585 0.025502766 0.43952504
0.11106469 0.026481615 0.43823731
0.11036794 0.027393606 0.4401896
0.1127637 0.027696135 0.4395785
-0.11619177 0.05274234 0.43969086
-0.11199819 0.059758749 0.43879759
-0.11101644 0.061236829 0.43804696
-0.10799763 0.066855676 0.43862286
-0.10393556 0.073900953 0.4381755
-0.096042499 0.088137768 0.4382247
-0.092101291 0.095263571 0.43827781
-0.088131532 0.10235905 0.43819371
-0.077207126 0.1223436 0.43899789
0.08048299 -0.060561519 0.44176477
0.076707132 -0.057530411 0.44296852
0.078565456 -0.058891486 0.44219327
0.074029423 -0.055343192 0.44272718
0.075374573 -0.056231823 0.4421837
0.071536019 -0.05155389 0.44310984
0.072453752 -0.052687101 0.44188371
0.070733152 -0.049327362 0.44225991
0.070105441 -0.04641474 0.44201353
0.069863498 -0.043515 0.44265029
0.070681304 -0.040798653 0.44231492
0.071391031 -0.037813835 0.44320363
0.072247848 -0.037198763 0.4415988
0.073146522 -0.034198098 0.44230846
0.074249022 -0.031858865 0.44340312
0.075834922 -0.031051341 0.44221479
0.077044897 -0.028741833 0.44261938
0.078449875 -0.027477367 0.44153556
0.077924207 -0.026773958 0.44307521
0.078987554 -0.025451412 0.44232216
0.080094658 -0.022464681 0.44262969
0.081538685 -0.021080734 0.4410111
0.081853032 -0.019565199 0.44271517
0.083089255 -0.01670564 0.44221142
0.084040947 -0.015533634 0.4416194
0.083577067 -0.013995484 0.4433845
0.084778145 -0.013398153 0.44214448
0.086039439 -0.010693353 0.44279817
0.087484568 -0.0094255274 0.44157925
0.086871445 -0.0084069138 0.44387123
0.087980144 -0.0074692178 0.44254819
0.089217141 -0.005351305 0.44279885
0.090770476 -0.0038539488 0.44206527
0.091893509 -0.0021104666 0.44272277
0.093363419 -0.0003989916 0.44238812
0.09373419 0.0016409126 0.44267634
0.094996594 0.0046789804 0.44239572
0.095332503 0.0067998283 0.44350311
0.096620582 0.0076867216 0.44190446
0.097513348 0.010350726 0.44269893
0.099095598 0.011143474 0.44126013
0.098483719 0.012660396 0.44328383
0.10010757 0.013815009 0.44221833
0.10132878 0.016472377 0.44276074
0.10231528 0.017119264 0.44141495
0.10126095 0.018010842 0.4437733
0.1033233 0.019547652 0.44232377
0.10435037 0.021695966 0.44273284
0.10572129 0.022968726 0.44234386
0.1070055 0.025291622 0.44255617
0.10843299 0.026709694 0.44201171
0.10986263 0.027832141 0.44295228
0.11242672 0.028805325 0.44235128
0.079355024 -0.060019787 0.44662997
0.075858869 -0.057663832 0.44502869
0.07305143 -0.055210762 0.44553128
0.071250349 -0.052293081 0.445326
0.070247188 -0.049774431 0.44507965
0.069487244 -0.046593904 0.44534713
0.068796173 -0.043451097 0.44607496
0.068834662 -0.040656146 0.4463245
0.06961818 -0.040067669 0.44515863
0.070516557 -0.037669398 0.44551197
0.071542919 -0.035088737 0.44514528
0.072355896 -0.033364635 0.44570547
0.07359086 -0.031016044 0.44533661
0.074505672 -0.028996527 0.44653678
0.075664058 -0.028395373 0.44523209
0.076917842 -0.025879854 0.44558352
0.078154609 -0.024848949 0.44438529
0.077707663 -0.023352351 0.44642267
0.078822613 -0.022190619 0.44533294
0.080531806 -0.020233043 0.44571248
0.08177533 -0.018685745 0.4455542
0.082394511 -0.01647811 0.44563994
0.083202712 -0.014069234 0.44566867
0.083956964 -0.011649531 0.44539991
0.084946446 -0.01013262 0.44544458
0.086287796 -0.0077711199 0.4456856
0.08739081 -0.0062899305 0.44515899
0.088652797 -0.004522976 0.4457888
0.090149239 -0.0036059695 0.44424158
0.089826979 -0.0028196808 0.44662353
0.091417827 -0.0014349539 0.44540659
0.092763036 0.0013674892 0.44602257
0.093312629 0.0028033836 0.44404212
0.092928946 0.0040229242 0.44604501
0.093540989 0.0047378941 0.44513255
0.094547369 0.007340291 0.44540569
0.095491298 0.0097767925 0.44549122
0.096615888 0.011225303 0.4444994
0.097751088 0.01369389 0.44535878
0.099062771 0.014839362 0.44468573
0.098664701 0.016108811 0.44651431
0.099880032 0.016563538 0.44520411
0.10059315 0.018414058 0.44578487
0.10269636 0.019833548 0.44513965
0.10375912 0.02265607 0.44517294
0.10453246 0.024927337 0.44577837
0.10592275 0.025979685 0.44510442
0.10926285 0.028119277 0.44539523
0.11168375 0.029327188 0.44543797
0.071689062 -0.054678097 0.44907543
0.073077202 -0.056119874 0.44765937
0.070627339 -0.052701641 0.44833803
0.069555774 -0.049335185 0.44838366
0.068774089 -0.045309626 0.44856179
0.069135696 -0.046899334 0.4482764
0.068565525 -0.044222739 0.44984075
0.06902194 -0.039152797 0.44753885
0.069623128 -0.03727752 0.44829217
0.071095452 -0.034697212 0.44839698
0.072538927 -0.03129597 0.44832295
0.073759958 -0.028388062 0.44837475
0.07539317 -0.027012527 0.44702321
0.07466808 -0.026059633 0.44913039
0.075726829 -0.025196983 0.448208
0.07678695 -0.022898603 0.44857758
0.078009397 -0.021422271 0.44815609
0.079590626 -0.020099854 0.44871941
0.081336111 -0.018613845 0.44866997
0.081904702 -0.016785517 0.44846299
0.083564118 -0.013792351 0.44977286
0.084400237 -0.0092880642 0.44775149
0.085489713 -0.0071429033 0.44829381
0.086633146 -0.0052627958 0.44886202
0.087812372 -0.0040467358 0.44868207
0.089159556 -0.0025626356 0.44867179
0.090706825 -0.0009430495 0.44832182
0.092087403 0.0016190949 0.44881001
0.09236344 0.0042900033 0.44877443
0.092654549 0.0068788673 0.448612
0.093426064 0.0075102849 0.44765654
0.094284624 0.009307066 0.44866753
0.096867852 0.011753839 0.44938797
0.097262762 0.014932457 0.44747546
0.097991697 0.016688673 0.44817576
0.098690994 0.018201295 0.44846594
0.10043526 0.019342918 0.44866896
0.10223292 0.020204578 0.44803292
0.10299997 0.022587223 0.44836026
0.10378043 0.024632711 0.44773602
0.069567911 -0.051667396 0.45107892
0.06893371 -0.048947245 0.45225632
0.069452375 -0.050363347 0.45032975
0.068730809 -0.046770189 0.45092514
0.068898052 -0.043213725 0.45202237
0.069005661 -0.042056706 0.45272836
0.069039702 -0.041260414 0.4529517
0.070756279 -0.03456407 0.45087224
0.071916059 -0.032910742 0.45049742
0.072086491 -0.031766683 0.45156503
0.073097989 -0.028021414 0.45027092
0.074303292 -0.025579821 0.45019081
0.075988472 -0.022619972 0.45055118
0.077740692 -0.020757984 0.45128894
0.079588249 -0.019305669 0.45161
0.081012197 -0.01831934 0.45137447
0.081667662 -0.016367469 0.45140377
0.084129915 -0.012599166 0.45062965
0.084428728 -0.011419827 0.45223019
0.086680427 -0.0040689847 0.45121247
0.087359272 -0.0036568996 0.45051599
0.088768147 -0.00162833 0.45148626
0.09111651 0.0013579564 0.45168707
0.091814026 0.0046817544 0.45144537
0.092011511 0.0063686683 0.45075127
0.095513783 0.01016104 0.45064843
0.096753836 0.011022589 0.45264688
0.097171359 0.013417814 0.45079598
0.097476438 0.015090494 0.45221132
0.098301925 0.018685572 0.45038706
0.10094012 0.020350946 0.45128885
0.1017257 0.02165246 0.45297167
0.10236958 0.022371829 0.4510105
0.068450816 -0.046316016 0.45446643
0.079035968 -0.019041186 0.45405114
0.080616295 -0.017382501 0.4552716
0.081927404 -0.015566428 0.4541924
0.083413914 -0.013902536 0.45336604
0.084729418 -0.010233021 0.45384082
0.088826872 -0.00040934043 0.45386252
0.089736588 0.00082003849 0.45432341
0.090870366 0.0022129759 0.45425826
0.091285408 0.0040935432 0.45387489
0.097078256 0.011878775 0.45416462
0.097231634 0.012718062 0.45488217
0.10096013 0.020846019 0.45320284
0.083261177 -0.014014479 0.45701647
0.084381841 -0.012760181 0.45638862
0.29389781 0.18535338 0.50995886
0.28974408 0.18810369 0.50993365
0.29269657 0.18737361 0.50994945
0.28397602 0.19154009 0.50989926
0.28671813 0.19075362 0.5099141
0.28928056 0.19040088 0.50992727
0.29250899 0.1904068 0.50994313
0.27820918 0.19451649 0.50986564
0.28087404 0.19380662 0.50988001
0.28374341 0.19360773 0.50989443
0.28651032 0.19361289 0.50990802
0.28927732 0.19361806 0.50992161
0.29250571 0.19362408 0.50993752
0.27470279 0.19689946 0.50984418
0.27728525 0.19635291 0.50985789
0.2805129 0.19635899 0.50987369
0.28374067 0.19636512 0.5098896
0.28650755 0.19637036 0.50990319
0.28927457 0.19637556 0.50991678
0.29250297 0.19638169 0.50993258
0.26886758 0.20035753 0.50980949
0.27183336 0.1996844 0.50982523
0.27451587 0.19956426 0.50983864
0.27728215 0.19956958 0.50985217
0.28050977 0.19957578 0.50986803
0.28373754 0.19958198 0.50988388
0.28650436 0.1995873 0.50989747
0.28927132 0.19959264 0.50991106
0.29249969 0.19959883 0.50992692
0.26624674 0.20232919 0.50985348
0.26851961 0.20276909 0.50980347
0.27174661 0.20277537 0.50981927
0.27451277 0.20278078 0.50983298
0.27727905 0.20278618 0.50984645
0.28050664 0.20279248 0.50986236
0.28373438 0.2027988 0.50987828
0.28650117 0.20280421 0.50989181
0.28926814 0.20280962 0.5099054
0.29249641 0.20281591 0.50992119
0.26909336 0.20541213 0.50980169
0.27174401 0.20553225 0.5098145
0.27451015 0.20553775 0.50982815
0.27727646 0.20554322 0.50984168
0.28050396 0.20554961 0.50985748
0.28373167 0.20555599 0.50987333
0.28649843 0.20556147 0.50988692
0.28926536 0.20556696 0.50990051
0.29249361 0.20557334 0.50991637
0.26968068 0.2080657 0.50982541
0.27174142 0.20828909 0.50980967
0.27450752 0.20829464 0.5098232
0.27727377 0.2083002 0.50983679
0.28050131 0.20830667 0.50985265
0.28372896 0.20831315 0.50986844
0.28649569 0.2083187 0.50988203
0.28926262 0.20832425 0.50989568
0.29249081 0.20833071 0.50991142
0.27208447 0.21116145 0.50980622
0.27450445 0.21151097 0.50981754
0.2772707 0.21151662 0.50983113
0.28049815 0.21152318 0.50984693
0.28372577 0.21152975 0.50986272
0.2864925 0.21153539 0.50987637
0.28925934 0.21154104 0.5098899
0.29248756 0.2115476 0.50990582
0.27265823 0.21380451 0.50980443
0.27450642 0.21473116 0.50982118
0.27726761 0.21473294 0.50982547
0.28049502 0.21473964 0.50984126
0.28372264 0.2147463 0.50985712
0.28648934 0.21475202 0.50987065
0.28925619 0.21475774 0.50988424
0.29248431 0.21476442 0.50990009
0.27519053 0.21725567 0.50981075
0.27726495 0.21748975 0.50982058
0.28049234 0.2174965 0.50983638
0.2837199 0.21750328 0.50985217
0.28648657 0.21750906 0.50986582
0.28925338 0.21751486 0.50987941
0.29248154 0.21752165 0.50989527
0.27726275 0.21978706 0.50981653
0.2804901 0.21979389 0.50983232
0.28371763 0.21980071 0.50984818
0.28648427 0.21980657 0.50986177
0.28925109 0.21981241 0.50987536
0.29247916 0.21981925 0.50989121
0.26604217 0.20241337 0.51122767
0.26695761 0.20403519 0.51298678
0.26788345 0.20563869 0.5112226
0.26961076 0.2086712 0.51187623
0.27116561 0.21139373 0.51176214
0.27225271 0.21328765 0.51076883
0.27329767 0.21512944 0.51186424
0.27456209 0.21734209 0.51164156
0.27582592 0.21955363 0.51141626
0.27688015 0.22141168 0.51251274
0.26799572 0.20586507 0.51409173
0.26915348 0.20789772 0.51453233
0.27019975 0.20974196 0.51564223
0.27127466 0.21160948 0.51415473
0.27285951 0.2143895 0.51452017
0.27444649 0.21717317 0.5148856
0.27550802 0.2190173 0.51340127
0.27656537 0.22088093 0.51450801
0.27762759 0.22275311 0.51561785
0.26811045 0.20609614 0.51699406
0.26950708 0.2085457 0.51728851
0.27113715 0.21140261 0.5174343
