# .PCD v0.7 - Point Cloud Data file format
VERSION 0.7
FIELDS x y z rgb
SIZE 4 4 4 4
TYPE F F F U
COUNT 1 1 1 1
WIDTH 1147
HEIGHT 1
VIEWPOINT 0 0 0 1 0 0 0
POINTS 1147
DATA ascii
-0.12690522 0.08456289 0.40472093 6574403
-0.12447925 0.085146904 0.40379634 6511186
-0.12147792 0.085487776 0.40381706 6776422
-0.11891589 0.086075366 0.40458682 4408131
-0.12415258 0.088159204 0.40447316 6574661
-0.12149238 0.088754721 0.40331176 6908005
-0.1184995 0.088411324 0.40384167 5723991
-0.11606362 0.088797383 0.40456307 4210752
-0.12382782 0.090991735 0.40452504 6574661
-0.12153853 0.091681622 0.40370601 6972510
-0.11852627 0.091621533 0.40312296 6118748
-0.1155865 0.091428846 0.4041723 2894892
-0.11357456 0.09202826 0.4049117 5066061
-0.12340483 0.094196633 0.40481359 6574403
-0.12160748 0.094577529 0.40421218 6510670
-0.11856768 0.094563328 0.4032627 6381662
-0.11565822 0.094473146 0.40427062 3815994
-0.12147588 0.097764142 0.40446779 6708565
-0.11841509 0.097641841 0.40372339 6447711
-0.11537126 0.09761557 0.40452555 5000268
-0.1124116 0.097812369 0.40466937 4013373
-0.10995071 0.097936563 0.40477076 3355443
-0.12109137 0.1003445 0.40457654 6906973
-0.11866197 0.10045107 0.40383142 6972768
-0.11550705 0.10056762 0.40400767 6250335
-0.11229312 0.10062625 0.40424311 4934475
-0.10945518 0.10069885 0.40453476 2763306
-0.10774323 0.10189953 0.4049558 1644825
-0.12015286 0.10262296 0.40492809 6707534
-0.11832449 0.1032555 0.40422586 7103581
-0.11559057 0.10333158 0.40373349 6578011
-0.11241011 0.10354525 0.40393606 5987163
-0.10937493 0.10354161 0.40423778 3552822
-0.1072745 0.10404121 0.40476272 1842204
-0.11736344 0.10604702 0.4047541 6707020
-0.11548708 0.10637928 0.40393567 7169374
-0.11251669 0.10632677 0.40373778 6381148
-0.10936037 0.1064444 0.40418416 5197647
-0.10662621 0.1066265 0.40459871 2631720
-0.10481066 0.10736696 0.40491444 2105376
-0.11555114 0.10931726 0.40439132 7169115
-0.11255852 0.10928059 0.40388814 6380375
-0.10940363 0.10940393 0.40434402 5987163
-0.10658409 0.1095045 0.40471569 2763306
-0.10467446 0.10934944 0.40495268 1315860
-0.11487983 0.11232646 0.40436277 7168602
-0.11235901 0.1121879 0.40409493 6445394
-0.10943364 0.11235207 0.40445483 6118749
-0.1065964 0.11243743 0.4047623 2434341
-0.10376366 0.11277046 0.40486607 460551
-0.10189094 0.11321209 0.40492165 2763306
-0.1141929 0.1149229 0.40451479 6970707
-0.11226344 0.11538194 0.40413609 6706762
-0.10941907 0.11525488 0.40440091 6118490
-0.10656337 0.11532193 0.40463644 3158064
-0.10360873 0.11528257 0.40449873 2236962
-0.10158947 0.11558086 0.40469107 3289650
-0.11206453 0.11834734 0.40432674 6640453
-0.10939028 0.11850613 0.40429434 6182480
-0.10645916 0.11848996 0.40423998 5855320
-0.10348185 0.1184206 0.40400338 6250335
-0.10115127 0.11854772 0.4044368 6579300
-0.11155812 0.12104335 0.40448576 6574660
-0.1093541 0.12138292 0.40415931 6706504
-0.10634493 0.12127664 0.40380621 6381146
-0.10340115 0.12160544 0.40368757 6446683
-0.10058608 0.12164284 0.40416998 6579300
-0.098919645 0.12264567 0.4047184 6645349
-0.10587817 0.12303764 0.40480676 6640710
-0.10315347 0.12465822 0.40414202 6641227
-0.10052957 0.12456984 0.40385553 6316128
-0.097999595 0.12484555 0.4045811 5723990
-0.10319684 0.1276278 0.40431193 6707020
-0.10059302 0.12756421 0.40411034 5526611
-0.097721979 0.1278272 0.40473944 5395023
-0.10280566 0.130512 0.40420967 6904399
-0.10063969 0.13054022 0.40429744 5525320
-0.097450241 0.13066389 0.40468079 3619648
-0.10299345 0.13337162 0.40458956 5786177
-0.10062363 0.13343568 0.40423158 4012858
-0.097402915 0.13351911 0.40448493 202539
-0.10044327 0.13583991 0.40460566 136489
-0.09756019 0.1362657 0.40438017 70954
-0.095413923 0.13630573 0.40481564 5419
-0.097837731 0.13836023 0.40477318 5161
-0.13016602 0.071517631 0.40769339 5678
-0.12733653 0.071032204 0.40713841 202798
-0.12479868 0.071219116 0.40745902 4538945
-0.13567102 0.074637443 0.40766215 5677
-0.1335025 0.073848277 0.40736791 5677
-0.13059308 0.073365875 0.40673205 465454
-0.1273839 0.073530637 0.40604249 4867652
-0.12450556 0.07327684 0.40668884 5657679
-0.12169607 0.073772334 0.40748852 5329231
-0.13583291 0.076674007 0.40741161 5418
-0.1332849 0.076483987 0.40616855 1516594
-0.13029858 0.07638377 0.40563568 5196873
-0.12730633 0.076130837 0.40529346 5592145
-0.12442239 0.076482788 0.40575224 5197645
-0.12152027 0.076406702 0.40683106 5395024
-0.11904575 0.076759115 0.40770328 4671558
-0.13594823 0.07923729 0.40754744 530988
-0.13361768 0.079560049 0.40589026 3224375
-0.13147491 0.079148121 0.40515485 5919050
-0.12358952 0.079312302 0.40524849 5395025
-0.12142666 0.079461537 0.40601468 6184541
-0.11860611 0.079519235 0.40702385 6513506
-0.11640906 0.079996631 0.40780532 6645093
-0.13571073 0.08127933 0.40778148 6508611
-0.13360424 0.082401522 0.40696427 6508611
-0.13052334 0.08294072 0.40583119 6508611
-0.12860906 0.083303548 0.40510583 6574403
-0.12075915 0.082008921 0.40532896 6513507
-0.11835007 0.082452454 0.40614551 6645093
-0.11575346 0.082650043 0.4072904 6579300
-0.11367768 0.083510786 0.40790254 6908265
-0.13275525 0.084764823 0.40774059 6574403
-0.13054006 0.085302912 0.40687791 6574403
-0.12769334 0.085982449 0.40567717 6574403
-0.1181698 0.085022211 0.40536487 5592405
-0.1154441 0.085400566 0.40623137 5855577
-0.11293683 0.085758418 0.40722418 6118749
-0.12988512 0.087978981 0.40758121 6574403
-0.12741312 0.088607602 0.40644956 6574403
-0.12540443 0.088843554 0.4053764 6574403
-0.11481203 0.088079922 0.40522882 5131854
-0.11242049 0.088530362 0.40638551 5131854
-0.11016066 0.089120559 0.40748152 4342338
-0.12911397 0.0904902 0.407855 6574403
-0.12728567 0.091651961 0.40692571 6574403
-0.12510796 0.091571368 0.40543014 6574403
-0.11238761 0.091271162 0.40555063 3618615
-0.10952213 0.091597654 0.40678737 4473924
-0.10772403 0.092282139 0.40764737 4144959
-0.12745136 0.09451627 0.40724131 6574403
-0.12484636 0.094493888 0.40546256 6574403
-0.11435261 0.095354728 0.40508056 2500134
-0.11262364 0.094340697 0.40543357 2894892
-0.10947312 0.094462104 0.40595645 4210752
-0.1068648 0.094824553 0.40739238 4605510
-0.12701374 0.097646303 0.4070175 7168343
-0.12439679 0.097321823 0.40566477 7036242
-0.11435039 0.096083552 0.40507269 3289650
-0.11253572 0.096093841 0.40511608 2829099
-0.1090183 0.096953824 0.4053525 2631720
-0.10661767 0.097587138 0.40653279 3355443
-0.10454291 0.098047018 0.40766808 5000268
-0.12641358 0.10069042 0.40745094 7629927
-0.12440952 0.10028131 0.40621838 7695977
-0.12190624 0.10125315 0.40529275 7036500
-0.10655695 0.10038712 0.4058741 3618615
-0.10374723 0.10075637 0.40729579 4737096
-0.12415592 0.10349749 0.40741068 6640197
-0.12171543 0.10340289 0.40607771 6574660
-0.11928143 0.10466056 0.40527573 6574403
-0.10591379 0.10327999 0.40559781 3223857
-0.10352189 0.10352217 0.40660623 4934475
-0.10160991 0.10393859 0.407702 5263440
-0.12319553 0.10627937 0.40774611 6574403
-0.1214804 0.10643297 0.40692642 6574403
-0.11876412 0.10683588 0.40567142 6574403
-0.10558252 0.10558252 0.40507352 3421236
-0.10343137 0.10639427 0.40578324 4342338
-0.10095029 0.10670533 0.40726802 4802889
-0.12121524 0.10937489 0.40740621 6574403
-0.11857728 0.10944549 0.40603271 6574403
-0.11654328 0.11069785 0.40507573 6574403
-0.10300638 0.10953725 0.40528879 2368548
-0.10062667 0.10954153 0.40649688 4737096
-0.098669499 0.10982326 0.40770712 6052956
-0.12019206 0.11173851 0.40753761 6574403
-0.11846651 0.11235356 0.40665913 6574403
-0.1164612 0.11262223 0.40542614 6574403
-0.10356466 0.11160141 0.4050402 1184274
-0.10041294 0.11249415 0.40588993 4473924
-0.097885691 0.11252975 0.40736243 4868682
-0.11737788 0.11535738 0.40733808 6640711
-0.11567958 0.11560549 0.40588841 6574404
-0.10006917 0.11548517 0.40557572 6184542
-0.097539857 0.11545553 0.40703851 5526612
-0.095989875 0.11658541 0.40777877 5395026
-0.11729417 0.11802971 0.40768567 6970192
-0.11537836 0.11852982 0.40637431 6574403
-0.1137114 0.11919601 0.40539959 6574403
-0.099569581 0.11833809 0.405384 6513507
-0.097459167 0.11860573 0.40658128 4539716
-0.095506392 0.11867076 0.40767816 3487029
-0.11533801 0.12096971 0.40726867 6574403
-0.11311154 0.12153118 0.4058702 6574403
-0.099280231 0.1204764 0.40519735 6579299
-0.0974648 0.12153554 0.40581647 5921370
-0.094675027 0.12159444 0.40718907 5723991
-0.11443024 0.12326087 0.40796235 6574403
-0.11240357 0.12415829 0.40728414 6574403
-0.10932147 0.12432612 0.40662938 6574403
-0.10675014 0.12459238 0.40597713 6574403
-0.10489248 0.12462858 0.40523052 6574403
-0.096718162 0.12401544 0.40535152 5658195
-0.094403774 0.12441967 0.40640876 5855575
-0.09246181 0.12480118 0.40746719 5789524
-0.10877621 0.12716296 0.40773234 6574403
-0.10674294 0.12765075 0.40670836 6574403
-0.10496556 0.12727539 0.40551284 6640196
-0.09607619 0.12712745 0.40504166 5658196
-0.094445728 0.12741312 0.40560997 4342854
-0.091445602 0.12752828 0.40704465 662574
-0.089387268 0.12801138 0.40785807 5419
-0.10654318 0.13070109 0.406744 6640196
-0.10441113 0.13036096 0.40525272 6640196
-0.094373271 0.1304041 0.40557587 136746
-0.091379717 0.13050172 0.40690693 5418
-0.088942982 0.13092433 0.40766218 5419
-0.10852969 0.13465032 0.40791175 6837317
-0.10651858 0.13339566 0.40665033 6771524
-0.1043802 0.13414328 0.40526798 4932157
-0.094303913 0.13357364 0.40552539 5418
-0.091628268 0.1334109 0.40637857 5419
-0.088807099 0.13356782 0.40718576 5419
-0.10847521 0.13568594 0.40770698 6705732
-0.10637362 0.13645151 0.40669879 5129277
-0.10342024 0.13657637 0.40576243 2698547
-0.10052414 0.13722494 0.40530127 1450543
-0.096070036 0.13771255 0.40501571 5161
-0.094087817 0.13676172 0.40534651 5162
-0.091451034 0.13630576 0.40607235 5162
-0.088703051 0.13623014 0.40713474 70954
-0.10557915 0.13868758 0.40788329 3552567
-0.10316748 0.13918035 0.40743923 990765
-0.10037506 0.13957073 0.40617153 70954
-0.097301073 0.13973384 0.40558013 5161
-0.094501629 0.13956854 0.40649098 5161
-0.092079587 0.1389008 0.40715948 5161
-0.10060614 0.14247181 0.40668422 5161
-0.097633719 0.14241432 0.40696728 5161
-0.095388368 0.14170469 0.40756729 5161
-0.1006265 0.14432946 0.40719467 5161
-0.12933415 0.068558216 0.41089177 5935
-0.12726477 0.068185307 0.41043264 5935
-0.12465081 0.068092085 0.41011754 5934
-0.12223202 0.068524063 0.41068712 5934
-0.1362084 0.071177818 0.41061226 5935
-0.13343962 0.071046747 0.40968108 5934
-0.13054211 0.070124075 0.40953335 5935
-0.12763378 0.069614083 0.40887415 5934
-0.12420905 0.069755733 0.40886489 1253939
-0.12149371 0.070531867 0.40945071 5656908
-0.11888928 0.071103305 0.41037431 5789780
-0.13862635 0.073448375 0.41060758 5419
-0.13656497 0.073260874 0.40896204 5420
-0.13413651 0.07277476 0.40821385 5677
-0.12064364 0.072778903 0.40823671 5592403
-0.11842517 0.073515646 0.40926921 5723989
-0.11622389 0.073691189 0.41058561 6513507
-0.13878536 0.076664522 0.40998253 5418
-0.13721064 0.076405562 0.40859643 5418
-0.11793305 0.076320283 0.40830678 5460818
-0.11586805 0.07659246 0.40966791 6645093
-0.11372691 0.077423207 0.41073769 6974058
-0.13904868 0.079508774 0.41003188 136746
-0.13735117 0.079844944 0.40872264 924973
-0.1151298 0.079251535 0.40870756 6710886
-0.11271808 0.079795413 0.40990853 5131854
-0.11079475 0.080409564 0.41085413 6118749
-0.13883817 0.082192421 0.41050386 5786176
-0.13672255 0.082730465 0.40900528 6508610
-0.1144876 0.081724182 0.40816689 6645093
-0.11238561 0.082537971 0.40884045 5526612
-0.11015992 0.08271195 0.41014701 3421236
-0.13809787 0.084043473 0.4105044 6574403
-0.13617975 0.085435919 0.40968317 6574403
-0.13381472 0.085892104 0.40872893 6574403
-0.11160424 0.084789768 0.40839356 5000268
-0.10952798 0.085571788 0.40955406 4144959
-0.10763757 0.086006097 0.41068453 4013373
-0.13594799 0.088162512 0.41072023 6574403
-0.1334257 0.088478588 0.40960923 6574403
-0.13112427 0.088802591 0.40855113 6574403
-0.10913777 0.088098809 0.40870807 4868682
-0.10669232 0.088768907 0.4100028 3158064
-0.13338767 0.091455087 0.41053531 6574403
-0.13074328 0.091588162 0.40900341 6574403
-0.10642309 0.091384321 0.4089317 5000268
-0.10420641 0.09175656 0.41038054 3881787
-0.13240969 0.094525434 0.41046906 6574403
-0.13026987 0.094473124 0.40917262 6574403
-0.10565332 0.094027773 0.4084875 6118749
-0.10356651 0.09465573 0.40968537 5526612
-0.10187111 0.095573522 0.41073149 4079166
-0.13008073 0.097214177 0.40944904 6904399
-0.12844725 0.09716367 0.40807414 6904141
-0.10330882 0.097322948 0.40883654 4934475
-0.10119355 0.097862415 0.41038886 3355443
-0.12961102 0.099985182 0.41059405 7761771
-0.12809648 0.10063161 0.40930453 7498339
-0.10236401 0.10004812 0.40847555 5592405
-0.10059912 0.10059954 0.40963915 4342338
-0.098732591 0.10132584 0.41077435 4408131
-0.12695524 0.10332205 0.40943366 6640710
-0.12532516 0.10421266 0.40829435 6574403
-0.10026696 0.10330996 0.40891406 4802889
-0.098022819 0.10382191 0.41038981 3158064
-0.12651308 0.10627085 0.41055551 6574403
-0.12459082 0.1065283 0.40870193 6574403
-0.099536642 0.10624097 0.40844956 3684408
-0.097607434 0.10651872 0.40966886 3750201
-0.095743001 0.10722468 0.41066381 2697513
-0.12432501 0.10916919 0.40985122 6574403
-0.12240227 0.11012525 0.40837112 6574403
-0.097211704 0.10938059 0.40886018 5066061
-0.09489958 0.10965049 0.41033694 2565927
-0.12320022 0.11173158 0.41021067 6574403
-0.12162757 0.11266508 0.40918544 6574403
-0.11972464 0.11383051 0.4084509 6574660
-0.096354768 0.11224692 0.40843514 5658198
-0.094553888 0.11244248 0.40961358 4934475
-0.092774123 0.11314368 0.41063803 2960685
-0.12084468 0.11529621 0.41016856 6838348
-0.11884899 0.11558379 0.40869576 7234137
-0.096057773 0.11445965 0.4080672 5460819
-0.094389953 0.11552024 0.40891156 6184542
-0.092087872 0.11565015 0.41033277 5526612
-0.1203666 0.11777414 0.41064101 7762541
-0.11875946 0.11848143 0.40924761 7432546
-0.093968913 0.11834724 0.40858841 4539717
-0.091566876 0.11847967 0.40988126 6316127
-0.089656815 0.11966615 0.41077924 5395026
-0.11788574 0.12121165 0.40974128 6706505
-0.11608675 0.12216734 0.40861195 6574403
-0.093379371 0.12062021 0.40815732 5855833
-0.091420382 0.12155281 0.4090957 5263438
-0.089361981 0.12156808 0.4104467 5131852
-0.11532597 0.12472069 0.40964875 6574403
-0.11287218 0.12559843 0.40898377 6574403
-0.11045904 0.12555486 0.40824309 6574403
-0.090941735 0.12443785 0.40853322 5329486
-0.0885465 0.12453684 0.4098531 2963006
-0.086546689 0.12531383 0.41067147 5676
-0.11462858 0.12740682 0.41065055 6574403
-0.11239155 0.12778677 0.40969333 6574403
-0.11015972 0.12747553 0.40849841 6574403
-0.090183787 0.1262573 0.40813333 5677
-0.08829505 0.12741478 0.40864244 5420
-0.086173512 0.12764947 0.41007343 5419
-0.11241788 0.13030025 0.41023886 6574403
-0.10947879 0.13048932 0.4087055 6574403
-0.087832332 0.12999965 0.408326 5419
-0.085543625 0.13060315 0.40985662 5419
-0.11188615 0.13298556 0.41043848 6574403
-0.10959041 0.13339171 0.40887201 6705732
-0.087259434 0.13328218 0.40822887 5419
-0.085312352 0.13352136 0.40966353 71211
-0.1114848 0.13518922 0.41066611 6574403
-0.10971217 0.13651934 0.40957668 6574403
-0.087506689 0.1365993 0.40823767 5418
-0.085416332 0.13641419 0.40940258 2109244
-0.083580099 0.13691388 0.41065434 5658710
-0.10851835 0.13920698 0.40995276 4472123
-0.1065834 0.14004773 0.40922776 1647407
-0.10427342 0.14001414 0.40853307 399402
-0.091015793 0.13997261 0.40856534 5161
-0.088616669 0.13938831 0.409399 70953
-0.085830674 0.13882135 0.41045421 465710
-0.10602558 0.1424069 0.4104237 5161
-0.10358558 0.14253634 0.40872326 5161
-0.096148774 0.1433022 0.40845379 5161
-0.09431085 0.14259417 0.40900367 5161
-0.091923952 0.14199819 0.40973869 5161
-0.089243382 0.1413331 0.4105815 5418
-0.1055444 0.14405885 0.41061047 5161
-0.10337568 0.14552851 0.40998101 5161
-0.10051541 0.145757 0.40913814 5161
-0.097591311 0.14472447 0.40987325 5161
-0.10145302 0.14773662 0.41053951 5418
-0.12946904 0.065667033 0.41369107 5934
-0.12749162 0.065609172 0.4133276 5934
-0.12444656 0.065576099 0.41312051 5935
-0.1222481 0.065969326 0.4132458 5935
-0.13616261 0.068500184 0.41333961 5934
-0.13331372 0.06787347 0.41297606 5934
-0.13058893 0.067388624 0.41251546 5934
-0.12781671 0.067147598 0.41184011 5934
-0.12443633 0.066718571 0.4115468 5934
-0.12134628 0.067394391 0.41204721 268591
-0.1186931 0.068013959 0.41273496 4407618
-0.11675157 0.068633169 0.41357863 6380629
-0.13862933 0.070865236 0.41282263 5676
-0.13674471 0.070126027 0.41188061 5678
-0.13381959 0.069544367 0.41146484 5935
-0.11820631 0.069869742 0.4116331 5986389
-0.11565133 0.070746467 0.41261446 5789781
-0.11373329 0.071595915 0.41345423 5132109
-0.1400438 0.073745981 0.41296706 5419
-0.11494153 0.073342733 0.41182584 6053212
-0.1137021 0.073813185 0.41334087 5395282
-0.14124124 0.076768674 0.41320157 5419
-0.13991953 0.076083183 0.4115065 5419
-0.11447841 0.075996779 0.4118433 6776679
-0.1125471 0.076735936 0.41252649 6908265
-0.11011219 0.077403389 0.41346031 5526611
-0.14110442 0.080790654 0.4128013 399403
-0.14084263 0.079153992 0.41203544 5418
-0.11170775 0.078492455 0.41148871 6776679
-0.10982011 0.079520151 0.4123944 5855833
-0.14144838 0.081734024 0.41380757 1384751
-0.13991341 0.082499512 0.41203469 4209465
-0.10893776 0.082307048 0.41200903 3618615
-0.10721471 0.083361678 0.41324353 5000268
-0.13900264 0.085597835 0.41264033 6574403
-0.13755943 0.086391769 0.4111082 6574403
-0.1063647 0.085361801 0.41218013 5592661
-0.1045562 0.086653776 0.41353825 5263440
-0.13830763 0.088726059 0.41334426 6574403
-0.13703787 0.088758595 0.41176838 6574403
-0.10560779 0.087499641 0.41143608 4605510
-0.10411143 0.088768512 0.41261429 5395026
-0.13613226 0.091157243 0.41211766 6574403
-0.13467057 0.091635548 0.41134453 6574403
-0.10306466 0.091289878 0.41229942 5526612
-0.10154474 0.092595845 0.41342512 4539717
-0.13562551 0.093894035 0.4131223 6574403
-0.13407612 0.094337054 0.41179737 6574403
-0.10225914 0.093356431 0.41129956 5197646
-0.10060507 0.094561949 0.4123804 5592405
-0.09859971 0.095615722 0.41358423 6381663
-0.13311391 0.097137459 0.41265252 6970449
-0.13180518 0.098019026 0.4116649 7432032
-0.099940211 0.097255431 0.4117009 5263440
-0.097937383 0.097813666 0.41315293 5723991
-0.13236023 0.099549808 0.41339844 7695720
-0.13077421 0.10065278 0.41231492 7432031
-0.099067941 0.099438861 0.4113974 5066061
-0.097437486 0.10041331 0.41235375 4934475
-0.095870815 0.10146627 0.41361186 5658198
-0.12971194 0.10339772 0.41288102 6640454
-0.12854378 0.10355226 0.41152439 6574660
-0.096688002 0.10323494 0.41160601 4144959
-0.095152564 0.10372148 0.41308719 5723991
-0.12952195 0.10563318 0.41386011 6574403
-0.12805364 0.10647582 0.412496 6574403
-0.096023217 0.10566261 0.41107035 4934475
-0.094407298 0.10638618 0.41201791 4605510
-0.092649885 0.10719022 0.41338861 3816249
-0.12695934 0.10908911 0.41280988 6574403
-0.12550581 0.10990991 0.41170472 6574403
-0.093433082 0.10920592 0.41150135 5329233
-0.092113703 0.10970481 0.41258448 6118748
-0.12469385 0.11263373 0.41270369 6574404
-0.09156239 0.11259545 0.41221589 5658198
-0.12367765 0.11548222 0.41304025 6970449
-0.12208375 0.11577578 0.4114356 6970192
-0.090775564 0.11538397 0.41216007 5263440
-0.089701779 0.11618319 0.4135482 6842472
-0.12178032 0.11820833 0.41241607 7630440
-0.090105042 0.11754443 0.41113314 6776679
-0.088656969 0.11859679 0.41237891 6250334
-0.086935692 0.11976977 0.41369653 5132108
-0.12062612 0.1211234 0.41322151 6904141
-0.1193561 0.1219596 0.41226768 6706503
-0.087765805 0.12144146 0.41154683 5460817
-0.086077094 0.12176188 0.41286302 5592145
-0.11828601 0.12386536 0.41242442 6574404
-0.11697847 0.12514839 0.41175136 6574403
-0.087140761 0.12348031 0.41114324 4933188
-0.085364856 0.12440013 0.4121969 728111
-0.083785616 0.12482022 0.41361839 5676
-0.11743062 0.12637772 0.41334289 6574403
-0.116042 0.12757123 0.4123807 6574403
-0.084700912 0.12727849 0.41170239 5676
-0.083200708 0.12765758 0.41306332 5676
-0.11502725 0.13066143 0.41274357 6574403
-0.11384244 0.13090026 0.41115493 6574403
-0.084185973 0.12980205 0.4112004 5676
-0.082618624 0.13050579 0.41253135 5419
-0.11440104 0.13303313 0.41317236 6574403
-0.11308966 0.13414644 0.41201386 6574403
-0.08268813 0.13331559 0.41227531 465454
-0.11201181 0.13694374 0.41260561 6311746
-0.082412474 0.13651803 0.41230482 5527125
-0.080690928 0.13738611 0.41356301 1381653
-0.1115728 0.13918614 0.41373935 5786176
-0.11001625 0.13922186 0.41163793 5326142
-0.087127611 0.14051645 0.41108119 334125
-0.085237958 0.13997748 0.41167632 728624
-0.082581453 0.1395411 0.41276392 3095365
-0.08031629 0.13863406 0.41342813 2697770
-0.10896023 0.14205684 0.41232425 1253166
-0.1074962 0.14287537 0.41146705 5161
-0.091221161 0.14320658 0.41170919 5161
-0.088421457 0.14227226 0.41217676 70954
-0.085613877 0.14144957 0.41272211 531246
-0.083945155 0.14140095 0.41366881 597039
-0.10849448 0.14428648 0.41338465 5161
-0.10636857 0.14541881 0.41236702 5161
-0.10431341 0.14663273 0.41159824 5161
-0.099037446 0.14651607 0.41127077 5161
-0.09742137 0.14613396 0.41228518 5161
-0.094565637 0.14501134 0.41247597 5161
-0.092087984 0.14453211 0.41337526 5161
-0.10535442 0.14704946 0.41276798 5161
-0.10329783 0.14867035 0.41235799 333868
-0.1002749 0.14855334 0.41254923 268332
-0.098398671 0.14759795 0.41326112 5161
-0.10298105 0.15074027 0.41370207 2108728
-0.10170564 0.1501369 0.4130685 1188660
-0.1328536 0.065264732 0.41540661 5934
-0.13061385 0.064706162 0.41567332 5934
-0.12780009 0.064649507 0.4159483 5935
-0.12441581 0.064831145 0.41550598 6192
-0.12152682 0.065194406 0.41517088 5935
-0.11916772 0.065403096 0.41628614 5934
-0.13659644 0.067436934 0.41494474 5935
-0.13387424 0.066451125 0.41439167 5934
-0.13182373 0.066098586 0.41405553 5934
-0.12062185 0.066099279 0.41405988 5935
-0.11818161 0.066762544 0.41493544 1713973
-0.11586658 0.068085678 0.41605896 6314322
-0.13993171 0.070528343 0.41550699 5676
-0.11478154 0.06955789 0.41508931 5987160
-0.11298037 0.070855521 0.41567671 5855059
-0.14166901 0.07389795 0.41591528 5676
-0.14033557 0.072226048 0.4149313 5676
-0.11238527 0.073426127 0.4153696 4737351
-0.11048439 0.074783757 0.41667157 6183766
-0.14403237 0.077845171 0.41696635 5676
-0.14261609 0.076460987 0.41557866 5419
-0.11195699 0.075427793 0.41470361 5723989
-0.10928704 0.07626462 0.41538671 6379600
-0.10745484 0.077118449 0.41629148 6837574
-0.14402528 0.079345524 0.41694584 5161
-0.14271677 0.079103783 0.41488966 5418
-0.10839178 0.079331078 0.41462332 5131852
-0.10756717 0.079793736 0.41614419 4407100
-0.14234205 0.082604848 0.41568956 2238770
-0.1083712 0.081091776 0.4143399 5855577
-0.10652594 0.082398795 0.41540593 4407871
-0.10484944 0.08342839 0.41667897 6246983
-0.14177319 0.085213572 0.41622099 6180161
-0.14041038 0.085343115 0.41441596 6377282
-0.10535234 0.084406644 0.41471443 3815992
-0.10397281 0.085727878 0.41568306 4802629
-0.14014442 0.088405594 0.41569504 6574403
-0.10282123 0.088389821 0.41511375 5131854
-0.10161427 0.089217611 0.41651216 5526355
-0.1387343 0.091283523 0.41536656 6574403
-0.13782212 0.091507919 0.41412577 6574403
-0.10209456 0.090501234 0.41464806 4210752
-0.10088479 0.091659017 0.41559494 5526610
-0.13684657 0.094601668 0.41524434 6574403
-0.099634789 0.093649179 0.4147884 5986905
-0.097865455 0.094865933 0.41574979 6969677
-0.13557328 0.097088397 0.41562846 6706247
-0.13430189 0.098014757 0.41478911 7036243
-0.096765593 0.09713994 0.41489172 6575692
-0.095321991 0.098004065 0.41633686 7034439
-0.13369188 0.10033113 0.41560459 7564132
-0.096068993 0.099433139 0.4144668 5723475
-0.094757393 0.10066023 0.41548383 6510156
-0.13264279 0.1026383 0.41584074 7168344
-0.13114315 0.10382976 0.41485485 6640454
-0.093903273 0.10338714 0.41508603 6117201
-0.092549585 0.10394596 0.41657355 6968903
-0.13036966 0.10639403 0.41537166 6574403
-0.093107253 0.10544654 0.41459477 5329230
-0.091658853 0.10675746 0.41554108 6313034
-0.12946624 0.10920196 0.41608027 6574403
-0.12835611 0.10964593 0.41491738 6574403
-0.090888068 0.10939626 0.41539469 5263180
-0.089883372 0.11094391 0.41698566 5592147
-0.12706997 0.11245126 0.41560653 6574660
-0.12591219 0.11246163 0.41426432 6574660
-0.090495177 0.11209029 0.41486639 6052955
-0.089618944 0.1129063 0.41645664 5592404
-0.12652533 0.11451105 0.41628161 6772555
-0.12520538 0.11571775 0.41522345 7168344
-0.090097412 0.11439742 0.41450995 6579300
-0.088792115 0.11566177 0.41569623 6316127
-0.12406664 0.11844405 0.41559067 7366496
-0.12216263 0.11992111 0.41421926 7234394
-0.087653153 0.11796195 0.41488639 6184798
-0.086242735 0.11900519 0.41595525 5395025
-0.12214907 0.1218993 0.41586867 6706504
-0.08502984 0.12136468 0.41532579 5657681
-0.083770871 0.12246292 0.41651231 2370872
-0.12054346 0.12404147 0.41550586 6574403
-0.11897384 0.1257073 0.41482261 6574403
-0.084127851 0.12301362 0.41456914 1845301
-0.08260829 0.12466215 0.41525921 5677
-0.080795817 0.12589115 0.41666794 5934
-0.1187143 0.12752675 0.41587746 6574403
-0.081690028 0.12732272 0.41472322 5676
-0.080303013 0.12758416 0.41606319 5420
-0.11762765 0.13000961 0.41601598 6574403
-0.11636297 0.13095558 0.41485286 6574403
-0.081108063 0.13044563 0.41442308 5418
-0.080264732 0.13052504 0.41586599 5161
-0.11580341 0.13341576 0.41552728 6574403
-0.081476294 0.13399853 0.41477698 1780538
-0.080465175 0.13365062 0.41625521 2240831
-0.11461551 0.13611335 0.41575137 6574403
-0.11335825 0.13730191 0.41481093 6443074
-0.081306361 0.13569742 0.41448233 7369328
-0.079640992 0.13666716 0.41561446 3815992
-0.077793375 0.13792351 0.41668889 0
-0.11292224 0.13955742 0.41595927 5786176
-0.11090741 0.14078145 0.4140414 4275258
-0.081808992 0.14083101 0.41418713 5856606
-0.078990355 0.13950227 0.41508332 3815992
-0.077317357 0.1392464 0.41615093 921101
-0.11187726 0.14191008 0.41625831 3683896
-0.11010911 0.14327873 0.41478446 859181
-0.088180207 0.14348054 0.41428778 5161
-0.085495397 0.14304265 0.41540152 5161
-0.082713678 0.14210585 0.41572911 4870486
-0.080389902 0.14162222 0.4165141 7829105
-0.10907667 0.14599735 0.41560131 5161
-0.10733776 0.14698167 0.41467732 5161
-0.094024062 0.14646952 0.41534615 5161
-0.091358446 0.14546983 0.41548556 5161
-0.088549614 0.1446446 0.41602275 5161
-0.1085702 0.14764045 0.41653594 5161
-0.10664127 0.14860776 0.41545868 70954
-0.10495365 0.14902672 0.41412449 268076
-0.099075533 0.14917411 0.41453406 399661
-0.097428411 0.14845364 0.41530591 70954
-0.095536716 0.1478758 0.41649261 5161
-0.10537639 0.15037699 0.41579252 859952
-0.10418143 0.15140015 0.41551322 2042936
-0.10041241 0.15080859 0.41521159 1714230
-0.09883339 0.15069275 0.41666558 859953
-0.12735973 0.062356919 0.41903129 5934
-0.12451784 0.062448464 0.41964063 5934
-0.13532536 0.065966398 0.41795006 5935
-0.13403611 0.064941451 0.41862965 5935
-0.13023807 0.06348408 0.41815543 5935
-0.12704866 0.063754089 0.41772905 5934
-0.12447265 0.063744135 0.4182159 5934
-0.12157553 0.063806944 0.41863036 5934
-0.11834326 0.06476704 0.41832641 5934
-0.11684923 0.065420441 0.41928279 5934
-0.13929416 0.068325177 0.41855308 5934
-0.13724837 0.067115575 0.41806889 5935
-0.11543387 0.067178667 0.41846341 4408132
-0.11363041 0.068228588 0.41949925 7232076
-0.14182965 0.070725724 0.41934887 5934
-0.14077915 0.069823436 0.41847467 5934
-0.11219609 0.070183344 0.41820383 7101004
-0.11048021 0.071175843 0.41903111 7231817
-0.14419338 0.074556686 0.41962373 5676
-0.14260672 0.073075019 0.41807786 5676
-0.11105636 0.073409997 0.41740832 5919565
-0.10963903 0.073653981 0.4185147 7100489
-0.10758933 0.074290834 0.41954812 7297610
-0.14471495 0.07670147 0.41894236 5419
-0.14368972 0.075427242 0.41815802 5676
-0.10817483 0.075006247 0.4179112 7429196
-0.10693875 0.076199263 0.41844246 7034696
-0.14429882 0.080249742 0.41773772 5161
-0.10648949 0.07954441 0.4182764 6574918
-0.10489485 0.080659218 0.41986924 7231818
-0.14471123 0.081612952 0.41893157 5161
-0.14357203 0.082902841 0.41781551 924716
-0.10545316 0.081633553 0.41788062 7166025
-0.10420442 0.082800776 0.41878814 6968904
-0.14424819 0.085185938 0.4197832 4669499
-0.14296493 0.085814938 0.41824204 5589055
-0.10285869 0.08531642 0.41826436 6903625
-0.10147021 0.086033806 0.41948882 7100232
-0.14243954 0.088636704 0.41891584 6574403
-0.10082642 0.088460036 0.4184643 6772554
-0.14155754 0.091389515 0.41929045 6508610
-0.14022706 0.091517784 0.41757914 6574146
-0.099761859 0.091090143 0.41803923 6903882
-0.098329499 0.092281863 0.4190993 7166281
-0.13947316 0.094315127 0.41863045 6376254
-0.09712474 0.094107077 0.41827515 7166025
-0.095465004 0.095465146 0.41947898 7166025
-0.13845247 0.097219661 0.41943017 6046264
-0.13708331 0.097629584 0.41794613 6442305
-0.096025117 0.096025117 0.41752678 7166025
-0.094482191 0.097502314 0.41848099 7100232
-0.1361547 0.1002088 0.41864389 6311752
-0.093424767 0.099828847 0.41768762 6968903
-0.092526831 0.10120138 0.41817173 6968903
-0.13503088 0.10325892 0.41937697 6113347
-0.13390943 0.10373271 0.41823584 6706253
-0.091541506 0.10347876 0.41831878 6968903
-0.13267945 0.10601801 0.41832295 6244155
-0.13142179 0.10732152 0.41752419 6375997
-0.090658545 0.10598512 0.41786483 6968903
-0.089554533 0.10731427 0.41896614 6771525
-0.13097455 0.10945894 0.41849959 6177077
-0.090041354 0.10850169 0.41771859 6443589
-0.089414977 0.10980794 0.41871107 6443848
-0.12997457 0.11183739 0.41892612 6176560
-0.12852746 0.11307471 0.41790855 6507581
-0.088662535 0.11270165 0.41862595 5854029
-0.12745671 0.1153902 0.41810513 6771783
-0.087702461 0.11522748 0.41806597 5592402
-0.086403102 0.11627528 0.41925985 5985614
-0.12629524 0.11762483 0.41800538 7300188
-0.12561622 0.11920419 0.41825503 7300187
-0.085344769 0.11839519 0.4184472 5985615
-0.12431842 0.12144937 0.41845551 6838348
-0.084413201 0.12059078 0.41783464 5921367
-0.083176479 0.12210112 0.41856587 2371129
-0.12379375 0.12379375 0.41974995 6640196
-0.12211562 0.12488266 0.41832376 6574403
-0.081752598 0.12399672 0.41820207 5934
-0.080346219 0.12530529 0.41889977 137262
-0.12085848 0.12765759 0.41876188 6574403
-0.11924703 0.1282752 0.4170883 6574403
-0.079479702 0.12731816 0.41765201 531246
-0.11930898 0.13063604 0.41862527 6574403
-0.078936845 0.13046564 0.41841027 5161
-0.11774432 0.13359508 0.41843221 6574403
-0.079171672 0.13369653 0.41848084 2832453
-0.1163414 0.13621351 0.41836238 6574403
-0.078627028 0.13577646 0.41779292 6579297
-0.077264845 0.13664612 0.41864207 2763305
-0.11517528 0.13896462 0.41869456 6311746
-0.077153973 0.13812442 0.41729587 0
-0.11469034 0.14118646 0.41968542 5785920
-0.11299935 0.14261423 0.41832539 3683896
-0.11227188 0.14515835 0.41913313 727852
-0.11060804 0.14559643 0.41713744 5161
-0.090524726 0.14672619 0.41821319 5161
-0.088245168 0.14575645 0.41813594 5161
-0.11172865 0.14733033 0.41993514 5161
-0.10941227 0.14864877 0.41831747 5161
-0.096435145 0.1495505 0.41767359 70954
-0.094420709 0.14880879 0.41876626 5161
-0.092402883 0.1474693 0.41818121 5161
-0.10904956 0.15070023 0.4198274 202539
-0.10661421 0.15162167 0.41819206 1254195
-0.097377717 0.15097494 0.41848922 991281
-0.095637292 0.15007117 0.41912776 268076
-0.10623012 0.15310746 0.41916114 2831421
-0.13040267 0.062729448 0.42152873 8760
-0.12797885 0.061900746 0.42106384 75580
-0.12457617 0.061643589 0.42034674 7475
-0.12151905 0.062469315 0.42124206 5935
-0.13628832 0.065479055 0.42210138 5935
-0.13361086 0.064148039 0.42086402 5935
-0.13168666 0.063376576 0.42077699 6192
-0.12011023 0.06327574 0.42010748 5934
-0.11803832 0.063817456 0.42082813 5934
-0.11558809 0.065245911 0.42171153 268847
-0.14109886 0.068837985 0.42168608 5934
-0.13929394 0.067424685 0.42236412 5935
-0.13692544 0.066376597 0.42054901 5935
-0.11452018 0.066687338 0.42091545 5918277
-0.1127161 0.067831978 0.42174247 7297610
-0.11089459 0.068975672 0.42252952 7363403
-0.14252135 0.070688464 0.42140025 5933
-0.11136866 0.069652699 0.42048302 7363403
-0.10949801 0.070786074 0.42144543 7166281
-0.10793229 0.071319222 0.42286783 7100746
-0.14476949 0.073714018 0.42130023 137005
-0.14394391 0.072541654 0.42110825 71469
-0.10871811 0.07275708 0.42059803 7100488
-0.1070317 0.073486216 0.42177984 7100489
-0.14565873 0.075300872 0.42167461 5419
-0.10573455 0.07660988 0.42120564 6903111
-0.10482718 0.077381521 0.42265001 7034696
-0.14612123 0.079321779 0.420816 5161
-0.10540383 0.079147756 0.42069274 6903110
-0.10421286 0.079776645 0.42201677 7034440
-0.14603969 0.082940176 0.421455 136489
-0.10319441 0.082465999 0.4213644 7034440
-0.10184168 0.083533064 0.42291585 7297610
-0.1453208 0.086005233 0.42157489 4800828
-0.10215644 0.084307209 0.42106888 7297610
-0.10053439 0.085589565 0.42177755 7100232
-0.14472415 0.088660471 0.42190552 6574403
-0.14371456 0.088352226 0.42043731 6574403
-0.099546924 0.088159218 0.42087689 7034696
-0.098492801 0.088811405 0.42211124 7034696
-0.14431569 0.090244904 0.42219591 6574403
-0.14316075 0.091828443 0.4215968 6508096
-0.097497277 0.091364771 0.42150909 7100232
-0.095748834 0.092697084 0.42296016 7232589
-0.14231411 0.093988039 0.4219051 6044979
-0.14037782 0.095607981 0.42066383 5714474
-0.096100703 0.093441501 0.42115861 7166025
-0.095146082 0.094638556 0.42141905 7034439
-0.14129749 0.096356504 0.42227969 5251098
-0.13989693 0.097699597 0.42150116 5186335
-0.093973368 0.097009003 0.42070594 6968133
-0.13890564 0.10008846 0.42195478 4793895
-0.1373404 0.10091798 0.42065707 4601148
-0.093274668 0.099366076 0.42212135 6176051
-0.092553981 0.10065769 0.42115369 6637628
-0.13661726 0.10331734 0.42146832 4599091
-0.091303967 0.10347778 0.42181203 6572092
-0.13562888 0.10629395 0.42241806 4271415
-0.13425887 0.1066734 0.42090902 5319463
-0.090142392 0.10611699 0.4217163 6968646
-0.089260057 0.10734041 0.42114601 7034440
-0.13307028 0.10949907 0.42155406 5252127
-0.08821889 0.10959078 0.42161807 6771781
-0.13229984 0.11247393 0.42273629 5382421
-0.13107318 0.11283663 0.42124313 5778715
-0.087654836 0.11213275 0.42113897 7034439
-0.086424619 0.11338021 0.42213783 7100232
-0.12991311 0.11547045 0.42142463 5976602
-0.12844218 0.11631785 0.42009515 6308916
-0.085568123 0.11562182 0.42142525 7034696
-0.12920168 0.11853015 0.4225792 5978157
-0.12788375 0.11839578 0.42074913 6507584
-0.084642686 0.1174757 0.42085049 7100488
-0.083607867 0.11881093 0.42164716 6968903
-0.12733044 0.1210486 0.42205957 6574147
-0.1259091 0.12286598 0.42176333 6574661
-0.082367659 0.1215168 0.42142048 2567735
-0.12441547 0.1246042 0.42121163 6574403
-0.081509151 0.12321151 0.42034665 5934
-0.080453396 0.12391022 0.42143786 597296
-0.12399042 0.12678227 0.42213741 6574403
-0.12234452 0.1279113 0.42084134 6574403
-0.079238087 0.12852493 0.42036578 662575
-0.12314282 0.12924278 0.42271364 6574403
-0.12137356 0.13064377 0.42133275 6574403
-0.078733616 0.12970127 0.42172515 465455
-0.077799127 0.13130981 0.42078531 70954
-0.12094311 0.13287206 0.42213193 6574403
-0.11920649 0.13386995 0.42048275 6574403
-0.0784228 0.13335666 0.42006034 1452088
-0.077460833 0.13351923 0.42124075 3293002
-0.11854095 0.13639536 0.42125866 6574403
-0.076958805 0.13534135 0.42034119 7368556
-0.11793073 0.13900357 0.42225206 6508611
-0.1163507 0.14015287 0.42112803 6311746
-0.11569971 0.14233981 0.4219842 5654591
-0.11439572 0.14403979 0.42138878 3355447
-0.11364521 0.14557229 0.42142436 1056302
-0.11234329 0.14854726 0.42167059 5161
-0.1102605 0.14966631 0.4201135 5161
-0.11151196 0.15033183 0.4219816 5161
-0.10989529 0.15172343 0.42161891 465196
-0.10849372 0.15379535 0.42208448 2108471
-0.10747014 0.15380003 0.42105716 2831420
-0.12143046 0.062439699 0.42472991 926778
-0.13663918 0.0650663 0.42436802 75323
-0.13397485 0.063743025 0.42320994 75580
-0.11836258 0.063510351 0.42471701 5936
-0.11512098 0.064890876 0.42406073 5935
-0.11348933 0.065563418 0.42511374 3424849
-0.14249167 0.068749346 0.4258486 75323
-0.1395127 0.06701196 0.42457363 5935
-0.1121693 0.067029089 0.42414835 7166540
-0.11064558 0.068148106 0.42449823 7890520
-0.14429009 0.07157094 0.42436036 5934
-0.14322186 0.070656113 0.42346516 5934
-0.10933324 0.069756508 0.42356834 6969932
-0.1073499 0.071439259 0.42357957 3626839
-0.14558879 0.072602324 0.42592034 5934
-0.10628417 0.073698983 0.42339292 5920332
-0.14733888 0.076922379 0.42432275 5419
-0.14694069 0.07747782 0.42317602 5419
-0.10539199 0.075607754 0.42338872 7034696
-0.10458501 0.077069603 0.42372939 5920332
-0.14830686 0.080093123 0.42490315 5161
-0.10329377 0.079575218 0.42418253 6314062
-0.14848828 0.082493775 0.42542291 5161
-0.10242923 0.081790656 0.42377046 7034440
-0.10130966 0.082923971 0.42468524 6707275
-0.14759009 0.084992751 0.42449349 990509
-0.10047983 0.084433623 0.42360669 7297610
-0.14773913 0.087492503 0.42547542 5589055
-0.14624453 0.088702835 0.42392331 6508867
-0.097730152 0.088949725 0.42328054 6640454
-0.14713866 0.090280898 0.4259589 6574403
-0.1454754 0.091495872 0.42446691 6508354
-0.09663558 0.090906024 0.42350274 6640711
-0.095891297 0.09207093 0.42358947 6444879
-0.14471436 0.093878746 0.42485592 6177591
-0.14290485 0.095523939 0.4236564 5382941
-0.095370688 0.093838632 0.42467359 5784379
-0.14243223 0.097633481 0.42452374 5119000
-0.09416759 0.097612709 0.42443073 5778727
-0.1419711 0.099762768 0.42543834 4922395
-0.14014326 0.1011221 0.42416379 4596262
-0.093076862 0.1007375 0.42469302 5579037
-0.13911924 0.10328598 0.42446327 4139058
-0.13699153 0.10493781 0.42309603 4009017
-0.091581762 0.10346255 0.42486888 5844004
-0.13843672 0.10545734 0.42519072 4269615
-0.13704538 0.10680335 0.42444342 4269615
-0.090460487 0.10577193 0.42440167 6770240
-0.089487813 0.10710475 0.42462826 7231817
-0.13589112 0.10937206 0.4249042 4791581
-0.13440862 0.10958941 0.42337459 4857116
-0.087747127 0.10934813 0.42392489 6771783
-0.086840875 0.11055953 0.42416811 6246468
-0.1338253 0.11252837 0.42467076 5315858
-0.085989662 0.11252408 0.42374569 6837319
-0.13307275 0.11504725 0.42520398 5909262
-0.13137291 0.11571527 0.42343551 5843728
-0.084748045 0.11485697 0.42365187 6903111
-0.083748661 0.11625361 0.42400739 6640454
-0.13248909 0.11712804 0.42579514 5909266
-0.13073461 0.11863252 0.42458433 5845280
-0.082787424 0.11854144 0.42398366 6837574
-0.1296038 0.12155202 0.42514914 6441789
-0.12834124 0.12196899 0.42393324 6508610
-0.081633225 0.12089177 0.42437458 2764856
-0.080756776 0.12209108 0.42436171 1254451
-0.12729838 0.12423515 0.42436227 6574403
-0.12565982 0.12565982 0.42348713 6574403
-0.12666902 0.12705308 0.42559487 6574403
-0.12508447 0.12776138 0.42412508 6574403
-0.079993203 0.1286003 0.42437178 597039
-0.12436409 0.13030279 0.42492968 6574403
-0.12270114 0.13187505 0.42382175 6574403
-0.07872773 0.13053159 0.42442754 596783
-0.12301502 0.13297886 0.42490593 6574403
-0.12173603 0.13422798 0.42400965 6574403
-0.12133224 0.13650647 0.42491436 6574403
-0.1195455 0.13787836 0.4234758 6574403
-0.12094985 0.13861237 0.4257302 6574403
-0.11938503 0.13981478 0.42471632 6574403
-0.11799999 0.14213611 0.42478526 6311490
-0.11615117 0.14365946 0.42363095 4997693
-0.11707859 0.14471681 0.4256154 4537915
-0.11528218 0.14603205 0.42408663 1516079
-0.11496223 0.14830039 0.42488509 5161
-0.11343931 0.14934266 0.42349353 5161
-0.11483315 0.15016644 0.42582953 5161
-0.11261491 0.15165682 0.42441303 136746
-0.11200272 0.15342808 0.42528975 728110
-0.11014195 0.15412278 0.42403293 1516852
-0.120306 0.062852442 0.4275375 2899536
-0.11810491 0.063684359 0.42794552 2899280
-0.11578412 0.064623214 0.42650139 5936
-0.14205751 0.068141408 0.4268522 75323
-0.14026706 0.066849038 0.42843875 75323
-0.14498493 0.07075265 0.4286781 75323
-0.14360268 0.069683872 0.42686778 210247
-0.14718728 0.074938692 0.42609966 5676
-0.14697637 0.073681064 0.4277226 5934
-0.1504517 0.080833949 0.42883199 5418
-0.1488376 0.078841619 0.42642373 5420
-0.1503828 0.082729697 0.4286356 5418
-0.15032999 0.085019574 0.4284851 5161
-0.14889883 0.085800223 0.42659912 793388
-0.10082557 0.086145982 0.42832148 5982528
-0.1487945 0.088659048 0.42740324 5589055
-0.14811018 0.091490746 0.42802528 6574403
-0.14665508 0.092766084 0.42678764 6442303
-0.14706744 0.093798913 0.42798764 6375997
-0.14562893 0.095075428 0.42678753 5978928
-0.095069893 0.095839687 0.42676198 5056035
-0.14534284 0.097331516 0.42790803 5383198
-0.14358822 0.098933429 0.42682478 5118229
-0.094577469 0.098050974 0.42801726 4989986
-0.14401589 0.10000031 0.42809609 5052951
-0.14270125 0.10108503 0.42724082 4987415
-0.093351692 0.10106815 0.42771035 5186082
-0.09264148 0.10186718 0.4262144 5447710
-0.14193437 0.10334508 0.42787319 4791582
-0.14000888 0.10462135 0.42647412 4791581
-0.091771588 0.10372443 0.42753342 5580836
-0.13979052 0.10648049 0.42745218 4465449
-0.090564698 0.10597996 0.42729789 6901570
-0.089302026 0.10739125 0.42678562 6312005
-0.13874289 0.10902663 0.42790827 4530983
-0.13726526 0.11029982 0.42711243 4726561
-0.13625567 0.1125048 0.42749014 5118485
-0.13605872 0.11441239 0.42857054 5381906
-0.13422759 0.11598783 0.42725357 5975053
-0.13305497 0.11878449 0.42761233 5778712
-0.13249725 0.12090857 0.42830428 6110510
-0.13112091 0.12149425 0.4269661 6309432
-0.13012747 0.12411014 0.42762357 6574146
-0.12802295 0.12571624 0.42626855 6574403
-0.12944166 0.12635052 0.42841923 6574403
-0.1277962 0.12794937 0.42756557 6574403
-0.080761217 0.12867697 0.42844614 1385266
-0.12666586 0.13091406 0.42817932 6574403
-0.12542254 0.13080786 0.42657566 6574403
-0.079739429 0.12981734 0.42711267 1319474
-0.12459686 0.13345905 0.42726144 6574403
-0.12361079 0.13647445 0.4278529 6574403
-0.12286687 0.13673273 0.42705497 6574403
-0.12154005 0.13972795 0.42726311 6574403
-0.12058308 0.14246072 0.42806283 6443074
-0.11936374 0.14285219 0.42692468 6377282
-0.11825039 0.14562732 0.42753693 3946552
-0.11783561 0.14797062 0.42836738 333611
-0.11651531 0.14867784 0.42706791 70953
-0.11532133 0.15176773 0.42763689 5161
-0.11470897 0.15333152 0.42823347 268075
-0.11265792 0.15506688 0.42748183 1385522
-0.11962415 0.063102707 0.4292399 5858673
-0.14932524 0.076280035 0.43079051 5420
-0.15064593 0.079204865 0.4304924 5676
-0.15210585 0.082471773 0.43132916 5418
-0.15181504 0.085739575 0.43094349 5161
-0.15099107 0.088111483 0.43036935 2435891
-0.1498509 0.089445889 0.42932689 6245954
-0.1504347 0.090961024 0.43099949 6574403
-0.14947146 0.092401095 0.43046442 6574403
-0.14833443 0.094775841 0.43031821 6375741
-0.14758097 0.097566545 0.43098959 5648166
-0.14631455 0.098966077 0.43031436 5185563
-0.14551973 0.10031037 0.43025631 4922651
-0.094052762 0.10052147 0.43032768 4663595
-0.14461729 0.10302073 0.43103975 4269871
-0.14346486 0.10352767 0.42991623 4335151
-0.09222798 0.1034648 0.42965889 4992558
-0.14234862 0.10646904 0.43052444 4596262
-0.09092705 0.10563014 0.42900753 5915707
-0.14173038 0.10941291 0.43171927 4988187
-0.14042687 0.10939415 0.43011209 4987672
-0.13892771 0.11215104 0.43027335 5052693
-0.1375825 0.11355401 0.42970908 5118228
-0.13901407 0.11409277 0.43174785 5184022
-0.13686191 0.11574569 0.43036598 5513745
-0.135732 0.11825614 0.43059963 5909263
-0.13454363 0.11942255 0.42990583 6041618
-0.13503823 0.1210285 0.43148622 6306846
-0.13368607 0.12165657 0.43026444 6242606
-0.13288465 0.12394771 0.43081126 6705990
-0.13099954 0.12557277 0.42972583 6574403
-0.13078903 0.1275243 0.43081903 6574404
-0.12930584 0.12969466 0.43054003 6574403
-0.12816381 0.13087875 0.42996451 6574403
-0.12736101 0.13318513 0.43052757 6574403
-0.12593322 0.13445792 0.42963198 6574403
-0.12670852 0.13578682 0.43139151 6574403
-0.12495279 0.13684037 0.42981294 6574403
-0.12452514 0.13912758 0.43065524 6574403
-0.12273604 0.14054632 0.42929175 6574403
-0.12357887 0.14199239 0.43133187 6508867
-0.12195403 0.14316368 0.43017504 6443074
-0.12099988 0.14547206 0.43069062 5654591
-0.11971176 0.1460561 0.42955425 4472379
-0.12025376 0.14827405 0.43149906 1581872
-0.11912026 0.14845356 0.43021458 990509
-0.11801632 0.15101382 0.43043387 5161
-0.11660558 0.15224582 0.42952901 5161
-0.11753093 0.15333417 0.43150264 5161
-0.11519059 0.15474953 0.43002912 662574
-0.11527283 0.15655252 0.4317916 1648436
-0.11301643 0.15729092 0.43061414 1910833
-0.11009835 0.15833932 0.43135419 2633009
-0.15096281 0.076979123 0.43325821 5677
-0.15312234 0.080281533 0.43421164 5676
-0.15222687 0.079563372 0.43315002 5676
-0.15379462 0.082571201 0.4338986 5418
-0.153786 0.085306421 0.43387437 5418
-0.15368114 0.088395774 0.43431485 859180
-0.15260328 0.088205986 0.43273976 727852
-0.15331475 0.09057726 0.43475729 5194814
-0.15194193 0.091729 0.43352446 6311490
-0.15092304 0.094228618 0.43351698 6508610
-0.15088208 0.096015871 0.43452683 6508353
-0.14939393 0.097294487 0.43324089 6177591
-0.14821826 0.10011518 0.43361166 5581860
-0.14611402 0.10169536 0.43201646 4923424
-0.14741147 0.1031099 0.43469375 5648424
-0.14565833 0.10387369 0.43297708 5054494
-0.14498679 0.10643942 0.43388733 5449249
-0.14312133 0.10949249 0.43357387 5317149
-0.1417616 0.1122879 0.43380013 5382684
-0.14039978 0.11271049 0.43241858 5184278
-0.13945435 0.11583319 0.43359917 5514521
-0.13863079 0.11865796 0.43420565 5844509
-0.13736495 0.11863378 0.43268615 6173198
-0.13845132 0.12040951 0.43487266 6044977
-0.1365813 0.12159306 0.43349883 6176557
-0.135648 0.12442189 0.43427023 7299932
-0.13410842 0.12493268 0.43287969 7497825
-0.13323328 0.12759964 0.43371648 7036500
-0.13095415 0.13032839 0.432906 6574403
-0.13008524 0.13305654 0.43365368 6574403
-0.12836333 0.13460591 0.43259823 6574403
-0.1297328 0.13521999 0.43457174 6574403
-0.12801072 0.13676773 0.43351585 6574403
-0.12707183 0.13944097 0.43404809 6574403
-0.12528752 0.14089967 0.43275535 6574403
-0.12504244 0.14277512 0.43370965 6508867
-0.12365307 0.14556721 0.43386835 6114369
-0.1224453 0.14545298 0.43236709 5983040
-0.1216899 0.14841792 0.4332841 2435635
-0.12109486 0.15114045 0.43451771 333867
-0.11945773 0.15186009 0.43284559 136746
-0.11848807 0.15446252 0.43357906 202538
-0.11660867 0.15560822 0.43241358 794158
-0.11724226 0.15723795 0.4347631 1517108
-0.11554612 0.15823923 0.43428278 2173748
-0.15332615 0.077648468 0.43702504 5677
-0.15178326 0.076284707 0.43599054 71470
-0.15426292 0.07995408 0.43670031 5676
-0.15280566 0.078170501 0.43554145 5677
-0.15527257 0.082654253 0.43640199 5419
-0.15541404 0.085379519 0.43624744 5161
-0.15539207 0.088231549 0.43673676 70953
-0.15434445 0.091378585 0.4363369 5063485
-0.15366097 0.094773583 0.43723035 6574403
-0.15249452 0.094719335 0.43577462 6574403
-0.15167503 0.097520754 0.43635422 6508353
-0.15126865 0.099924199 0.437915 6508097
-0.1494408 0.10107045 0.43604028 6177592
-0.1488792 0.10386003 0.43785706 6441536
-0.14786494 0.10527983 0.43719339 6441279
-0.14620154 0.10689914 0.43575975 6506561
-0.14511263 0.10932532 0.43603081 6771532
-0.1446061 0.11150825 0.43687806 6706248
-0.14337988 0.11294618 0.43634352 6309691
-0.14202316 0.1150731 0.43620333 6177591
-0.14152583 0.11708405 0.43710014 6574146
-0.14012997 0.11888582 0.43618965 6375482
-0.13921137 0.12162956 0.43643531 6442045
-0.13824007 0.12366829 0.43668324 6640197
-0.13713261 0.12493487 0.43629155 7103067
-0.13589823 0.12762609 0.43675107 7300961
-0.13468841 0.12762021 0.43538731 7432032
-0.13342583 0.13043721 0.43587875 6180676
-0.13314772 0.13288425 0.43720391 6377796
-0.13141103 0.13403125 0.43580401 6574403
-0.13219094 0.13534774 0.43751866 6574403
-0.13044831 0.13690257 0.43643871 6574403
-0.12980634 0.13953781 0.43746021 6574403
-0.12855552 0.13956334 0.43589577 6574403
-0.12724593 0.14235328 0.43625504 6574403
-0.12700769 0.1443616 0.43733269 6508867
-0.12524121 0.14596124 0.4362177 6114369
-0.12417961 0.148307 0.43617454 4143929
-0.12291901 0.14962345 0.43542603 1450543
-0.12382608 0.15064161 0.43724179 1319215
-0.12215222 0.15209907 0.43689707 136490
-0.1206699 0.15497801 0.43723732 728109
-0.11837128 0.15717548 0.43603614 1516594
-0.11650591 0.1599488 0.43789062 2961974
-0.15073417 0.074372798 0.44097319 5934
-0.15391441 0.076758347 0.4409689 137263
-0.15135223 0.075279467 0.43930647 5934
-0.1553856 0.079674929 0.43950525 211018
-0.15714988 0.082940385 0.44000566 211018
-0.15715355 0.085504964 0.43890786 5161
-0.15724124 0.088830918 0.43970454 70697
-0.15635554 0.091042697 0.43889019 2043961
-0.15533181 0.092882887 0.43823546 6574403
-0.15498835 0.094575562 0.43875423 6050118
-0.15413794 0.097474381 0.43933719 6181189
-0.15164 0.10056692 0.43899205 6574147
