# .PCD v0.7 - Point Cloud Data file format
VERSION 0.7
FIELDS x y z rgb
SIZE 4 4 4 4
TYPE F F F U
COUNT 1 1 1 1
WIDTH 979
HEIGHT 1
VIEWPOINT 0 0 0 1 0 0 0
POINTS 979
DATA ascii
-0.024218732 0.0051487605 0.42287999 8750469
-0.022491435 0.0045742043 0.42267141 8750469
-0.01982169 0.0045739929 0.4226473 8684676
-0.016775461 0.0045748805 0.42272949 8684676
-0.013917648 0.0048932894 0.42278007 8684676
-0.011824488 0.0057215262 0.42292204 8750469
-0.0248644 0.0075820717 0.42268726 8618883
-0.022687981 0.0077257156 0.42227677 8618883
-0.019806515 0.0076177325 0.42232352 8618883
-0.01676153 0.0076186988 0.422378 8618883
-0.013715767 0.0076196911 0.42243412 8684676
-0.010880197 0.0078301718 0.42271984 8684676
-0.0087731881 0.0087731881 0.42293075 8684676
-0.02733244 0.011568535 0.42286316 8882055
-0.025457317 0.010771333 0.42242858 8684676
-0.022833992 0.010655666 0.42195845 8618883
-0.019790193 0.010656043 0.42197508 8684676
-0.016747171 0.010657075 0.42201614 8684676
-0.013703611 0.010658154 0.42205885 8684676
-0.010665492 0.010665596 0.42235267 8684676
-0.0078805126 0.010931104 0.4227967 8684676
-0.0057220478 0.011825565 0.42296058 8750469
-0.028044192 0.01383123 0.42263764 8618883
-0.025504597 0.013703768 0.42206624 8553090
-0.022824481 0.013694556 0.42178053 8553090
-0.019772416 0.013688399 0.42159474 8618883
-0.016730802 0.013688629 0.42160371 8684676
-0.013690437 0.013690239 0.42165321 8684676
-0.010655515 0.013700037 0.42195576 8684676
-0.007618777 0.013713929 0.42238468 8750469
-0.0048929509 0.013916616 0.42275199 8684676
-0.030135013 0.016784087 0.42294508 8487297
-0.028190868 0.016761731 0.42238629 8553090
-0.025496535 0.016743897 0.42193416 8553090
-0.022820543 0.016734926 0.42170781 8553090
-0.019765746 0.0167247 0.42145011 8553090
-0.01671733 0.016717179 0.4212634 8553090
-0.013679268 0.016719032 0.42131022 8618883
-0.010645959 0.016729556 0.4215745 8553091
-0.0076105604 0.016743507 0.42192766 7302777
-0.0045709293 0.016761219 0.42237589 4209506
-0.0024787486 0.017351339 0.42282769 5722989
-0.028186904 0.019806709 0.42232472 8421504
-0.025493428 0.019785872 0.42188284 8553090
-0.022818547 0.019775931 0.42167097 8553090
-0.019762965 0.019762747 0.42139024 8553090
-0.016710369 0.019748377 0.42108423 8487297
-0.013671379 0.019747635 0.42107001 7302521
-0.010640632 0.019761328 0.42136246 3682909
-0.0076055778 0.019774742 0.42164886 984392
-0.0045665675 0.019789251 0.42195907 720966
-0.0016875345 0.019927189 0.42257881 3156314
0.00038137508 0.020975629 0.4228555 8816262
-0.027971882 0.022407686 0.42253074 8421504
-0.025493937 0.022830332 0.42189026 8487297
-0.022816284 0.022816092 0.42162886 8553090
-0.01975981 0.022799542 0.42132303 8158335
-0.016707713 0.022782987 0.42101693 4669795
-0.013667063 0.022778645 0.420937 1050184
-0.010636528 0.022792837 0.42119926 720965
-0.007602185 0.022806939 0.42145991 720965
-0.0045633307 0.022816846 0.42164558 720965
-0.0015221974 0.022837358 0.42202652 852552
0.0012708014 0.022867868 0.42259064 6446963
0.0034333952 0.02327079 0.42298108 8816262
-0.027395811 0.024999453 0.42271957 8421504
-0.025509438 0.025509275 0.42214358 8421504
-0.022705317 0.025692645 0.4215855 7039350
-0.019757573 0.025836572 0.42127532 2432338
-0.016705912 0.025817936 0.42097157 720965
-0.013664922 0.025811745 0.42087072 720965
-0.010634157 0.025825949 0.42110336 720965
-0.007597263 0.025830368 0.42117852 720966
-0.0045586955 0.025833206 0.42122406 720966
-0.0015968676 0.025782079 0.42163008 720966
0.001632232 0.025294228 0.42219287 3748702
0.0041936976 0.025403239 0.42268857 8750469
-0.025384948 0.028052974 0.42260784 7039605
-0.022936109 0.02831657 0.42183116 2300496
-0.019761669 0.028502146 0.42136154 720964
-0.016597573 0.028692937 0.420975 655428
-0.013661256 0.028840309 0.42075339 720965
-0.010625 0.028839033 0.42073625 720966
-0.0075888583 0.028837427 0.42071253 720966
-0.0045545935 0.028847136 0.42085385 720966
-0.0015197204 0.028501097 0.42135063 720966
0.0015221495 0.028154751 0.42185408 852551
0.0045713065 0.028187482 0.42234528 6710389
0.0067879097 0.028752873 0.42281565 8750469
-0.024274109 0.031009912 0.42273632 655428
-0.022459237 0.03121434 0.42206284 655428
-0.019773874 0.031181756 0.4216221 655428
-0.016825749 0.031317286 0.42125455 655428
-0.013661221 0.031496413 0.42074811 720965
-0.01051187 0.031697921 0.42054525 720965
-0.00758402 0.031852614 0.42044294 720965
-0.0046272436 0.031785298 0.4205566 720966
-0.0014429132 0.031218061 0.4210915 720966
0.0015210491 0.031175993 0.42154944 720966
0.0045676343 0.031210206 0.42201212 2366547
0.0074590184 0.03135889 0.4225502 8487299
-0.02402525 0.034321703 0.42283121 655428
-0.022474997 0.034283895 0.42236188 655428
-0.019792397 0.034255907 0.42201695 655428
-0.016725115 0.03420962 0.4214485 655428
-0.013664323 0.034160551 0.42084405 720965
-0.010731104 0.034306709 0.42064205 720965
-0.0075838696 0.034506086 0.42042992 720965
-0.0044621793 0.034386579 0.42039645 720965
-0.0015179256 0.034159157 0.42082885 720965
0.0015201517 0.034197349 0.42129919 720965
0.0045647286 0.034233592 0.42174637 720965
0.0076167225 0.034273244 0.42223525 5657449
0.0098380242 0.034852214 0.42278963 8684676
-0.024028802 0.036996853 0.42289376 1247817
-0.022495421 0.037365291 0.42274594 721220
-0.019807383 0.037328772 0.42233375 655428
-0.016729314 0.037259743 0.42155367 720965
-0.01366792 0.037206851 0.42095512 720965
-0.010625231 0.037187941 0.4207412 720965
-0.0075853351 0.037167512 0.42051032 720965
-0.0045497078 0.037156943 0.42039093 720965
-0.0015177168 0.037189808 0.42076299 720964
0.0015191948 0.037216552 0.4210678 919098
0.004560689 0.037243746 0.42137581 920352
0.0076127928 0.037300296 0.42201421 1710366
0.010224549 0.037466053 0.4227125 7829369
-0.021997439 0.039544504 0.42294756 721220
-0.019814877 0.04039095 0.42249084 655428
-0.016733134 0.040310554 0.42164987 720965
-0.013671543 0.040254787 0.42106655 720965
-0.01062751 0.040232237 0.42083076 720965
-0.0075866804 0.040208716 0.42058474 720964
-0.0045501445 0.040193442 0.42042527 853052
-0.0015176127 0.040219225 0.42069602 985890
0.0015177389 0.040219638 0.42070156 394503
0.0045572468 0.040252108 0.4210408 0
0.0076095066 0.040327817 0.42183208 65793
0.010596719 0.040479358 0.42261952 4144964
-0.019592268 0.042462219 0.42262611 787013
-0.016591445 0.043300264 0.42219239 655428
-0.013677771 0.043312255 0.42125353 655428
-0.010630048 0.043278962 0.42093083 720963
-0.007588177 0.043251846 0.42066732 985391
-0.0045505669 0.043230087 0.42045629 591884
-0.001516963 0.043232307 0.42047921 515
0.0015167263 0.043227252 0.42042935 12081
0.004554234 0.043261625 0.42076457 10539
0.0076023489 0.043330804 0.4214389 0
0.010661638 0.043406066 0.42217115 789518
0.013058668 0.043750774 0.4227404 6447463
-0.015882356 0.046249475 0.42263362 655428
-0.013694153 0.046406005 0.42174581 787263
-0.010635388 0.046339333 0.42114192 920352
-0.0075917002 0.04630857 0.42086223 197380
-0.0045522773 0.04628028 0.42060494 4884
-0.0015168362 0.046262421 0.42044348 16709
0.0015167372 0.046260461 0.42042607 6169
0.004553515 0.046291117 0.42070475 0
0.0075983051 0.046347912 0.42122096 0
0.010650664 0.04640485 0.42173958 0
0.013643761 0.04656997 0.4225477 3026227
-0.013550268 0.04941028 0.42234468 723219
-0.010642216 0.049409453 0.4214097 257
-0.0075964932 0.049376458 0.42112869 11310
-0.0045553334 0.049348194 0.42088768 14138
-0.0015177049 0.049321394 0.4206591 1285
0.0015168826 0.049300522 0.42048183 0
0.0045534885 0.049326487 0.42070404 257
0.0075969808 0.049378775 0.42115051 4884
0.010646103 0.049427174 0.4215633 0
0.013708429 0.049500648 0.4221912 394759
0.016069258 0.049950492 0.42277503 4407626
-0.012833714 0.052351434 0.42265907 0
-0.010654816 0.052510567 0.42189515 13881
-0.0076015559 0.05244993 0.42140937 8226
-0.0045584226 0.052420538 0.42117316 257
-0.0015187323 0.052391794 0.42094228 0
0.0015175475 0.052360371 0.42069012 5912
0.0045531658 0.052359197 0.42068148 16966
0.007595757 0.052409098 0.42108262 8996
0.010644593 0.052461438 0.42150307 0
0.013701814 0.052522499 0.42199337 0
0.016769843 0.052595116 0.42257789 2368552
0.018688552 0.053395867 0.42288208 7368563
-0.010463627 0.055422526 0.42245114 514
-0.0076070023 0.055529967 0.42170885 0
-0.0045613088 0.055494189 0.42143768 257
-0.0015195081 0.055455822 0.42114663 11568
0.0015183361 0.055422876 0.42089614 12853
0.0045540445 0.055407502 0.42077971 1029
0.0075956406 0.055446453 0.42107606 0
0.010645545 0.055507429 0.42153883 0
0.013703816 0.055575468 0.42205572 394758
0.016767565 0.055636909 0.4225232 1051934
0.019626342 0.055886287 0.4228574 4801631
0.021744613 0.05684118 0.42297673 8618883
-0.0097239437 0.058152884 0.42280501 0
-0.0076155327 0.058635902 0.42216286 1543
-0.0045631197 0.058557898 0.42160314 15680
-0.0015200685 0.058517367 0.42131117 6684
0.0015191907 0.058492303 0.42113045 0
0.0045560896 0.058471061 0.42097753 0
0.0075956313 0.058484532 0.42107567 394758
0.010644798 0.058544982 0.42151153 986142
0.013699161 0.05860088 0.4219141 2231859
0.016758552 0.0586541 0.42229739 4856108
0.019820115 0.058697373 0.42260912 4332857
0.022431705 0.058835264 0.42285269 7631739
0.024286911 0.059636384 0.42296019 8684676
-0.0070731789 0.061454806 0.42263862 1799
-0.0045669093 0.061647624 0.42192841 2570
-0.0015207786 0.06158803 0.42152181 0
0.0015200399 0.061565287 0.42136613 65793
0.0045586121 0.061542582 0.42121077 855061
0.0075976085 0.061540246 0.42119446 1903666
0.010641239 0.061566405 0.42137441 4790315
0.013691826 0.06161214 0.42168865 6628129
0.01674775 0.061661378 0.42202577 6890784
0.019807244 0.061706491 0.4223344 6497058
0.022488246 0.061746996 0.42261156 3876685
0.024965622 0.061988302 0.42285717 8289664
-0.0042565474 0.064607315 0.42261931 0
-0.0015228889 0.064709336 0.42204058 394502
0.0015209048 0.064644799 0.42162183 1248549
0.0045612296 0.064618409 0.42145002 3412273
0.0076030688 0.06462568 0.42149723 6234402
0.010647071 0.064642735 0.4216086 6693919
0.013688869 0.064642139 0.4216058 6759456
0.016736336 0.064662218 0.42173791 6825248
0.019794442 0.064711817 0.42206138 6890785
0.022591412 0.06484364 0.42234772 5840423
0.025234545 0.06472493 0.42264396 5524840
0.027978742 0.06521415 0.42284977 8684676
-0.001143913 0.067155614 0.42272329 1313835
0.0016109376 0.067526385 0.42226344 4527660
0.0045644776 0.067708954 0.42175907 6628127
0.0076078679 0.067709707 0.42176428 6693919
0.010650961 0.067710169 0.42176768 6759456
0.013688366 0.067681886 0.42159188 6825248
0.016725767 0.067663059 0.42147508 6825248
0.019778868 0.067703791 0.42172942 6890785
0.022837659 0.067751035 0.42202395 6824993
0.025515417 0.067786761 0.42224672 3808062
0.028195729 0.06782154 0.42246327 7894910
0.030130528 0.067889005 0.42288214 8618883
0.0020964278 0.070140511 0.42266011 6693664
0.0045669964 0.070791148 0.42199284 6693920
0.0076108384 0.070781335 0.4219346 6759456
0.010650981 0.070753656 0.42176998 6825248
0.013687365 0.070718668 0.42156166 6825248
0.016719554 0.070678532 0.42132288 6825248
0.019759499 0.070677489 0.42131752 6890528
0.022812193 0.070717111 0.42155376 5643817
0.025486207 0.070752285 0.42176339 4335174
0.028169585 0.070803784 0.42206943 6776180
0.030447554 0.070317686 0.42274326 8553090
0.0022873899 0.073200829 0.42272127 6759456
0.0046444917 0.073781379 0.42211705 6759456
0.0076096123 0.073814556 0.42187214 6890784
0.010646227 0.073764138 0.42158431 6890784
0.013678065 0.07371027 0.42127642 6890784
0.016708262 0.073668547 0.4210377 6037541
0.019739751 0.073644251 0.42089903 4598600
0.022789873 0.073686376 0.42113933 6512497
0.025477467 0.073770158 0.42161655 8223870
0.028090296 0.073607899 0.42219645 8355711
0.030504219 0.073209964 0.42277372 8421504
0.0024146677 0.076256685 0.42275432 6759455
0.0045920513 0.076599583 0.42198375 6825248
0.0076036789 0.076799065 0.42154616 6890784
0.010636698 0.076737247 0.42120713 6693666
0.013667419 0.076689869 0.42094681 4726583
0.016697135 0.076655351 0.42075729 5787752
0.019732863 0.076653861 0.42074782 8224127
0.022801764 0.076764889 0.42135623 8421504
0.025495471 0.076485887 0.42191434 8421504
0.028276868 0.076293334 0.42253378 8421504
0.030130289 0.075516462 0.42287877 8421504
0.0022870009 0.079288214 0.42265445 6759455
0.004457023 0.079307742 0.42188883 6759455
0.0076038032 0.07946144 0.42154959 6496800
0.0107106 0.079687133 0.42113554 4599885
0.013657876 0.079671405 0.42065278 7763068
0.01668974 0.079655126 0.42056587 8487297
0.019750331 0.079759553 0.42111593 8421504
0.022824807 0.07950516 0.4217819 8421504
0.025520161 0.079226412 0.42232302 8421504
0.02783525 0.078929588 0.42277449 8421504
0.0026699442 0.081624083 0.42290598 6693919
0.0045731175 0.082318984 0.42255491 6168866
0.0076172934 0.082269825 0.42230308 4072772
0.010664647 0.082561649 0.42133358 7697530
0.013650911 0.082664281 0.42043719 8487297
0.016701933 0.082748689 0.42086497 8421504
0.019769715 0.08249896 0.42152917 8421504
0.022579677 0.082147159 0.42212552 8421504
0.0250562 0.082099028 0.42267361 8355711
0.0080034882 0.085374832 0.42259192 8158334
0.010537679 0.085337713 0.4216013 8421504
0.013672046 0.085450239 0.42108342 8421504
0.016735144 0.085575499 0.42170104 8421504
0.008197709 0.087507524 0.42276794 8421504
0.010821747 0.087870561 0.42249542 8421504
0.013712008 0.087986477 0.42231941 8421504
-0.027278554 -0.0096051246 0.4259932 8882055
-0.025342831 -0.009855642 0.42574826 8947848
-0.028028246 -0.0072950572 0.4257049 8816262
-0.02530556 -0.0076687951 0.42511719 8816262
-0.022933934 -0.0073892018 0.4255819 8882055
-0.030841278 -0.0039672279 0.42567155 8816262
-0.028379451 -0.0046023144 0.42521229 8684676
-0.02526821 -0.0045941882 0.42448452 8618883
-0.022212697 -0.0045964341 0.42464021 8816262
-0.01936429 -0.0042825965 0.4251596 8158589
-0.016694473 -0.0036460753 0.42552662 6185572
-0.031484798 -0.0023036529 0.42572024 8487297
-0.028190566 -0.0017416279 0.42547968 8553090
-0.025256444 -0.0015308749 0.42428878 8618883
-0.022199849 -0.0015310256 0.42439035 8487297
-0.019226123 -0.0016087592 0.42464969 8092539
-0.016587337 -0.0014442559 0.4246729 6711658
-0.013801147 -0.0015342238 0.42507407 7764088
-0.010898115 -0.00099798548 0.42548233 8947848
-0.0084478222 -0.0003839953 0.42576072 8947848
-0.028207244 0.0016428439 0.42508513 8750469
-0.025231898 0.0015287591 0.42388156 8618883
-0.022245189 0.001451719 0.42379174 8816262
-0.019599786 0.0016154491 0.42355585 8816262
-0.016810713 0.0015276397 0.42361793 8947848
-0.01376245 0.0015285456 0.42388067 8947848
-0.010720274 0.0015308517 0.42452425 8947848
-0.0076691057 0.0015332296 0.42518264 8947848
-0.0047596032 0.0020726167 0.42560887 8947848
-0.0026884298 0.0026884298 0.425834 8882055
-0.030507024 0.0051802034 0.42547238 8882055
-0.028328227 0.0045933244 0.42443746 8487554
-0.025516719 0.0043905093 0.42331815 8487297
-0.013167522 0.0036258283 0.42318296 8882055
-0.010616854 0.0045060911 0.42344949 8816262
-0.0076485318 0.0045887171 0.4240416 8882055
-0.0045961742 0.0045959344 0.42470914 8882055
-0.0020722931 0.0047589927 0.42555889 8816262
-0.031294826 0.0077823959 0.42536861 8421761
-0.028304787 0.0076495716 0.42408818 8487297
-0.026183849 0.0074047111 0.42320228 8618883
-0.0097939409 0.0067412741 0.42308608 8750469
-0.0075594578 0.0075594946 0.42333013 8684676
-0.0045868023 0.0076449332 0.42383832 8684676
-0.0015315874 0.0076602572 0.42470714 8882055
0.0012366717 0.0082279034 0.42543095 9013641
-0.033397667 0.010748259 0.42563424 8487554
-0.031414092 0.010725896 0.42475736 8816262
-0.0284831 0.010493288 0.42368168 8816262
-0.026327964 0.009539118 0.42306575 8618883
-0.0068690008 0.0099219121 0.42312044 8684676
-0.0045054108 0.010614839 0.42336735 8684676
-0.0015293986 0.01070856 0.42405629 8684676
0.0015330709 0.010728132 0.42483103 8684676
0.0040684426 0.010899599 0.42553973 8750469
-0.033767361 0.01381375 0.42545152 8553090
-0.03134029 0.013758362 0.42375728 8750469
-0.029386822 0.012975873 0.42315704 8816262
-0.0036255084 0.013166329 0.4231438 8684676
-0.0015277071 0.013753176 0.42359221 8684676
0.0015316803 0.013780503 0.42443237 8684676
0.0046035647 0.013808987 0.42530981 8684676
0.0067851827 0.014722392 0.42583469 8750469
-0.033937085 0.016733782 0.42490414 8684676
-0.031714778 0.016812541 0.42365959 8421504
-0.0012086654 0.016606895 0.42329383 8684676
0.0015301543 0.016826242 0.42401567 8684676
0.0045213979 0.016780755 0.42480299 8750469
0.0071958848 0.01659786 0.42550972 8816262
-0.034593128 0.01925214 0.42521951 8421504
-0.031245509 0.019605059 0.42366758 8421504
-0.00038159383 0.019079629 0.42309803 8750469
0.0015279081 0.019694218 0.42342541 8750469
0.0046800743 0.019394925 0.42422262 8816262
0.007666742 0.019165143 0.42500311 8816262
0.0097902492 0.019772148 0.42568871 8882055
-0.034148004 0.022253493 0.42541075 8487297
-0.031431239 0.022253517 0.4239527 8487297
-0.029383469 0.022896264 0.42310879 8421504
0.0024173947 0.021501033 0.42319033 8816262
0.0046608164 0.022079749 0.42355797 8750469
0.0076560015 0.022200286 0.42439917 8618883
0.010361814 0.022257721 0.42549598 8618883
-0.034145124 0.025320726 0.42537495 8487297
-0.03137112 0.02524966 0.42417672 8421504
-0.028887821 0.025324591 0.42329895 8421504
0.0054202485 0.024657805 0.42321619 8684676
0.0076479614 0.025235634 0.42395306 8750469
0.010735955 0.025304072 0.42510512 8816262
0.01318369 0.025982978 0.4257516 8947848
-0.033992033 0.028106345 0.42559692 8421504
-0.031415947 0.028350875 0.42478353 8421504
-0.028279733 0.02827956 0.42371508 8421504
-0.026334587 0.02900628 0.42317218 7894908
0.0080186352 0.02801205 0.42335609 8750469
0.010712271 0.028309153 0.42417037 8750469
0.013730479 0.028456608 0.42522785 8684676
0.015752582 0.029584117 0.425998 8553090
-0.033421967 0.030348685 0.42594394 8421504
-0.031258024 0.031257831 0.42544457 8421504
-0.028327005 0.031388976 0.424422 6578545
-0.025738904 0.031467028 0.42341429 1510730
0.0087768454 0.030528095 0.42310712 8750469
0.010700654 0.031335406 0.42370436 8553090
0.013802122 0.031436317 0.42506772 8553090
0.015750669 0.031501293 0.42594633 8553090
-0.030494129 0.034334809 0.4258287 8421504
-0.028362058 0.034493618 0.42494589 7170934
-0.025602201 0.034390438 0.42367625 1905742
0.011076119 0.034129728 0.42346171 8750469
0.013786791 0.034464553 0.42459601 8816262
0.016217614 0.034833685 0.42559376 8816262
-0.028377563 0.03757998 0.42517632 8421504
-0.025480472 0.037528977 0.42360401 6710387
0.011677533 0.037169512 0.42312422 8618883
0.013761109 0.037458681 0.42380884 8684676
0.01648053 0.03755885 0.42494377 8816262
0.018300628 0.037880607 0.42568603 8750469
-0.027767286 0.040051308 0.42562887 8421504
-0.025255483 0.040560476 0.4242579 8289919
-0.022687411 0.040752441 0.42316666 3946077
0.011827716 0.039298542 0.4230375 8618883
0.013749088 0.040481914 0.42344502 8618883
0.016672624 0.040669065 0.42425877 8684676
0.019266512 0.04062672 0.42526957 8882055
0.021378556 0.041604783 0.42581534 8947848
-0.02499149 0.043526594 0.42520094 8421504
-0.022262054 0.043683238 0.42410845 5854572
-0.019584514 0.044041499 0.42369714 655428
-0.01794089 0.044279706 0.42323911 655428
0.014409246 0.04322727 0.42321393 8684676
0.016822875 0.043584935 0.42390978 8684676
0.019536955 0.043669987 0.42473701 8684676
0.022094686 0.04385943 0.42551261 8684676
0.024200786 0.044944316 0.42592055 8750469
-0.024203923 0.045718517 0.42597574 8421504
-0.021792468 0.046441909 0.42556235 6315375
-0.019527335 0.046711501 0.42452255 1313609
-0.01733721 0.046741165 0.42340475 655428
0.0148815 0.045407657 0.42307931 8684676
0.016807472 0.046600852 0.42352182 8618883
0.01951753 0.046688084 0.42431521 8684676
0.022234226 0.046767261 0.42503527 8684676
0.024781499 0.047131326 0.42562887 8750469
-0.021122342 0.049157511 0.42581314 8421504
-0.019340416 0.049726319 0.42500514 5920620
-0.016742544 0.049614269 0.42380789 984891
-0.014884654 0.050378911 0.42316896 1052691
0.017347261 0.049326751 0.42323968 8684676
0.019490639 0.049681086 0.42373112 8750469
0.022202391 0.04976264 0.42442662 8750469
0.025236137 0.049780622 0.42523438 8750469
0.027267752 0.049926762 0.42582452 8816262
-0.019123269 0.05225176 0.42547068 8158333
-0.016385766 0.052704703 0.42429492 2105121
-0.014280954 0.052846409 0.42336735 0
0.019745413 0.052642312 0.42323637 8684676
0.022251099 0.052682694 0.42389697 8750469
0.025283348 0.052671984 0.42473748 8750469
0.02808415 0.052393168 0.42558178 8750469
-0.018371081 0.055112965 0.4256222 8421504
-0.016553663 0.055407722 0.42485461 5263440
-0.013649918 0.055634793 0.42374858 263172
-0.011576962 0.056612197 0.42316607 0
0.020732658 0.054820627 0.42308521 8684676
0.022597929 0.055643596 0.42336646 8750469
0.025313431 0.055732746 0.42410889 8750469
0.028373182 0.055211298 0.42511636 8750469
0.030334996 0.055678081 0.42575184 8618883
-0.018051373 0.057226691 0.42584547 8421504
-0.016430099 0.058219686 0.42544517 8092539
-0.013892454 0.058356915 0.42448655 3223857
-0.010922537 0.058811802 0.42343172 65793
0.023276716 0.057619411 0.42308882 8750469
0.02541499 0.05861507 0.42349708 8750469
0.028345132 0.058220748 0.4246929 8618883
0.030714156 0.058356438 0.42568287 8684676
-0.016003184 0.060555737 0.42584836 8421504
-0.013805931 0.061356939 0.42518726 8092539
-0.010816307 0.06134345 0.42396 2829099
-0.0082696648 0.062085878 0.42318776 0
0.026075058 0.060926467 0.42308888 8684676
0.028217897 0.061441392 0.4236922 8882055
0.031431448 0.061327547 0.42499205 8947848
0.033708114 0.061964195 0.42567539 8882055
-0.01328213 0.064336583 0.42562023 8421504
-0.010722633 0.064332239 0.42457682 6776679
-0.0077302805 0.064454906 0.42364126 526344
-0.0057271048 0.064907327 0.42333439 0
0.028877139 0.063860111 0.42314351 8684676
0.03134831 0.064223878 0.4238669 8750469
0.034436423 0.064499587 0.42518011 8750469
0.036489457 0.065296829 0.42587632 8750469
-0.012675074 0.066832282 0.42586923 8421504
-0.010742509 0.067138709 0.42537495 8224125
-0.007663276 0.067430608 0.4247959 1052688
-0.0046936101 0.06739819 0.42356175 394758
-0.0020611582 0.068014555 0.42318803 1248558
0.031487104 0.067120269 0.4235324 8618883
0.03447802 0.067422062 0.42474699 8618883
0.036801223 0.067733653 0.42567292 8618883
-0.0074065528 0.070489682 0.42529577 1644827
-0.0045945714 0.070444852 0.42449006 1510446
-0.0015293149 0.070329085 0.42379293 4724779
0.00070872984 0.070390828 0.42318153 6628128
0.03194727 0.070130661 0.42336804 8618883
0.034445152 0.070419505 0.42434236 8684676
0.037340906 0.070695773 0.42547292 8684676
-0.0071430802 0.072889052 0.42579967 1708609
-0.0046039652 0.073654637 0.42534086 4987434
-0.0015310815 0.073459536 0.42421514 6693920
0.00076344889 0.073304072 0.42331746 6759456
0.032070883 0.073304676 0.4233208 8421504
0.034430258 0.073449954 0.42415971 8421504
0.03751241 0.073566034 0.4252739 8487297
0.039572116 0.073381305 0.42598248 8487297
-0.0042864359 0.076573677 0.42557406 2954560
-0.0015323531 0.076583594 0.42456394 6037539
0.00099266798 0.076385953 0.42346996 6824991
0.031472098 0.076470308 0.42333302 8355711
0.034446638 0.076546662 0.42436042 8421504
-0.0034557055 0.079865009 0.42572966 7631483
-0.001532927 0.079660729 0.42464092 4799836
0.00076356897 0.079428941 0.42340475 5118763
-0.0038395405 0.082546376 0.42569509 8553090
-0.0014445317 0.082488582 0.42478698 7302776
0.0013644557 0.082671963 0.42380676 4003379
-0.00089588395 0.084968209 0.42564681 8158334
0.0016393932 0.085571244 0.42437574 3154766
0.0045835539 0.085562766 0.42351997 4140624
0.006488841 0.085500203 0.42321193 6775922
-0.0003841263 0.087196663 0.42590594 8421504
0.0014233078 0.088354573 0.42513958 7631737
0.0046667899 0.088677876 0.42417043 8026749
0.007448772 0.088941343 0.42354158 8421504
0.010435786 0.089468271 0.42332509 8421504
0.002070993 0.090446413 0.4252921 8421503
0.0045998907 0.09104187 0.42502621 8421504
0.0077877566 0.091282189 0.4246572 8421504
-0.02837933 -0.012913719 0.42868799 4869986
-0.025755072 -0.013006572 0.42834762 6514025
-0.023599828 -0.012767119 0.42896184 7895160
-0.033618912 -0.010047232 0.42845386 1249150
-0.031540707 -0.010642814 0.42796496 1249661
-0.028585672 -0.010864967 0.4271476 4870250
-0.025410583 -0.011320101 0.42689061 7895676
-0.022361701 -0.01079689 0.42749339 8684674
-0.019548727 -0.010354408 0.42837152 8289402
-0.034191877 -0.007564269 0.427881 2631038
-0.031571105 -0.0077006295 0.42688188 6249859
-0.029089093 -0.0083294967 0.42624867 8684677
-0.021634301 -0.0079810321 0.42644516 8816261
-0.019280655 -0.0077132871 0.42757398 8355452
-0.016615527 -0.0070108972 0.42844012 7960950
-0.014315835 -0.0065775458 0.42899737 7303279
-0.034295153 -0.004624112 0.42723933 8355458
-0.031909727 -0.0049980702 0.42626709 8882055
-0.018654171 -0.005577188 0.42645884 7500660
-0.016069857 -0.0050773486 0.4270151 6448486
-0.013608216 -0.0045380662 0.42735642 6251365
-0.010891468 -0.0043638209 0.42776519 6251365
-0.007875775 -0.0040929643 0.42805743 7303538
-0.0052162381 -0.0036709143 0.42843288 8618884
-0.034294017 -0.0015410119 0.42722046 8421504
-0.031525269 -0.00076877524 0.42626861 8421504
-0.029337367 -0.00064048474 0.42613378 8487297
-0.010508601 -0.0024350637 0.42628661 8355968
-0.0075855567 -0.0017047708 0.42663899 9079434
-0.0046245945 -0.0015427404 0.42734888 9145227
-0.0017902846 -0.0011592756 0.42824113 9013641
0.00038686013 -0.00038686013 0.42893714 8618625
-0.034333415 0.0015433804 0.42771769 8421504
-0.031576686 0.0015405888 0.42695859 8487297
-0.029605731 0.00076888117 0.42630923 8750469
-0.0043566786 0.00064066582 0.42624578 8947848
-0.0014622712 0.0014624597 0.42687148 8882055
0.0013374675 0.0017523901 0.42822605 8552832
0.0034817192 0.0027080039 0.42893443 8223865
-0.034377772 0.0046352181 0.42827448 8553090
-0.031889603 0.0044269306 0.42684773 8816262
-0.00064087292 0.0043581375 0.42639366 8816262
0.0015426873 0.0046249554 0.42738622 8816262
0.0042512915 0.0050235889 0.42848715 8421245
-0.034630954 0.007789195 0.42757273 8816262
-0.032684334 0.0069212103 0.42634422 8947848
0.0019233314 0.0069775577 0.42643005 9079434
0.0046242941 0.0077048838 0.42719725 8684674
0.0070519638 0.0080173677 0.42842102 8355194
-0.03686149 0.011050301 0.42841354 8487297
-0.035039708 0.010780779 0.42692208 8355711
0.0055127018 0.010512046 0.42643204 8750212
0.0077174921 0.010802243 0.42778063 8289659
0.0096678985 0.011601351 0.42877728 8289658
-0.037078317 0.013518156 0.42823744 7171952
-0.035414491 0.013472796 0.42680445 8290175
0.0078062708 0.013405344 0.42689168 8552832
0.010210532 0.013631776 0.42835143 8289659
-0.037173692 0.016413717 0.42822117 8816262
-0.035542589 0.015910139 0.42680395 8750469
0.008589915 0.015897205 0.42645276 8750469
0.010802956 0.016202122 0.42774004 8355452
0.013018166 0.017142542 0.42873201 8355195
-0.039057013 0.019721998 0.428763 8618883
-0.037340403 0.019246737 0.42681348 8618883
0.011098119 0.019051494 0.42675051 8684675
0.013511174 0.019300124 0.42800418 8355451
0.015333296 0.020229449 0.4285945 8355708
-0.039804406 0.023573484 0.42848301 8553090
-0.037766591 0.022351364 0.42727786 8421504
-0.035752892 0.022297718 0.42625344 8421504
0.011914521 0.022291526 0.42614222 8618883
0.013474518 0.022328196 0.42684594 8355453
0.016049307 0.022500819 0.42803913 8289658
-0.039349638 0.025279835 0.42857951 8027775
-0.037500139 0.025404641 0.42728361 8487297
-0.035753775 0.025373578 0.42626399 8553090
0.013898973 0.024995876 0.42638192 8816262
0.016270833 0.025368312 0.42747173 8158074
0.018178292 0.026300374 0.42883956 8223609
-0.037281431 0.028404931 0.42790431 8421504
-0.035319217 0.028837617 0.42631927 8421504
0.014987693 0.027285287 0.42609835 8487297
0.01662441 0.028382592 0.4268471 8618883
0.018990036 0.028773339 0.42823359 8355451
-0.036721125 0.030923253 0.42858016 8421504
-0.034742512 0.031660549 0.42704991 8421504
-0.03241051 0.032410469 0.42611358 8421504
0.016924318 0.031540431 0.4264755 8553089
0.019281931 0.031620845 0.42756376 8223867
0.021519894 0.031957392 0.42863038 8092279
-0.034044683 0.034043968 0.42732337 8421504
-0.031997148 0.034724686 0.42649928 8421504
0.017106518 0.034020588 0.42622617 8816262
0.019257355 0.034661334 0.42702034 8750469
0.022241956 0.034879409 0.4283444 8223866
-0.031402815 0.037616786 0.42683339 8093310
0.019770851 0.037540745 0.42647704 8750469
0.022371842 0.03779877 0.42765892 8684676
0.024506908 0.037958063 0.42858595 8355450
-0.031033812 0.040404353 0.42781752 8093310
-0.028763143 0.040979739 0.42663738 8421504
0.020369856 0.0395867 0.42613947 8947848
0.022529151 0.040586777 0.42671114 8882055
0.025212148 0.040473972 0.42802635 8355708
-0.030797802 0.042395145 0.428628 7699324
-0.028652757 0.043363519 0.42764518 8421504
-0.026276367 0.044221241 0.42635569 8421504
0.023446634 0.043049425 0.42617732 8882055
0.025480462 0.043347556 0.42723063 8684418
0.027947543 0.043917015 0.42839155 8355451
-0.027906032 0.04605931 0.42824793 8421504
-0.025615707 0.046544448 0.42708695 8421504
-0.023076031 0.046921104 0.42642909 8421504
0.026062947 0.04596993 0.42652935 8816261
0.028556172 0.046305053 0.42785057 8289659
0.030555755 0.047187287 0.4288502 8158072
-0.02746504 0.048353944 0.42890546 8421504
-0.02541027 0.049351711 0.42816278 8355711
-0.022585033 0.049342416 0.42664477 8421504
0.026513018 0.048030827 0.42603937 8882055
0.028664133 0.04918379 0.42699844 8750468
0.031123115 0.049753152 0.42837277 8289659
-0.024520464 0.051936854 0.4281469 8355711
-0.022339618 0.052380607 0.42703992 8355711
-0.020373747 0.053048708 0.42622086 8421504
0.029423075 0.051730435 0.42644733 8882055
0.031623166 0.052445602 0.42757854 8552832
0.033828221 0.053158302 0.42865735 8355451
-0.021819687 0.05535733 0.42742509 8421504
-0.019869916 0.055506989 0.42640233 8421504
0.031813622 0.055309948 0.42655942 8618882
0.034574691 0.05569277 0.42797595 8289659
0.036737308 0.056846149 0.42876902 8355452
-0.02120091 0.057820719 0.42739701 8421504
-0.01931892 0.058570758 0.42668161 8421504
-0.017293757 0.059567384 0.42610487 8421504
0.03229953 0.058446277 0.42633855 8684676
0.034687381 0.058581587 0.42732611 8355709
0.037325311 0.058885176 0.4284133 8223865
0.039068144 0.059956063 0.42888522 8289658
-0.018885087 0.0612785 0.42731601 8289918
-0.016709369 0.061836779 0.42644131 8421504
0.03500751 0.061305977 0.42653611 8882054
0.037626825 0.061810188 0.42757061 8355451
0.039497025 0.061757315 0.42850223 8224122
-0.016184364 0.064501919 0.42722502 8421504
-0.014608148 0.064583421 0.4262369 8421504
0.035742503 0.063414119 0.42612958 8882055
0.037885983 0.064553238 0.4267666 8618882
0.040393569 0.064677246 0.42801991 8289658
-0.015322241 0.066826403 0.42829061 8421504
-0.013567967 0.067644611 0.42675197 8421504
-0.010765265 0.068819784 0.42628491 8158332
0.038321957 0.067543544 0.42631924 8618883
0.040470649 0.067577712 0.42734912 8355709
0.042150717 0.067673065 0.42876378 8158330
-0.0133184 0.070257202 0.42801291 8421504
-0.010696787 0.070606522 0.42707303 8355711
-0.0088405646 0.071109004 0.42617878 6118749
0.038816523 0.070330791 0.42612293 8684676
0.040439114 0.070605911 0.42701498 8553090
0.042128395 0.07034269 0.42853677 8421504
-0.012761274 0.072700739 0.42876548 7829367
-0.0108017 0.073290631 0.4276959 8421504
-0.0078825308 0.073920101 0.42632043 5130852
0.040471051 0.073287115 0.4273524 8421504
-0.010082851 0.075976752 0.42761645 7566195
-0.0077758804 0.076290883 0.42678335 7565689
-0.0057651824 0.07686919 0.42614901 5262440
-0.0073874146 0.07920257 0.42733225 8289918
-0.0050708423 0.079344861 0.42649642 8355712
-0.0068162889 0.082308613 0.42778429 7697781
-0.005259796 0.082226105 0.42668799 8553090
-0.0065695443 0.08463119 0.4284755 7237230
-0.0045498279 0.085506998 0.42744058 8421504
-0.0020944504 0.085689731 0.42647639 8421504
-0.0042504147 0.088033669 0.42837697 8224125
-0.0015409944 0.08855772 0.42691097 8421504
-0.00077255536 0.090691254 0.42789501 8355711
0.0012847367 0.091596514 0.42731336 8355710
0.0034610101 0.091909043 0.42638314 8421504
0.0054067206 0.093077026 0.42821822 8421504
-0.034256324 -0.015571193 0.43161497 2104704
-0.031522378 -0.015566751 0.4314923 7828861
-0.028788799 -0.015951067 0.4313463 8421501
-0.025810432 -0.015782541 0.43099499 4736386
-0.023354279 -0.015180406 0.43157715 8618623
-0.03434208 -0.013315832 0.4305968 1775486
-0.031697277 -0.013363913 0.43002748 2697594
-0.028849887 -0.014009738 0.42977306 6185065
-0.025308752 -0.014075113 0.42951736 7829367
-0.022403466 -0.013654857 0.43030837 8618624
-0.019715745 -0.01290026 0.43050283 8881796
-0.036229044 -0.011297229 0.43193021 1973363
-0.034756579 -0.010587392 0.43022564 1183354
-0.03211531 -0.011994875 0.42901623 1314947
-0.018967113 -0.011225522 0.42918885 8355451
-0.016576491 -0.010178979 0.4299452 8289916
-0.014382143 -0.0097176638 0.43098438 8816261
-0.036399875 -0.0075136428 0.43087384 2894960
-0.035272945 -0.008527833 0.42977387 1249151
-0.015969964 -0.0083083147 0.42956221 8289914
-0.013197248 -0.0077643381 0.43037751 8158330
-0.010585548 -0.0072844094 0.43071339 8026744
-0.0080333799 -0.0068675647 0.43099716 8092538
-0.0058407965 -0.0066195694 0.43173823 9408399
-0.036676589 -0.0044631111 0.43031329 8092542
-0.035999041 -0.005032124 0.42918807 7829377
-0.010455832 -0.0058089332 0.42938295 6448487
-0.0074920771 -0.0055546984 0.42966321 7171952
-0.0045514586 -0.0049056094 0.43032846 8684676
-0.0018449127 -0.0039825002 0.43071672 8816002
0.00038958117 -0.0035062307 0.43195415 9408399
-0.036891114 -0.0015530484 0.43054828 8684676
-0.0010068393 -0.0024016905 0.42947453 8618880
0.0015535085 -0.0015536593 0.43043232 8618623
0.0040213754 -0.00090828957 0.43147051 8552830
-0.036483962 0.0015526189 0.4303357 8421504
0.002453346 0.00064547901 0.42948875 8552574
0.0047356416 0.0014738452 0.43031111 8487037
0.0071306373 0.0022036573 0.43123516 8552830
-0.036258373 0.0044263247 0.43042597 8553090
0.0052936007 0.0040021809 0.42944682 8289658
0.0076843794 0.0047336607 0.43026674 8355451
0.0097228438 0.0054446501 0.43121409 8355708
-0.036950845 0.0089459941 0.43126127 10263708
0.0084265275 0.0074574044 0.42955169 8355194
0.010417946 0.0078743733 0.4306967 8158330
0.012064483 0.008561749 0.43150586 6321012
-0.037660163 0.011259223 0.43047717 8750469
0.010551386 0.010550517 0.42974111 8289658
0.012607649 0.0106077 0.4310565 7699064
-0.039244924 0.014376854 0.43082589 7566710
-0.038342688 0.013942857 0.4294247 7369331
0.01122931 0.01277781 0.42933345 8355195
0.013119459 0.01327324 0.43033546 8289659
0.015166875 0.014389087 0.43119249 8421501
-0.039737921 0.016614113 0.43089747 8684676
-0.038158342 0.015883101 0.42952687 8487297
0.013734988 0.015973186 0.42964432 8355195
0.015925787 0.016701777 0.43066359 8289658
-0.039852824 0.019189868 0.43067127 8618883
0.016492264 0.019174937 0.42984921 8355708
0.01858961 0.019989166 0.43119779 8684676
-0.039958436 0.022111923 0.43014112 8750469
0.017421305 0.021679666 0.42924759 8618881
0.019248772 0.022630621 0.43051031 8684676
0.021427428 0.023764966 0.4319635 8487039
0.01955935 0.025486406 0.430024 8158072
0.021847371 0.026071686 0.43145958 8355195
-0.03915121 0.028297974 0.42979714 6387064
-0.038355418 0.029444771 0.42956725 8421504
0.020335563 0.028082084 0.4294726 8421243
0.02244607 0.028812846 0.43055812 8355451
0.024545196 0.029999685 0.43198198 8289659
-0.037608914 0.03162634 0.42988524 6977658
0.023015881 0.031616796 0.42960945 8289402
0.024937835 0.0319346 0.43106267 8750468
-0.035996243 0.033673905 0.42915472 4418160
0.023612291 0.034063555 0.42918837 8158072
0.0256122 0.034341075 0.43025184 8421245
0.02793229 0.034778822 0.43134037 8289916
-0.033832077 0.036165323 0.43117052 8421504
0.026029594 0.037088584 0.42958596 8289657
0.028382927 0.037324049 0.43108281 8026743
0.026708646 0.039869282 0.42918292 8026486
0.028657325 0.040460035 0.43053046 8355195
0.030751787 0.040872321 0.43160385 8486781
-0.030574337 0.043732911 0.42911097 8421504
0.029052425 0.04299663 0.42949134 8420988
0.031458538 0.043496624 0.43061173 8289658
0.033044428 0.044707168 0.43104142 7039849
-0.029027427 0.046314716 0.42912722 7631988
0.031677112 0.046475377 0.42974481 8158072
0.033973359 0.046770032 0.43116075 7895157
-0.027487898 0.049168494 0.4292624 6118749
0.032483127 0.049194425 0.42949122 8223866
0.034567203 0.049713027 0.43063203 8289658
0.036511134 0.05036781 0.43157926 8420987
-0.025629209 0.052031767 0.43053901 8421504
0.034773305 0.052401382 0.42958444 8355451
0.036828712 0.05292888 0.43065402 8421245
-0.024524858 0.054110404 0.43162405 8421504
-0.023450017 0.055583049 0.43095908 8421504
0.035983775 0.055329893 0.4290061 8355707
0.037624102 0.055523686 0.43005452 8553088
0.039569255 0.056174945 0.43153512 9079434
0.038321406 0.058062576 0.42918634 8289659
0.040181652 0.05846278 0.43060091 8947848
-0.020139515 0.061967451 0.42942154 7829367
0.040854715 0.061087072 0.42976999 8421245
0.042519499 0.061640762 0.43093356 8684674
-0.018758575 0.064168319 0.43032062 8421504
-0.017459368 0.065569624 0.43018541 8421504
0.041421711 0.063487336 0.4292239 8355194
0.043014605 0.064537875 0.43036315 8618883
-0.016354488 0.067701444 0.43058184 8289918
0.043742068 0.067447357 0.4303602 8421246
-0.015401636 0.069758497 0.43049648 8421504
-0.014337604 0.070913576 0.42964971 7631988
0.043547351 0.070314698 0.43013796 8224125
-0.01355371 0.072415538 0.42936814 7237230
-0.0046520457 0.089171544 0.42986923 6052956
-0.0034991472 0.090589039 0.4310815 6052956
-0.0017864559 0.091387965 0.43044838 7829367
0.00038808674 0.092752732 0.43029717 8092538
-0.00038953801 0.093099587 0.43190628 7829366
0.0023318324 0.093679748 0.43099117 7960952
-0.036470134 -0.018431144 0.43480456 1446527
-0.034356244 -0.019361522 0.43400452 6842235
-0.031422749 -0.019110305 0.43403232 8355708
-0.028737748 -0.018715 0.43410072 8289666
-0.036717962 -0.016599253 0.43375438 1775740
-0.034345854 -0.017173119 0.43274394 3486334
-0.031394053 -0.017230857 0.43278864 8618624
-0.028115954 -0.017572969 0.43298447 8026500
-0.024959555 -0.016769817 0.43241382 1314949
-0.022597389 -0.016092099 0.43281782 6973832
-0.020700613 -0.015232527 0.43305895 8223881
-0.036499664 -0.013051997 0.43328786 2038904
-0.019136926 -0.013669237 0.4330273 9276813
-0.017594682 -0.012120781 0.43351945 9211020
-0.037124954 -0.010103958 0.43328032 1249145
-0.016010107 -0.010933796 0.43297178 9408401
-0.013685919 -0.0097756563 0.43355641 9474192
-0.037926309 -0.0076513612 0.43350679 2697343
-0.0042942916 -0.0066377358 0.43292308 9605778
-0.0023504808 -0.0066604372 0.43440366 9737362
-0.037827965 -0.0050700675 0.43239525 7238011
-0.0035103748 -0.0058506248 0.43246469 9079432
-0.0013949249 -0.0053017898 0.43310523 9078919
0.0013045307 -0.0040443055 0.4338955 9474192
0.0027309228 -0.0027309228 0.43256468 9539985
0.0048524844 -0.0017301189 0.43293864 9079176
0.0066474904 -0.00039102885 0.43355927 9211020
0.0075786663 0.0010155087 0.43310493 9013640
-0.037165776 0.0043034055 0.43376976 9211020
0.0089770555 0.0035127609 0.43275863 8553089
-0.037999149 0.010577083 0.43435198 10197915
-0.038711619 0.012903873 0.43355662 8882055
-0.040999506 0.016790275 0.43294129 4418160
0.016083879 0.015299301 0.43495733 6584185
-0.041045632 0.019546885 0.43342838 8421504
0.019874033 0.020653406 0.43207136 7631988
-0.041021358 0.022267723 0.43317208 8028546
0.020660415 0.021829691 0.43221799 7631988
0.021846209 0.02340664 0.43253833 8026745
0.023130156 0.025569357 0.43283099 8355451
0.024692159 0.026259916 0.43456846 8355451
0.023784861 0.027684018 0.43232509 8289658
0.025263561 0.028480001 0.43389714 8552832
0.027067 0.029420651 0.43494135 7829367
0.026259664 0.0310423 0.43294695 9145226
0.027375026 0.031284619 0.43361649 7829367
-0.034883451 0.035667349 0.43457937 8421504
0.028455757 0.034302782 0.43220472 7566194
0.030779764 0.037731513 0.43308043 7894900
0.031452764 0.040290322 0.43231943 8289402
0.035458449 0.047148045 0.43203408 7039849
0.036265593 0.047964171 0.43236595 7039849
0.037678231 0.049622159 0.43321767 8289917
-0.027019829 0.051298514 0.43418336 7237230
-0.025412777 0.053562317 0.43348938 8421504
0.03838608 0.052048042 0.43282178 8816262
0.03974466 0.053057615 0.43416113 8947848
-0.024931012 0.055212419 0.43416956 8026746
-0.023873193 0.056747753 0.43393067 8421504
0.04069842 0.05541227 0.43350479 9013641
-0.023144286 0.057664577 0.4349421 8421504
0.041498967 0.057629813 0.43271789 9079434
0.042586055 0.05899417 0.43319213 8882054
0.043347985 0.061701857 0.43299773 8750469
-0.019641375 0.064906679 0.43266129 7631988
0.044538118 0.064853281 0.43318129 8750468
0.045085125 0.065471441 0.43468547 7434609
-0.018627532 0.066824235 0.43328905 7631988
-0.017550746 0.067863099 0.43243688 7829367
0.045599818 0.068594567 0.43213251 6579300
-0.0019513104 0.092492111 0.4327091 5921370
-0.0011730005 0.093449049 0.4335275 5723990
0.0014341557 0.094461329 0.43338576 7039593
-0.035345629 -0.021599995 0.43544233 9013639
-0.0367136 -0.019633409 0.43536741 4407434
-0.035716482 -0.020409558 0.43517804 6249850
-0.037288863 -0.015308059 0.43520632 1183350
-0.020019148 -0.015308759 0.43522623 10395296
-0.037690852 -0.013297173 0.4362174 1775485
-0.01884052 -0.014130391 0.43520227 9276813
-0.01745344 -0.012992446 0.43650103 9605778
-0.03851502 -0.010218044 0.43575341 3157382
-0.016107265 -0.011392943 0.4355897 9408400
-0.014548984 -0.010616827 0.43598408 9474192
-0.038854867 -0.0082419412 0.43516093 3880842
-0.0011784759 -0.0066780304 0.43555114 10526880
-0.00039248433 -0.0058872649 0.43517306 9408399
0.0017441156 -0.0051190173 0.43655783 9539985
0.0041350764 -0.0037405184 0.4365389 9474192
0.0056374646 -0.0024913976 0.43606308 9342606
0.0073243692 -0.001023953 0.43657464 9211020
0.0082576042 0.00039321926 0.43598792 9079434
0.0090343077 0.002749572 0.43551862 8816262
-0.036491029 0.0066704033 0.43505368 8553090
-0.039062586 0.012231719 0.43748733 10197915
-0.040474776 0.015325401 0.43569934 4610653
-0.042181976 0.021682324 0.43710202 4549747
0.025557807 0.026081437 0.43594411 7171435
0.026068641 0.027378269 0.43573406 8355710
0.039987009 0.050474945 0.43608937 7960953
-0.026308404 0.053009473 0.43537089 7237230
0.040794581 0.052392662 0.43596119 8816262
0.041991722 0.055334888 0.43513057 9013641
0.042187102 0.054408837 0.43715513 8158332
-0.024772238 0.057015467 0.43597779 6118749
-0.022411974 0.058585685 0.43595827 8421504
0.042921156 0.057490028 0.43660086 8684676
0.043955773 0.061275724 0.43644285 8684676
0.044370625 0.063218325 0.43536827 8816261
0.045277882 0.064963914 0.43654391 7434609
-0.03833624 -0.014227812 0.43820512 6447253
-0.016612466 -0.012657057 0.4385621 10132122
-0.015421769 -0.011467469 0.43843907 10000536
0.0039557763 -0.0047474182 0.4386273 10000536
0.0075306576 -0.0019821022 0.4394758 10263708
0.0090943975 0.001977043 0.43841538 9539985
-0.039943319 0.013841744 0.43849277 10395294
0.015498562 0.013908966 0.4406223 6715771
-0.035951585 0.035161439 0.43804255 6387064
-0.034533013 0.037708465 0.44010359 4418160
0.043149278 0.056608688 0.43892136 7434609
0.043963045 0.059408814 0.43914145 8026746
0.044844538 0.061908457 0.44001836 7434609
0.0091552921 0.0011941685 0.44135091 9408398
0.0099725295 0.0043879128 0.44228783 6387063
0.010021627 0.0036077858 0.44446534 7242373
