# .PCD v0.7 - Point Cloud Data file format
VERSION 0.7
FIELDS x y z rgb
SIZE 4 4 4 4
TYPE F F F U
COUNT 1 1 1 1
WIDTH 217
HEIGHT 1
VIEWPOINT 0 0 0 1 0 0 0
POINTS 217
DATA ascii
0.12431943 0.049414035 0.21741498 3092271
0.11844956 0.052557088 0.21743838 3092271
0.12158007 0.052553978 0.21742547 3092271
0.12431896 0.05255124 0.21741419 3092271
0.11257846 0.055504721 0.21746184 3092271
0.115514 0.055501625 0.21744977 3092271
0.11844915 0.055498537 0.21743765 3092271
0.12157965 0.055495236 0.21742474 3092271
0.12431854 0.055492338 0.21741346 3092271
0.10944652 0.058449943 0.21747407 3092271
0.11257807 0.058446459 0.21746112 3092271
0.11551357 0.058443207 0.21744904 3092271
0.11844873 0.058439955 0.21743691 3092271
0.12157924 0.058436479 0.21742398 3092271
0.12431812 0.058433443 0.21741267 3092271
0.10357345 0.061594822 0.2174975 3092271
0.10650998 0.061591409 0.2174854 3092271
0.10944612 0.061587967 0.21747325 3092271
0.11257765 0.061584305 0.21746033 3092271
0.11551316 0.061580867 0.21744823 3092271
0.11844831 0.061577443 0.21743613 3092271
0.12157881 0.06157377 0.2174232 3092271
0.12431767 0.061570574 0.21741189 3092271
0.097503342 0.064544447 0.21752182 3092271
0.10044049 0.06454087 0.21750964 3092271
0.10357308 0.064537033 0.21749675 3092271
0.10650959 0.064533457 0.21748462 3092271
0.10944574 0.064529844 0.21747252 3092271
0.11257726 0.064526029 0.21745957 3092271
0.11551275 0.064522438 0.21744746 3092271
0.11844791 0.064518847 0.21743536 3092271
0.12157838 0.064514957 0.21742246 3092271
0.12431726 0.064511642 0.21741112 3092271
0.091431826 0.067494765 0.21754611 3092271
0.094565518 0.067490757 0.21753316 3092271
0.097502999 0.067486994 0.21752107 3092271
0.10044013 0.067483217 0.21750894 3092271
0.10357274 0.067479216 0.21749601 3092271
0.10650921 0.06747546 0.21748389 3092271
0.10944537 0.067471705 0.21747178 3092271
0.1125769 0.067467697 0.21745887 3092271
0.11551236 0.067463942 0.21744673 3092271
0.1184475 0.067460179 0.21743464 3092271
0.12157795 0.067456171 0.21742171 3092271
0.1243168 0.067452647 0.21741039 3092271
0.088493384 0.070441537 0.2175575 3092271
0.091431513 0.070437603 0.21754535 3092271
0.09456519 0.070433423 0.21753243 3092271
0.097523995 0.070600666 0.21752016 3092271
0.10043976 0.070621721 0.21750812 3092271
0.10357237 0.070617542 0.21749519 3092271
0.10650884 0.0706136 0.21748312 3092271
0.10944494 0.070609652 0.21747097 3092271
0.11257648 0.070605472 0.21745804 3092271
0.11551194 0.07060153 0.21744594 3092271
0.11844707 0.070597596 0.21743384 3092271
0.12157752 0.070593409 0.21742091 3092271
0.12431633 0.070589729 0.21740963 3092271
0.08241991 0.073392965 0.21758181 3092271
0.085554622 0.073388621 0.21756887 3092271
0.088493094 0.073384523 0.21755673 3092271
0.09143123 0.073380433 0.21754463 3092271
0.094564863 0.073376067 0.21753167 3092271
0.0974788 0.073536783 0.21751963 3092271
0.10043942 0.073564045 0.21750741 3092271
0.10357202 0.073559679 0.21749446 3092271
0.10650848 0.073555574 0.21748236 3092271
0.10944457 0.073551476 0.2174702 3092271
0.1125761 0.07354711 0.21745731 3092271
0.11551154 0.073543012 0.21744522 3092271
0.11844666 0.073538914 0.21743309 3092271
0.12157709 0.073534548 0.21742015 3092271
0.12431595 0.073530719 0.21740887 3092271
0.076540992 0.076541036 0.21760526 3092271
0.079480477 0.076536775 0.21759315 3092271
0.082419604 0.076532513 0.21758102 3092271
0.085554302 0.076527946 0.21756805 3092271
0.088492766 0.076523684 0.21755593 3092271
0.09143088 0.076519437 0.21754381 3092271
0.09456452 0.076514877 0.21753089 3092271
0.097501978 0.076510608 0.21751873 3092271
0.10043909 0.076506346 0.21750665 3092271
0.10357162 0.076501787 0.21749373 3092271
0.1065081 0.07649754 0.2174816 3092271
0.10944423 0.076493263 0.21746947 3092271
0.1125757 0.076488726 0.21745658 3092271
0.11551113 0.076484464 0.21744443 3092271
0.11844625 0.07648021 0.21743235 3092271
0.12157667 0.076475658 0.21741943 3092271
0.12431551 0.076471686 0.21740811 3092271
0.070464872 0.079493806 0.21762958 3092271
0.073404983 0.079489388 0.21761747 3092271
0.076540753 0.079484656 0.21760452 3092271
0.079480201 0.079480201 0.21759242 3092271
0.082419321 0.079475775 0.21758023 3092271
0.085554026 0.079471074 0.21756731 3092271
0.088492453 0.079466633 0.21755524 3092271
0.091430582 0.079462215 0.2175431 3092271
0.094564185 0.079457484 0.21753016 3092271
0.097501628 0.079453051 0.217518 3092271
0.10043872 0.079448633 0.21750592 3092271
0.1035713 0.079443909 0.21749298 3092271
0.10650775 0.079439491 0.21748085 3092271
0.10944384 0.079435058 0.21746872 3092271
0.11262342 0.079558857 0.21745558 3092271
0.11551072 0.079621993 0.21744366 3092271
0.11844582 0.07961756 0.21743153 3092271
0.12157625 0.079612844 0.21741864 3092271
0.12431506 0.079608694 0.21740729 3092271
0.064387351 0.082447246 0.21765392 3092271
0.067524187 0.082442336 0.217641 3092271
0.070464619 0.082437746 0.21762884 3092271
0.073404752 0.082433142 0.21761671 3092271
0.0765405 0.082428254 0.21760377 3092271
0.079479933 0.082423642 0.21759164 3092271
0.082419038 0.082419038 0.21757951 3092271
0.085553728 0.08241415 0.21756658 3092271
0.088492148 0.082409561 0.21755445 3092271
0.091430247 0.082404964 0.21754234 3092271
0.094563879 0.082400069 0.2175294 3092271
0.0975013 0.082395479 0.21751729 3092271
0.10043839 0.08239089 0.21750516 3092271
0.10357095 0.082385987 0.21749222 3092271
0.10650737 0.082381405 0.21748009 3092271
0.10944345 0.0823768 0.21746798 3092271
0.11252516 0.082488321 0.21745525 3092271
0.11551034 0.082563423 0.2174429 3092271
0.11844542 0.082558818 0.21743083 3092271
0.12157582 0.082553931 0.21741787 3092271
0.1242277 0.082375489 0.21740696 3026478
0.061446004 0.085592546 0.21766527 3092271
0.064387113 0.085587762 0.21765313 3092271
0.067523934 0.085582688 0.21764018 3092271
0.070464365 0.085577928 0.21762808 3092271
0.073404461 0.085573129 0.21761592 3092271
0.076540209 0.085568048 0.21760297 3092271
0.079479642 0.085563265 0.21759084 3092271
0.08241874 0.085558511 0.21757872 3092271
0.085553415 0.085553437 0.21756576 3092271
0.088491842 0.085548662 0.21755366 3092271
0.091429919 0.085543908 0.21754152 3092271
0.094563529 0.085538805 0.21752861 3092271
0.097500958 0.085534029 0.21751651 3092271
0.10043802 0.085529283 0.2175044 3092271
0.10357057 0.085524194 0.21749142 3092271
0.10650699 0.085519418 0.21747932 3092271
0.10944305 0.085514672 0.2174672 3092271
0.11257452 0.085509568 0.21745428 3092271
0.11550995 0.085504822 0.21744215 3092271
0.11835057 0.085371733 0.21743046 3026478
0.12121686 0.084613234 0.21741885 3026478
0.12333629 0.08411967 0.21741021 2236962
0.055562627 0.08854682 0.21768881 3092271
0.058504384 0.088541873 0.21767665 3092271
0.06144581 0.088536933 0.21766451 3092271
0.064386897 0.088531993 0.2176524 3092271
0.067523703 0.088526741 0.21763945 3092271
0.070464134 0.088521801 0.21762732 3092271
0.073404215 0.088516869 0.2176152 3092271
0.076539949 0.088511601 0.21760225 3092271
0.079479367 0.088506676 0.21759012 3092271
0.082418449 0.088501737 0.21757795 3092271
0.085553125 0.088496484 0.21756504 3092271
0.088491514 0.088491529 0.2175529 3092271
0.091429606 0.088486604 0.21754077 3092271
0.094563201 0.088481344 0.21752788 3092271
0.097500607 0.088476412 0.21751575 3092271
0.10043768 0.088471487 0.21750362 3092271
0.10357019 0.088466242 0.21749067 3092271
0.10650663 0.08846131 0.2174786 3092271
0.10944269 0.088456377 0.21746643 3092271
0.11254923 0.088429764 0.21745363 3026478
0.1152989 0.087858267 0.21744238 3026478
0.11720555 0.087397553 0.21743469 2763306
0.049481791 0.09150207 0.21771313 3092271
0.052620362 0.091496609 0.21770018 3092271
0.05556244 0.09149152 0.21768807 3092271
0.058504168 0.091486417 0.21767594 3092271
0.061445594 0.091481328 0.21766378 3092271
0.064386688 0.091476209 0.21765164 3092271
0.067523487 0.091470778 0.21763867 3092271
0.070463896 0.091465674 0.21762656 3092271
0.073403947 0.091460571 0.21761441 3092271
0.07653968 0.091455147 0.21760152 3092271
0.079479106 0.091450043 0.21758935 3092271
0.082418166 0.091444924 0.2175772 3092271
0.085552827 0.0914395 0.21756431 3092271
0.088491224 0.091434412 0.21755217 3092271
0.091429278 0.091429316 0.21754001 3092271
0.094562881 0.091423877 0.21752711 3092271
0.097500272 0.091418788 0.21751499 3092271
0.10043733 0.091413692 0.21750285 3092271
0.10356984 0.091408238 0.21748994 3092271
0.10650621 0.091403149 0.21747783 3092271
0.10926443 0.090952665 0.21746655 3026478
0.11176935 0.090239204 0.21745639 2960685
0.046538927 0.093666971 0.21772476 3092271
0.049481671 0.093661748 0.2177126 3092271
0.052620232 0.093656175 0.21769966 3092271
0.055562291 0.093650959 0.21768749 3092271
0.058504026 0.093645722 0.21767537 3092271
0.061445434 0.093640514 0.2176632 3092271
0.064386517 0.093635291 0.21765108 3092271
0.067523301 0.093629725 0.21763815 3092271
0.070463702 0.093624495 0.21762601 3092271
0.073403783 0.093619287 0.21761386 3092271
0.076539487 0.093613707 0.21760094 3092271
0.079478905 0.093608491 0.21758881 3092271
0.082417965 0.093603276 0.21757668 3092271
0.085552603 0.093597718 0.21756373 3092271
0.088491 0.093592487 0.21755162 3092271
0.091429077 0.093587272 0.21753949 3092271
0.094562642 0.093581729 0.21752657 3092271
0.097500026 0.093576498 0.21751443 3092271
0.1004371 0.093571275 0.21750234 3092271
0.1035696 0.093565732 0.21748941 3092271
0.10604925 0.093430571 0.21747918 2960685
