# .PCD v0.7 - Point Cloud Data file format
VERSION 0.7
FIELDS x y z rgb
SIZE 4 4 4 4
TYPE F F F U
COUNT 1 1 1 1
WIDTH 1114
HEIGHT 1
VIEWPOINT 0 0 0 1 0 0 0
POINTS 1114
DATA ascii
0.10590383 -0.069879808 0.55475146 1512769
0.088631786 -0.067380615 0.55442721 525882
0.091361076 -0.067398019 0.55354291 657722
0.094271936 -0.067337438 0.55304497 1052219
0.097259812 -0.067333937 0.5530169 1315391
0.10030338 -0.067368001 0.55329728 1315642
0.10338096 -0.067422457 0.55374408 1381438
0.10637584 -0.067375503 0.55438554 1512768
0.10859938 -0.066560909 0.55489051 1775939
0.086310863 -0.064295441 0.55477452 723771
0.088438682 -0.064455703 0.55400085 1051965
0.091305472 -0.064363085 0.55320555 1184061
0.094219722 -0.064308785 0.55273926 1381180
0.097196758 -0.064299449 0.55265826 1578304
0.10023554 -0.064330317 0.55292308 1446973
0.10329597 -0.064372919 0.553289 1513020
0.10639729 -0.064437844 0.55384654 2631745
0.10920555 -0.064189442 0.55457896 2961216
0.086053886 -0.061538581 0.55473113 1446979
0.088432387 -0.061453156 0.55396104 1512771
0.091313139 -0.06137453 0.55325198 1512513
0.094226211 -0.061321914 0.55277753 1446974
0.097172476 -0.061293457 0.55252069 1644605
0.10017822 -0.061303131 0.55260718 2697280
0.10322627 -0.061337397 0.55291569 2829115
0.106304 -0.061386857 0.55336124 3157823
0.10944452 -0.061468881 0.55409986 3355457
0.11190736 -0.060873572 0.55474919 4144706
0.086563177 -0.058542628 0.55478764 1709893
0.0884602 -0.058473852 0.55413568 1578820
0.091330498 -0.058391768 0.55335754 1512771
0.094232522 -0.058334496 0.5528143 1513023
0.097164713 -0.058298878 0.5524767 3289664
0.10014136 -0.058291283 0.55240417 3618622
0.10316744 -0.058312073 0.55260074 3026236
0.10623153 -0.058352575 0.5529843 1710396
0.10933314 -0.058410902 0.55353653 3289664
0.11236894 -0.058371842 0.55435115 3618624
0.11462186 -0.057561193 0.55497271 2631488
0.086591944 -0.056560058 0.55497199 1644357
0.088496991 -0.055498257 0.55436641 2236740
0.091354236 -0.055411685 0.55350131 3026498
0.094242617 -0.055348895 0.55287391 2368576
0.097165331 -0.05530956 0.55248052 3750207
0.10012169 -0.055291131 0.55229598 3224126
0.10312396 -0.055298388 0.55236804 3092032
0.10616778 -0.05532692 0.55265254 2236988
0.10924573 -0.055371176 0.55309433 3355456
0.11237697 -0.055439372 0.55377471 3553087
0.11493482 -0.055316865 0.55455005 3026751
0.088817477 -0.052661795 0.5545826 3881794
0.091397002 -0.052440956 0.55376065 3684417
0.09427534 -0.052375242 0.55306631 3355201
0.097178675 -0.052327022 0.55255657 3421246
0.10011371 -0.05229824 0.55225217 3289918
0.10309228 -0.052293226 0.55219871 3158079
0.10611395 -0.052309737 0.55237252 2894655
0.10917419 -0.052343849 0.55273229 3092286
0.1122708 -0.052393105 0.55325204 3816255
0.11544342 -0.052474365 0.55410898 3092288
0.11758526 -0.052037872 0.55478501 2565695
0.089322619 -0.049790438 0.55483413 3552836
0.091460243 -0.049478531 0.55414414 2630979
0.094317541 -0.049404461 0.55331397 3420993
0.097201906 -0.049348693 0.55268884 3224127
0.1001177 -0.049311742 0.55227453 3421759
0.10307261 -0.049295638 0.55209363 3684414
0.10607175 -0.049301006 0.55215323 2631232
0.10911176 -0.049324542 0.55241638 2565951
0.11218785 -0.049362712 0.55284351 3947839
0.11531358 -0.049420178 0.55348629 2697276
0.11821343 -0.049356848 0.55437732 2236992
0.091647312 -0.046636432 0.55451959 2104901
0.094372362 -0.046437219 0.55363595 3750209
0.09723819 -0.04637517 0.55289561 3750208
0.10013395 -0.046330657 0.55236441 3947841
0.10294218 -0.046429802 0.55206192 3881792
0.10671308 -0.046967044 0.55203623 1841985
0.10918889 -0.046439547 0.55217683 2038846
0.11211577 -0.04634124 0.55248845 3552575
0.11521069 -0.046383604 0.55299294 3947583
0.11837791 -0.046452198 0.55380976 3816257
0.1208074 -0.046272174 0.55464596 2565696
0.092311986 -0.04377934 0.55475557 2894662
0.094441324 -0.04347299 0.55404067 4079171
0.097287424 -0.043405168 0.55317575 4144960
0.10016179 -0.043353625 0.55251819 2565440
0.10258164 -0.043323305 0.55213124 1907774
0.11004171 -0.044315439 0.55208343 1841731
0.11205576 -0.043328293 0.55219299 1973309
0.11512808 -0.043359995 0.55259657 2631230
0.11825357 -0.043409631 0.55322832 2039356
0.12146633 -0.043488082 0.55422676 1775936
0.12360671 -0.042536721 0.55486172 2105155
0.094634332 -0.040629067 0.55443943 2762821
0.097348765 -0.040437173 0.55352479 2565442
0.10020379 -0.040380631 0.55275035 3092032
0.10309139 -0.040340122 0.55219507 3552831
0.1126921 -0.040994037 0.5520578 1775678
0.11505646 -0.040344544 0.55225301 1710140
0.11815066 -0.040380701 0.55274725 1973309
0.12131444 -0.040438265 0.55353445 2236731
0.12418834 -0.040173631 0.55447793 2631483
0.095303603 -0.03777118 0.55469507 3158084
0.097424313 -0.037470859 0.5539546 4210753
0.10026135 -0.037410922 0.55306786 4210751
0.10312671 -0.037364736 0.55238444 2960448
0.10506044 -0.036845818 0.55207294 1710144
0.11568815 -0.038009461 0.55209899 2302268
0.11806585 -0.037362691 0.55235076 2368056
0.12119491 -0.037405949 0.55298918 3487036
0.12439463 -0.037468415 0.55391145 4211008
0.12691702 -0.036857624 0.55474794 4408128
0.097510301 -0.034503587 0.55444372 3354950
0.10033224 -0.034442365 0.55345935 3091780
0.10317909 -0.034392998 0.55266529 1709889
0.10547737 -0.034163099 0.55217057 1841473
0.11699601 -0.03534773 0.55200481 2170672
0.11861528 -0.034558836 0.55212623 3750461
0.12108837 -0.034383222 0.55250335 4211006
0.12425303 -0.034431688 0.55328155 4276543
0.12734807 -0.034367815 0.55426359 4342336
0.098157659 -0.031718571 0.55470926 2104903
0.10041586 -0.031473562 0.55392069 1973061
0.10324305 -0.03142174 0.55300808 1775939
0.10609773 -0.031380981 0.55229002 2170945
0.1213003 -0.031516802 0.55217272 4210750
0.12413284 -0.031407237 0.55274636 3816251
0.12731253 -0.031453855 0.5535658 3553598
0.12993173 -0.03130782 0.55451757 3422015
0.098602057 -0.029530564 0.55495709 2302277
0.10050435 -0.028501146 0.55440903 3092037
0.10332101 -0.028450642 0.55342603 2236483
0.10615598 -0.028407888 0.55259347 1841474
0.10830374 -0.028134048 0.55210793 1710145
0.12248443 -0.028878428 0.55205894 3816252
0.12432443 -0.028537063 0.55233258 3553853
0.12717381 -0.028427243 0.55296308 3488062
0.13040297 -0.028479019 0.55396819 3421759
0.13258651 -0.028018424 0.55474472 2895414
0.10115485 -0.025713872 0.55468404 4276295
0.10340515 -0.02547654 0.55387682 3420741
0.10622656 -0.025434453 0.55296111 1907267
0.10880028 -0.025261009 0.55228204 1710145
0.12517701 -0.025593068 0.55207598 3422781
0.12735644 -0.025556829 0.55251974 3554110
0.13022839 -0.025447108 0.55322719 3092790
0.13336805 -0.025373809 0.55435193 3026997
0.10159893 -0.023522904 0.55492306 4407880
0.10349862 -0.022499582 0.55437756 3157572
0.10630536 -0.022458784 0.55337143 1907268
0.10913361 -0.022424635 0.55252922 1841217
0.11103777 -0.021908749 0.55208445 2038592
0.12798253 -0.022409458 0.55215001 2961461
0.13022354 -0.022555575 0.55267787 3224889
0.13331249 -0.022468626 0.55360204 3026998
0.13595594 -0.022309365 0.55461037 3685441
0.10415027 -0.019709436 0.55465102 2104902
0.10639323 -0.019480327 0.55382907 2038854
0.10920428 -0.019447248 0.55288726 2499396
0.11147463 -0.019226599 0.55227578 4013124
0.12895638 -0.020413943 0.55205548 2434345
0.13059989 -0.019624958 0.55226767 3092791
0.13314526 -0.019448383 0.55290794 3422012
0.13641776 -0.019488521 0.55404651 3816512
0.13861272 -0.019015603 0.55483389 4342595
0.10460002 -0.017516751 0.55491334 2236231
0.10649204 -0.016498618 0.55434352 2170438
0.1092855 -0.016467558 0.55329871 2170692
0.11210074 -0.016441353 0.5524168 2368065
0.11401104 -0.01543381 0.5520153 2302525
0.13162303 -0.017096067 0.55210215 3290166
0.13352881 -0.016442202 0.55243278 3026994
0.13622445 -0.016466927 0.55326194 3224117
0.13920844 -0.016356649 0.55435818 4342335
0.10714749 -0.013705979 0.55462921 2170694
0.10937947 -0.013484988 0.55377471 2170436
0.11217614 -0.013461022 0.55278862 2763580
0.11429244 -0.013197119 0.55217242 3291181
0.13444994 -0.013445034 0.55212379 3421491
0.1363724 -0.013601783 0.55270672 3618614
0.13931948 -0.013482805 0.55366331 3552819
0.14181016 -0.013255835 0.55461776 4145213
0.10760464 -0.011511194 0.55492234 2236485
0.10948545 -0.010498423 0.55431145 3026498
0.11226392 -0.010477816 0.55322134 4080186
0.11495589 -0.010337259 0.55237007 2961205
0.13697284 -0.010459814 0.552257 3224111
0.13927393 -0.010598424 0.55298746 3223855
0.14243811 -0.010495756 0.55413979 4144956
0.14459935 -0.0095065311 0.55476385 3289654
0.11014576 -0.0077030933 0.55461383 4342845
0.11236751 -0.0074909828 0.55373192 4080185
0.11515316 -0.0074773338 0.55271959 2565695
0.11727528 -0.0072207027 0.55214792 2039104
0.13794339 -0.0084658395 0.55215472 3553076
0.13950385 -0.007473663 0.55241746 3289904
0.14222305 -0.0074857101 0.55330342 3881785
0.14523409 -0.0073583568 0.55445719 3421494
0.11060547 -0.0055052494 0.55491185 4343101
0.11248025 -0.004498993 0.55428767 3751225
0.11524633 -0.0044899373 0.55316716 2499648
0.11793636 -0.0043587363 0.5523296 2894647
0.14042556 -0.0044817063 0.55212396 3289904
0.14235829 -0.0046291151 0.55272233 2829097
0.14533345 -0.0044951723 0.55374604 3092532
0.14783373 -0.0042526359 0.55469662 4145213
0.11314521 -0.0017005522 0.55460501 2895167
0.11535459 -0.0014979041 0.55368698 2894402
0.11812833 -0.0014951399 0.55264544 3881530
0.12001884 -0.00099595496 0.55216902 4276542
0.14296329 -0.001494442 0.55230892 2434348
0.1452726 -0.0016212348 0.55303985 2894898
0.14830329 -0.0013745397 0.55411321 4210749
0.15063784 -0.00050045794 0.55489045 4408385
0.11361088 0.00050048844 0.55492431 2302277
0.1154738 0.0014999115 0.55425936 3223618
0.11822406 0.0014967123 0.55309391 4473922
0.12075527 0.0016366927 0.5522843 4342591
0.14391083 0.00099582062 0.55212229 2039586
0.1455 0.0014945843 0.55248356 2631976
0.14822578 0.0014969067 0.55335718 4013371
0.15118763 0.0018335291 0.5544582 4013626
0.116141 0.0043016486 0.5545792 3881784
0.11833962 0.004494153 0.55363458 4408128
0.12128872 0.0045845471 0.55251133 4473665
0.1466812 0.0042334055 0.55224115 2434597
0.14856441 0.0044865441 0.55276144 3355442
0.15134448 0.0044950126 0.55381161 3882041
0.15357578 0.0050023245 0.55465639 4013369
0.11660545 0.0065058833 0.55488449 3881527
0.11846533 0.0074980822 0.55422282 4342078
0.12120482 0.0074820211 0.55303794 4539458
0.12342539 0.0076705851 0.55225956 4342079
0.14892919 0.0072223283 0.55226564 2697516
0.15126128 0.0073570949 0.55305141 2960942
0.15418532 0.0076412442 0.55427706 3158063
0.11913519 0.010303186 0.55454719 4276286
0.12132648 0.010485272 0.55359316 4276543
0.12426169 0.010562873 0.55243635 4013370
0.14988442 0.0094611421 0.55211514 2434600
0.15148079 0.010463976 0.55248839 2631977
0.11960975 0.012511481 0.55489188 4144703
0.12145858 0.013495725 0.55419624 3815996
0.12436306 0.013364184 0.5528878 4210749
0.12635413 0.014113146 0.55228853 4210750
0.12214135 0.016305691 0.55457115 4145215
0.12431253 0.01647548 0.55355018 4342592
0.12693568 0.016567789 0.552472 4276542
0.12262181 0.018518396 0.55493397 4342337
0.12446631 0.019495107 0.55423522 4408128
0.12749979 0.019354306 0.5528087 4342591
0.12950218 0.02042152 0.55226034 4210749
0.12530413 0.022259839 0.55462259 4342336
0.12733521 0.022471378 0.55366844 4210750
0.13018247 0.022537213 0.55256522 3487025
0.092025816 -0.075934082 0.5575701 658230
0.09478841 -0.076293662 0.55725574 1315639
0.097462356 -0.076362997 0.55702794 1250105
0.10044914 -0.076341949 0.55687457 986682
0.1034936 -0.076364599 0.55703992 723773
0.10611095 -0.07627254 0.55759305 723519
0.08650519 -0.072926059 0.55764067 657462
0.088830538 -0.073756561 0.55715626 855095
0.091817565 -0.073756054 0.55630851 1579576
0.094614744 -0.073812708 0.55579126 1513017
0.097706713 -0.07415732 0.55555898 657979
0.10069355 -0.074142776 0.5554502 526398
0.10387231 -0.073949479 0.55560964 789309
0.10675029 -0.073634133 0.5563367 1249858
0.10910784 -0.073911928 0.55748802 1644104
0.083499506 -0.069918469 0.55772078 1381686
0.08570312 -0.070834346 0.55700809 1513271
0.088585906 -0.070794202 0.55570775 1447480
0.09114603 -0.071614839 0.55527318 1315639
0.10704099 -0.070970923 0.55545872 1513027
0.1094158 -0.070769258 0.5564962 1907271
0.11153163 -0.070700586 0.55753934 3618889
0.083037183 -0.067711718 0.55715173 1841977
0.085714921 -0.067670472 0.55577981 986680
0.087629564 -0.068601429 0.55520362 789048
0.10762183 -0.068577625 0.55501097 1578818
0.10989714 -0.067792825 0.55575657 2829125
0.11253782 -0.067824446 0.55704337 4342599
0.114159 -0.066886112 0.55760157 2762823
0.080962405 -0.064367712 0.55756718 525881
0.082636252 -0.064865135 0.55665457 591928
0.085057721 -0.064820364 0.5554136 526138
0.11033673 -0.065267213 0.55523783 3816260
0.11272662 -0.06457638 0.55611497 3750213
0.11513235 -0.064856231 0.5574435 2170697
0.080462903 -0.061856125 0.55759233 526139
0.082771003 -0.061702576 0.55620795 986431
0.08463975 -0.061601728 0.55529958 1381188
0.11306401 -0.061959624 0.5555144 3223874
0.11545679 -0.061744586 0.55658346 2236999
0.11742176 -0.061602674 0.55757225 3487050
0.080449156 -0.058828667 0.55749708 1710664
0.0827801 -0.058698852 0.55626833 1841735
0.08514189 -0.058597643 0.55530912 1709893
0.11364757 -0.059577357 0.55510348 2368319
0.11594665 -0.058788069 0.55592251 3749958
0.11861005 -0.058802769 0.55724758 3092038
0.1202196 -0.057846252 0.55772108 3026761
0.080572858 -0.056028862 0.55765647 2499654
0.082837299 -0.055727072 0.55665272 1973319
0.085548744 -0.055487912 0.5555135 1841734
0.11644539 -0.05584389 0.55531418 4276550
0.11860434 -0.055539858 0.55621016 3092292
0.12100294 -0.055808801 0.55746645 3289672
0.082721271 -0.05286961 0.55722517 2170695
0.085726075 -0.052638941 0.55585188 2170950
0.087612115 -0.052066579 0.55509305 3881797
0.11905347 -0.052761588 0.5556308 2368322
0.12152138 -0.052726526 0.55677027 3553095
0.12355072 -0.052136 0.55761969 3289416
0.083467782 -0.049778849 0.55750865 3026502
0.085804783 -0.049676545 0.55636233 2960710
0.088061139 -0.049390346 0.55539978 4210755
0.11967057 -0.050071508 0.55517399 2499906
0.12171257 -0.049512345 0.55592239 3157830
0.12430695 -0.049756255 0.55725175 2697032
0.085557297 -0.046821654 0.55712992 4013381
0.08870811 -0.046609364 0.55568928 3750213
0.090616442 -0.045558546 0.55509603 2236486
0.12233584 -0.046790343 0.55545288 2039108
0.12444434 -0.04666695 0.55636811 1907528
0.12658924 -0.046553642 0.5574168 2433867
0.086271301 -0.04388994 0.55752319 4408133
0.088801295 -0.04364809 0.55627322 4013381
0.091058642 -0.043375522 0.55535102 2368070
0.12493505 -0.043733589 0.55575985 1908038
0.12760979 -0.043709222 0.55704337 2960202
0.12924348 -0.042745896 0.55759025 2433864
0.088568859 -0.04079039 0.55710912 4342597
0.091707021 -0.040591616 0.55563992 3947589
0.093612082 -0.03954735 0.55504727 2828102
0.12536635 -0.041232318 0.55526656 2762814
0.12759501 -0.04047804 0.55604017 3223613
0.13003035 -0.040718254 0.55736899 3091774
0.08957471 -0.037900783 0.55733746 4013383
0.091806866 -0.037625723 0.55624521 3223623
0.094054557 -0.037361346 0.555296 2960454
0.12809958 -0.037912104 0.55553591 4013370
0.13052855 -0.037652839 0.55663556 3355698
0.13259302 -0.037045553 0.55757648 3355184
0.091734067 -0.034764655 0.55702329 3289415
0.09470623 -0.034575231 0.55559546 3881798
0.12867497 -0.035548337 0.55513757 4276543
0.1306946 -0.034459352 0.55573946 3289651
0.13334592 -0.034676623 0.55721974 3157808
0.092488915 -0.03217002 0.55733037 3157320
0.094634436 -0.031511214 0.55635411 2170695
0.096912071 -0.031302266 0.5553118 2104903
0.13146994 -0.031803411 0.55531138 3092536
0.13344918 -0.031606808 0.55625385 3421502
0.1356355 -0.031470884 0.55740452 4013891
0.094751291 -0.028736964 0.55704063 2170440
0.097596288 -0.028439479 0.55564499 2828871
0.13408712 -0.028707583 0.55563003 3355965
0.13663363 -0.028633213 0.55696446 4211526
0.13832866 -0.028168948 0.55772376 4473923
0.095508292 -0.026139058 0.5573504 2762826
0.097644098 -0.025489617 0.55634838 3947336
0.099913038 -0.025291171 0.55528921 4473671
0.13470818 -0.026541017 0.55524081 3751236
0.1365703 -0.025423616 0.55582994 3883076
0.13904387 -0.025631038 0.55722904 4539717
0.097762629 -0.022707509 0.55702353 3881289
0.10059958 -0.022425037 0.55562538 4276295
0.13751195 -0.022793671 0.55544049 3948611
0.13951342 -0.022583542 0.55642933 4539974
0.14153267 -0.022374036 0.55746514 4605768
0.09836451 -0.020275984 0.55739444 3223113
0.10049889 -0.019479156 0.55639571 2762823
0.10291544 -0.019280897 0.5552758 2433862
0.13998567 -0.019544592 0.55564773 4539972
0.14246686 -0.019737495 0.55704415 4473923
0.14438194 -0.0186137 0.55778992 4605252
0.10078201 -0.016679749 0.5570516 2236232
0.10360395 -0.016411195 0.5556128 2236486
0.14070526 -0.017024994 0.55519265 4473921
0.14238392 -0.016545044 0.55588049 4342335
0.14489461 -0.016248319 0.55717993 3881783
0.10139137 -0.014244872 0.55745238 2433609
0.10352113 -0.013458828 0.55645692 2302023
0.10592295 -0.013271547 0.55528975 2236486
0.14337704 -0.013726759 0.55545539 3750198
0.14556952 -0.013553534 0.55655897 3421236
0.14769219 -0.012908419 0.55762458 3157809
0.10381357 -0.010652604 0.55714333 2433863
0.10662108 -0.010398896 0.55566746 2302277
0.14583206 -0.010524017 0.55564636 3618618
0.14839816 -0.010552113 0.55712765 3947580
0.1041326 -0.0080487523 0.55777115 2433864
0.10641813 -0.0075293537 0.5565756 3289923
0.10893027 -0.0072618993 0.55530208 4342847
0.1467452 -0.0080135483 0.55531061 4342594
0.14843567 -0.0075225453 0.55601358 4276543
0.15068853 -0.0073387199 0.55729806 4539714
0.10684016 -0.0046232389 0.55720431 4277566
0.10963076 -0.0043851011 0.55568135 4408894
0.14942881 -0.0047106049 0.5556047 4276800
0.15165676 -0.004520135 0.55679274 4473921
0.15335441 -0.0035196093 0.55748874 4671557
0.10713886 -0.0025149966 0.55770826 4409149
0.10943803 -0.0015057138 0.55661678 4277562
0.11193849 -0.001251976 0.55531818 3553596
0.14967598 -0.0025029429 0.55503529 4539714
0.15170707 -0.0015037885 0.55575079 4342335
0.1540985 -0.0015076031 0.55714774 4539970
0.11003639 0.0012204914 0.55710131 3553338
0.11245918 0.0017270404 0.55583256 2499650
0.15244067 0.00083480222 0.55538034 4276543
0.15452792 0.0015046451 0.55628204 4211262
0.15662897 0.0017595149 0.55751091 4671301
0.1101744 0.0035215563 0.55779713 3289660
0.11245836 0.0045188116 0.55665773 3355199
0.11494005 0.0047579966 0.55530131 3552821
0.15499105 0.004509354 0.55554426 4145213
0.15738501 0.0045205527 0.55692333 4474178
0.11306669 0.0072509567 0.55717844 3815994
0.11546978 0.0077429414 0.55584598 3486769
0.15573761 0.0070105856 0.55522978 3684406
0.15748632 0.0075229635 0.55609864 3618612
0.11322051 0.009560843 0.55793327 4013629
0.11548535 0.010544796 0.55672878 3881785
0.11794893 0.01076832 0.55531973 3881528
0.11610048 0.013283342 0.5572679 4210749
0.11848928 0.013760144 0.55590039 4013371
0.11863308 0.016478438 0.55671889 3750200
0.12096074 0.016779393 0.55535066 3618617
0.11914076 0.019203743 0.55738246 3092270
0.12137214 0.019761091 0.55609268 3684407
0.1216867 0.022511328 0.55690652 3618613
0.12414197 0.022744574 0.55546606 4276799
0.12221257 0.025146801 0.557634 2829099
0.12446771 0.025596952 0.55647898 3684663
0.091711655 -0.08483585 0.56056529 3750981
0.093920507 -0.084815107 0.56087476 4013890
0.085574113 -0.081535518 0.55977529 3554115
0.088459268 -0.0821499 0.55966026 3553599
0.091416359 -0.08232525 0.559995 2960445
0.094518311 -0.082387723 0.56041896 1315642
0.097581513 -0.081402056 0.56059498 592188
0.10015739 -0.081441075 0.56086367 526392
0.079893194 -0.078376509 0.56065267 3553864
0.082444727 -0.078982815 0.55982971 3619390
0.085260592 -0.079206631 0.55937314 2960698
0.08829125 -0.079209834 0.55939549 1512758
0.091318876 -0.079210788 0.55939925 723514
0.09429267 -0.079166442 0.55908388 526137
0.097282313 -0.079137318 0.55887687 592183
0.10032351 -0.079150744 0.55897081 1447482
0.10340398 -0.079193376 0.55927092 1710908
0.1063398 -0.078944601 0.55955333 921148
0.10940707 -0.07858105 0.56030709 526399
0.079670362 -0.076347806 0.5606091 3421248
0.082325652 -0.076264918 0.56000066 1644599
0.085263476 -0.076182514 0.55939341 723511
0.088055141 -0.076391719 0.55881345 591929
0.090896323 -0.076796263 0.55835336 460342
0.093104579 -0.077000007 0.55800617 460854
0.10674216 -0.077035487 0.5582633 526399
0.10953868 -0.076410703 0.55895156 1118022
0.11234212 -0.075961374 0.56024235 2433868
0.08042147 -0.073340394 0.56080842 657719
0.082308009 -0.073219642 0.55988288 525878
0.084824361 -0.073402919 0.55871648 525878
0.088086784 -0.074999608 0.55810046 460599
0.11022791 -0.073988602 0.55806804 1775690
0.11257178 -0.07324101 0.55908179 3553098
0.11503827 -0.072593637 0.56024981 4078926
0.079668798 -0.069900222 0.56026167 460597
0.081841789 -0.070414685 0.55899656 526133
0.11331218 -0.070505552 0.55838501 4408392
0.11571464 -0.070286795 0.55964941 3421004
0.11779601 -0.069262035 0.56054997 3289679
0.077390879 -0.066768721 0.56083876 460341
0.079117857 -0.067257263 0.55964237 525877
0.081391685 -0.06796632 0.55821246 1118518
0.11536497 -0.067841642 0.55856818 2631242
0.11842094 -0.06704025 0.56008685 3552845
0.076933935 -0.063994005 0.56046009 329015
0.079129025 -0.064513318 0.55883044 526135
0.11631249 -0.065457426 0.55828255 1973579
0.1186617 -0.064337902 0.55918044 2368077
0.12079663 -0.063683853 0.56039798 2499663
0.076570757 -0.060982764 0.56012982 460090
0.078702733 -0.061773188 0.55866277 460346
0.11885485 -0.061945572 0.55839849 3816010
0.12171002 -0.061107244 0.5599463 3289677
0.076287426 -0.058100376 0.56017125 1249857
0.078592151 -0.058944356 0.55859309 1249859
0.12146299 -0.058799118 0.55881 3881803
0.12404697 -0.057855248 0.56023973 4605516
0.076791942 -0.055067819 0.56016189 3881543
0.07881856 -0.055785116 0.55866873 3618631
0.1223942 -0.056412347 0.55846274 3750217
0.12463549 -0.055168867 0.55947644 4539723
0.12694809 -0.054117315 0.56077951 4013647
0.077352285 -0.052579183 0.56055909 3157577
0.07909102 -0.052760817 0.55927485 3815751
0.081050321 -0.052355386 0.55817258 2631239
0.12464377 -0.053101778 0.55861062 4473929
0.12711848 -0.052362632 0.56004345 4737100
0.12901819 -0.051101323 0.56098396 3684175
0.079546131 -0.049747609 0.55999112 3421256
0.081607565 -0.049871117 0.55854273 3487047
0.12535872 -0.050848313 0.55820644 4473929
0.12746273 -0.049800016 0.55915082 3684173
0.12996534 -0.049053062 0.56070453 2697039
0.080363996 -0.047004927 0.5604077 4211015
0.082198806 -0.046898752 0.55914116 3486792
0.084080912 -0.045816544 0.55823958 4210761
0.12820351 -0.047100585 0.55853641 3157837
0.13015226 -0.04675002 0.55976713 3289166
0.082450628 -0.044066403 0.55999458 4013128
0.084549189 -0.043634959 0.55867362 4144968
0.13071731 -0.043992698 0.55905068 3486794
0.13298488 -0.04348585 0.56064272 3553853
0.083168745 -0.041205026 0.56057596 3223625
0.085232519 -0.04085106 0.55919349 3750216
0.087109305 -0.03977824 0.5582878 4079431
0.13145831 -0.041301288 0.55845374 3354945
0.13324781 -0.040883426 0.5596211 3224633
0.13501103 -0.039947085 0.56065756 3685687
0.08549422 -0.038011536 0.5600813 3355209
0.087864622 -0.037635695 0.5585193 3421001
0.13391858 -0.038142353 0.55890912 3553078
0.13629431 -0.037232395 0.56038851 3947837
0.086216852 -0.035143953 0.56067097 2565449
0.08827024 -0.034803603 0.55926776 2302537
0.090112254 -0.034232453 0.55817515 2368585
0.13441826 -0.035744183 0.55819595 4013372
0.13640271 -0.034659375 0.55925256 4276545
0.13804121 -0.034889538 0.56064224 4803147
0.088539585 -0.031955108 0.56017321 3092042
0.090894476 -0.03159352 0.55856532 3421001
0.13730112 -0.031995341 0.55865908 4276545
0.1393061 -0.0316195 0.56003428 4474180
0.089476094 -0.029319692 0.56049716 3486538
0.0913077 -0.028754201 0.55933541 2499658
0.093139648 -0.028193474 0.55821633 2236490
0.1398326 -0.028739683 0.55904216 4671302
0.14173122 -0.028818265 0.56057072 4211015
0.091727279 -0.025908725 0.56013542 2433610
0.093928456 -0.02555134 0.55863285 2368074
0.14049584 -0.026185855 0.55834019 4802887
0.1423049 -0.02573668 0.55951142 4605515
0.1440555 -0.024767436 0.56043422 3223883
0.092530206 -0.023258777 0.5606246 2433867
0.094347887 -0.022703808 0.55941474 2433866
0.096168712 -0.022153899 0.55826461 3091531
0.14324804 -0.022883769 0.55886048 4276811
0.14528205 -0.02248757 0.56029063 3223883
0.094780751 -0.019851124 0.56026763 2499659
0.096957549 -0.019506576 0.55866808 2433866
0.14556532 -0.01966653 0.55911285 4671304
0.14762688 -0.019211506 0.56055951 4868683
0.095592514 -0.017196355 0.56079197 2499403
0.09738718 -0.016651396 0.55948436 2433866
0.099192619 -0.016112354 0.55828094 2433609
0.14624585 -0.017294323 0.55850309 4473921
0.14831749 -0.016457688 0.55973089 4802887
0.15025519 -0.0156832 0.5609352 4276808
0.098099753 -0.013840857 0.56009209 2631242
0.099989973 -0.013461427 0.55871969 2762825
0.14889795 -0.013810912 0.55887723 3947579
0.15076107 -0.013644449 0.56030828 4145216
0.098605171 -0.011630354 0.56066668 3618379
0.10042672 -0.010597439 0.55955094 4210506
0.10223192 -0.010071957 0.55838037 3618376
0.14955173 -0.011581448 0.55830908 3815992
0.15131001 -0.010592443 0.5592227 4276543
0.15317655 -0.010110976 0.56051767 4342593
0.10114428 -0.0077801063 0.56016761 3947082
0.10302959 -0.007415649 0.55880725 2894408
0.152439 -0.0078113433 0.55874026 4737350
0.15430531 -0.0073242891 0.56002694 4868680
0.10165568 -0.0055632466 0.56075776 2762571
0.10347501 -0.0045423778 0.55966085 3026504
0.10526568 -0.0040291585 0.55844474 4145730
0.15456411 -0.004536245 0.5588308 4868680
0.15653551 -0.004549623 0.5604772 4474434
0.1042017 -0.0017179344 0.56030786 3882301
0.1062164 -0.0013857532 0.55881286 4343103
0.15562946 -0.0020148777 0.55843544 4671558
0.15733449 -0.0013123978 0.55948263 4605765
0.15932204 -0.00050578424 0.56079608 4671301
0.1047175 0.00050588168 0.56090409 3224628
0.10653428 0.0015151971 0.55982232 3882553
0.10851493 0.0017626472 0.55831885 3619126
0.15825985 0.0015119497 0.55883074 4737351
0.15980816 0.0015154225 0.56013602 4803143
0.10740013 0.0042962804 0.56038433 3618878
0.10926935 0.0046634432 0.55896115 3553085
0.15856594 0.0035236874 0.55813468 4408388
0.16036274 0.0045378706 0.55913228 4474178
0.10969815 0.0074481545 0.55986345 3948100
0.11156689 0.0078073791 0.55847234 3816255
0.11046389 0.010364141 0.56054318 3882051
0.11232222 0.010715674 0.55910099 3881789
0.11275412 0.013510619 0.55999398 3289650
0.11461709 0.013855062 0.55860919 3750199
0.11341753 0.01600994 0.56056625 2828842
0.11547823 0.01664154 0.55912322 3420978
0.1172765 0.017616643 0.55807781 3684405
0.11595052 0.019553909 0.56001091 3289392
0.11779433 0.019850979 0.55862504 3881785
0.11678594 0.022245137 0.56055504 3749942
0.11853516 0.022698844 0.55927074 3618613
0.12034512 0.023666194 0.55830336 2894890
0.11902136 0.02562353 0.56020099 3092270
0.12114511 0.025841791 0.5586772 2434343
0.1198249 0.027807465 0.56058103 2039331
0.095907032 -0.087787919 0.56263703 3751240
0.097473368 -0.087827399 0.56289005 4014152
0.099132441 -0.08794827 0.56366473 4474441
0.089563414 -0.08450333 0.56104416 3553351
0.095035248 -0.085920133 0.5614835 3685185
0.097586453 -0.085559949 0.56228673 3026242
0.099918045 -0.08568716 0.56350613 1973311
0.087645635 -0.083592661 0.56172514 4408400
0.097765304 -0.083075099 0.56164926 789053
0.10088903 -0.082807779 0.56212395 657722
0.10339647 -0.082530759 0.5623709 855354
0.10630099 -0.082340643 0.56285983 1381691
0.1091944 -0.081768304 0.56311721 1052732
0.082507737 -0.080483004 0.56123757 3751235
0.10730028 -0.080475107 0.5611825 1644861
0.10994932 -0.080055512 0.56178796 657726
0.11233142 -0.079681903 0.56272244 855363
0.11429484 -0.078736447 0.56322742 2039375
0.074646592 -0.075662188 0.56303102 3554381
0.076851197 -0.07617607 0.56182557 3488067
0.078428328 -0.076404363 0.56102335 3093053
0.11342438 -0.076966397 0.56143272 2960719
0.11533476 -0.076608039 0.56251675 4079182
0.11742469 -0.075741462 0.56362092 4276815
0.074175015 -0.07366696 0.563308 3948099
0.076565079 -0.073522784 0.56220651 2697276
0.078985058 -0.07341554 0.5613851 1052216
0.11595518 -0.0736745 0.56142747 4144975
0.1180883 -0.073411159 0.56290436 3750222
0.074749872 -0.070681632 0.56380999 986426
0.076620445 -0.070532285 0.56261557 591928
0.078807302 -0.071044847 0.56132126 526390
0.1186898 -0.070646487 0.56190765 3289933
0.12036127 -0.07008414 0.56309032 3750222
0.074698925 -0.067584991 0.56342572 394548
0.076258413 -0.067568645 0.56208313 394292
0.1212642 -0.067481354 0.56256324 3223886
0.074155875 -0.064506114 0.56316406 394295
0.075734921 -0.064590171 0.5616889 328758
0.12182626 -0.064585954 0.56164896 2565966
0.12364236 -0.06423346 0.56299877 3421518
0.073886909 -0.061270874 0.56277668 394296
0.075426683 -0.061758861 0.56127852 329017
0.12458368 -0.061530929 0.56249708 4342605
0.12658755 -0.060497668 0.56367832 4473935
0.073597804 -0.058371697 0.56278658 525883
0.12510239 -0.058752853 0.56157571 4539727
0.12677404 -0.05816 0.56269932 3618638
0.073888876 -0.055471573 0.56279051 1841732
0.075430147 -0.055180132 0.56130433 3355465
0.12598732 -0.05616302 0.56100553 3947599
0.12791331 -0.055486888 0.56235313 3750221
0.12961593 -0.054896466 0.56358296 3552846
0.07427559 -0.052531492 0.56330049 3881799
0.076207444 -0.052035432 0.56170702 3684169
0.12806515 -0.053149574 0.56124198 4474190
0.13028294 -0.052282233 0.5628019 3157838
0.074748486 -0.050340816 0.56379956 4276550
0.076616988 -0.049217671 0.56259155 2696779
0.078462698 -0.048596092 0.56126922 2565706
0.13099577 -0.04940889 0.56186986 2631503
0.13293907 -0.048603088 0.56330371 2499919
0.077313647 -0.046428747 0.56322592 2236489
0.079250172 -0.045957927 0.5617286 3816009
0.13340929 -0.04616037 0.5624277 3026507
0.077803589 -0.044241257 0.5638296 2499911
0.079668514 -0.043132652 0.56264168 4210758
0.081510812 -0.042527217 0.56134391 3684170
0.13428366 -0.04357918 0.5618456 3421507
0.13580227 -0.042898767 0.5628885 3158343
0.080376901 -0.040340744 0.56333381 4276550
0.082102701 -0.040037431 0.56193215 3026250
0.13679096 -0.040411558 0.56242806 3422017
0.13876069 -0.039137632 0.5635643 2828873
0.080873139 -0.038147707 0.56395811 4276805
0.082913473 -0.037369948 0.56246984 3816008
0.084534042 -0.036952008 0.56124806 4276811
0.1366808 -0.038472869 0.56128418 3553597
0.13940339 -0.036855675 0.56287277 2960458
0.083579093 -0.034295164 0.56334192 3947335
0.085024655 -0.03475963 0.56181568 3091786
0.13955314 -0.034761377 0.56184042 3618634
0.14180112 -0.034052599 0.56352752 2631245
0.085738726 -0.03196162 0.56251591 2236489
0.087589227 -0.030884063 0.56136364 2959947
0.1402601 -0.032913018 0.56142795 3882057
0.14222932 -0.031625237 0.56253731 3157834
0.086455867 -0.029157097 0.56321704 3025991
0.088365197 -0.02873127 0.56170201 3486794
0.14319381 -0.02914615 0.56201118 3223626
0.14514823 -0.028284414 0.56336617 2631244
0.086956315 -0.026951373 0.56382549 3486533
0.088807426 -0.025880791 0.56267238 2367817
0.090620242 -0.025312733 0.56132174 2433612
0.14556868 -0.025867587 0.56237096 2960204
0.089529715 -0.023068193 0.56338108 2302279
0.091430679 -0.022658465 0.56186098 2433867
0.14639845 -0.023302538 0.56166625 2828876
0.14815871 -0.022645703 0.56296366 2960460
0.091979854 -0.019918302 0.56267548 2696776
0.093685791 -0.019243384 0.56148952 2565196
0.14890791 -0.020113589 0.56221205 3487050
0.15090106 -0.018799122 0.56334639 2762827
0.092630804 -0.017442407 0.56328768 2499399
0.09431763 -0.016479891 0.56224358 2302281
0.14931315 -0.017715121 0.56119752 4737355
0.1513374 -0.01695111 0.56270027 2960458
0.15300947 -0.015758451 0.56362665 2565707
0.095053881 -0.013832788 0.56284809 2236232
0.096951678 -0.013416069 0.56134105 2434123
0.15226613 -0.013935043 0.5618211 3618629
0.15426087 -0.013038515 0.56324476 3355463
0.095543273 -0.011688855 0.56348693 2039110
0.09751875 -0.010534894 0.56218404 2894409
0.15464789 -0.010648069 0.56218952 4276802
0.15606196 -0.010675248 0.56363553 4342085
0.098265886 -0.0077594989 0.56286442 2565191
0.10000367 -0.0073418058 0.56142157 3486539
0.15546724 -0.0081028938 0.56148767 4539972
0.15727141 -0.0074123046 0.5628683 4408129
0.10043536 -0.0045652674 0.56242818 2367559
0.15814589 -0.0045620226 0.56200778 4145213
0.15958092 -0.0045742625 0.56349671 4144957
0.10123518 -0.0018618054 0.56311125 2828355
0.1028707 -0.0011143213 0.56187278 3487295
0.15838009 -0.0025300335 0.56104273 4342336
0.16025519 -0.0015215283 0.56229472 4342592
0.1621868 -0.00050842256 0.56372136 4408128
0.10352191 0.0015224408 0.56266207 3553086
0.16137166 0.0012660873 0.56176794 4605508
0.16298991 0.0020306201 0.5629831 4342335
0.10443688 0.0038934911 0.56303 3092533
0.10594146 0.0048521799 0.56203449 3158068
0.16341719 0.0043618521 0.56235421 3815992
0.10685347 0.0075095571 0.56256855 2697514
0.10882173 0.0086045088 0.56119895 3882306
0.10725415 0.010166481 0.56360042 2895667
0.10889572 0.010775845 0.56223851 3684929
0.10980178 0.013479109 0.56277007 3289659
0.11146408 0.01469304 0.56176329 2631213
0.11033016 0.016270123 0.56373399 2104877
0.11217793 0.016959315 0.56224185 2302503
0.1130074 0.019455533 0.56272262 2697260
0.11449027 0.020264028 0.56169587 2894635
0.11336985 0.021860555 0.5636797 3355699
0.11531858 0.022922281 0.56228095 3487027
0.11590793 0.02570123 0.56316841 3750198
0.11745435 0.02604498 0.56181878 2829097
0.11646667 0.027972344 0.56390488 3355698
0.11851009 0.028796941 0.56234443 1973793
0.10061468 -0.090399988 0.56628466 3290435
0.098214567 -0.089054659 0.56423271 3356231
0.10063721 -0.088266611 0.56477058 3684422
0.10292132 -0.088108897 0.56632948 2565954
0.10132832 -0.086052693 0.56456953 1381185
0.10352179 -0.085673191 0.56542188 854845
0.10662065 -0.084684923 0.56563389 526138
0.10931931 -0.084288016 0.56639779 526140
0.10429022 -0.083940908 0.56406534 526139
0.1053746 -0.083994247 0.56442374 526394
0.10954008 -0.083046012 0.56489903 657724
0.11251333 -0.082407653 0.56576079 526142
0.1148205 -0.081139818 0.56581777 789569
0.11355928 -0.080968268 0.56462151 526399
0.11566624 -0.079488426 0.56496119 2105163
0.11769541 -0.079202518 0.56655645 2894926
0.11651979 -0.07784947 0.56416208 4211278
0.1184426 -0.07663919 0.56524211 4211022
0.12009586 -0.076145887 0.56663036 3552847
0.070927896 -0.07296966 0.56578255 3159101
0.07278008 -0.073798098 0.56430793 3816773
0.11936492 -0.074539199 0.56478196 3816014
0.12131768 -0.072994791 0.56597203 2960719
0.071258426 -0.070966713 0.56608599 3289665
0.073551938 -0.070787504 0.56465542 1710140
0.1217612 -0.07055971 0.56486988 3026512
0.1232278 -0.071073301 0.5669325 2236754
0.072914906 -0.067817226 0.56536263 526135
0.1227508 -0.06876082 0.56473792 2631504
0.12422061 -0.06759502 0.56563145 2565968
0.071740024 -0.064591721 0.56614417 394549
0.072837897 -0.064688474 0.56475621 329013
0.12509735 -0.064670555 0.56460065 3816014
0.12650366 -0.064869545 0.56633705 4013391
0.071455605 -0.061758753 0.56591535 394550
0.072767675 -0.062081594 0.56421173 459830
0.12743431 -0.061678171 0.5651778 4079182
0.12931687 -0.060824927 0.56672752 4539983
0.071417056 -0.058664534 0.56560975 460344
0.12843971 -0.058535997 0.56437021 4013390
0.12977292 -0.058678526 0.56574422 4210765
0.071428686 -0.055612624 0.56570178 723516
0.072760403 -0.054951794 0.5641554 1315139
0.13072342 -0.055806316 0.56507361 3618381
0.13229375 -0.055165369 0.56634259 4342348
0.071498796 -0.05311358 0.56625652 1315394
0.072871745 -0.052080482 0.56502426 2433861
0.13189809 -0.052963261 0.56464887 2828878
0.13347265 -0.052317649 0.56592584 3157582
0.073607743 -0.049469337 0.56546253 3552834
0.13364075 -0.050093919 0.56483775 2368079
0.13524169 -0.048993599 0.56585395 2434126
0.074508101 -0.046950363 0.56583905 3881794
0.075906284 -0.045951184 0.56485242 2433861
0.13493548 -0.047354717 0.56457281 3289424
0.13663599 -0.046226036 0.56570846 4013135
0.076672412 -0.043352026 0.56549722 2039363
0.13695675 -0.043785807 0.56450897 3157837
0.13853046 -0.043115955 0.56573683 2697037
0.077428333 -0.041011352 0.56604666 1907267
0.078831196 -0.039925262 0.565126 3289411
0.13984475 -0.040495325 0.56547952 2434124
0.1415734 -0.039354336 0.56668478 2368334
0.079604298 -0.037378583 0.56579328 3487042
0.081453867 -0.036145337 0.56446058 4276803
0.13990933 -0.038157087 0.56409681 2565709
0.14177534 -0.037228856 0.56545055 2368333
0.080242708 -0.034754563 0.56669009 3421250
0.08194074 -0.034025218 0.56518883 3947586
0.14288868 -0.034385581 0.56481212 2828877
0.14450133 -0.033700451 0.56614166 3618126
0.082976989 -0.031456146 0.56559217 2170180
0.084368102 -0.030386185 0.56465644 1776197
0.14529972 -0.031099373 0.56527281 2565453
0.083305307 -0.029131304 0.56666285 1644354
0.084884681 -0.02805176 0.56551683 2631235
0.14622703 -0.029041605 0.56491804 2565453
0.14791773 -0.028085852 0.56618869 3157837
0.085916817 -0.025519086 0.56591308 2960194
0.087077126 -0.02546091 0.56460881 2235973
0.14829095 -0.025733966 0.56501448 4078925
0.15079249 -0.024024567 0.56675762 3421006
0.086416341 -0.023010269 0.56695533 1644096
0.087912865 -0.022797454 0.56530946 1973059
0.14928888 -0.023947364 0.56493634 4013133
0.15080133 -0.022271663 0.56551105 2894412
0.088902861 -0.020107504 0.56585974 3618372
0.090365864 -0.01960019 0.56447721 4078662
0.15188536 -0.019877724 0.56511712 2434123
0.15389924 -0.018917847 0.56690419 2697293
0.089437671 -0.017887533 0.56665939 3354944
0.091150783 -0.016700184 0.56540358 2697027
0.15402888 -0.016831083 0.56550169 2631500
0.092010006 -0.013990136 0.56613696 1644354
0.093463466 -0.013497133 0.56473696 1907012
0.15511166 -0.014440894 0.56511027 2631242
0.15663312 -0.01275514 0.56569833 2828874
0.092550106 -0.011760511 0.5669412 1709887
0.094350375 -0.010710093 0.56547707 1775937
0.096144699 -0.0096653402 0.5640313 2038597
0.15757822 -0.010709422 0.56542599 3684423
0.095231012 -0.0079143494 0.56616104 1644351
0.096678771 -0.00743654 0.56477565 1775938
0.15846409 -0.0086620245 0.56495017 4276546
0.16005579 -0.0069737691 0.5657714 4145218
0.097537041 -0.0047171884 0.56547302 1709888
0.099238917 -0.0035624225 0.56427014 1973058
0.16112138 -0.0045890557 0.56533349 4210751
0.098337725 -0.0017875975 0.5664084 1578557
0.099781923 -0.0013246718 0.5650413 1907520
0.16125216 -0.0025434094 0.56400889 4210750
0.16304864 -0.001530395 0.56553465 4408386
0.10064932 0.0014035829 0.56576705 2631483
0.10233732 0.0025457046 0.56451786 3422014
0.16417202 0.001527795 0.56472015 4144957
0.16565187 0.0015339018 0.56687969 3947579
0.10164211 0.0040863813 0.56631786 2763570
0.10314345 0.004731718 0.56495315 2895410
0.10388868 0.0075095366 0.56584042 2039841
0.10538189 0.0081456965 0.56446278 1974047
0.10474645 0.010219431 0.56653291 2631730
0.10623413 0.010849521 0.56513125 2698033
0.10698122 0.01363744 0.56600225 2895415
0.10846889 0.014259053 0.5646317 3092284
0.10779637 0.015837381 0.5664497 2565431
0.1093316 0.016971992 0.56533456 2039345
0.11034737 0.019701663 0.56590992 1776172
0.11174785 0.02010987 0.5644753 2039336
0.11093332 0.021982178 0.56681579 1841964
0.11266948 0.022941988 0.5652709 3157809
0.11310861 0.025021497 0.56619328 2763304
0.11490071 0.025967248 0.56454086 3355697
0.11393067 0.027077693 0.56646812 2632231
0.11542385 0.028388707 0.56544393 3618869
0.11637911 0.030626554 0.56595457 2960683
0.10178406 -0.090531543 0.56710875 3554117
0.1034712 -0.091157816 0.56888551 3882568
0.10426188 -0.088563122 0.56760389 2434114
0.106079 -0.088621274 0.56929433 1907777
0.10698438 -0.08616811 0.56756371 657724
0.109252 -0.086000018 0.5687089 526140
0.11166676 -0.084990621 0.56881613 526141
0.1131195 -0.083432034 0.56752485 591679
0.1156329 -0.082559302 0.56855911 723522
0.11748758 -0.081574343 0.56884789 1579081
0.11905861 -0.07942985 0.56818408 3158094
0.12071598 -0.078593805 0.56955618 3684432
0.12150492 -0.076132245 0.56843781 3026256
0.069109306 -0.07218083 0.56760007 2238000
0.12238455 -0.073738486 0.56776464 2368080
0.12362194 -0.07284002 0.56874579 2368337
0.067883864 -0.070554361 0.56934726 3487807
0.069816954 -0.069817163 0.56780744 2763325
0.12496797 -0.070262514 0.56864566 2302800
0.070126623 -0.067306861 0.5685944 788792
0.12538485 -0.068066061 0.5674383 2500177
0.12714347 -0.067251243 0.56920147 3092305
0.070113808 -0.064474501 0.56849182 460341
0.12809828 -0.064560905 0.56812191 4079439
0.12999976 -0.063201457 0.56972027 4539727
0.069637977 -0.061228413 0.56857741 394549
0.12839691 -0.062919602 0.5671795 4473936
0.13023704 -0.061528534 0.56851077 4605774
0.069774106 -0.058708906 0.56801593 394806
0.13125579 -0.058886062 0.56774408 4671310
0.13308895 -0.058065832 0.56974679 4671311
0.069700196 -0.055863023 0.56824887 460343
0.13344043 -0.055870935 0.5683251 4473933
0.069964163 -0.052675366 0.5686124 986172
0.13477363 -0.053295169 0.56818378 3618382
0.1358885 -0.05179147 0.5685603 3025999
0.07080052 -0.049765348 0.56885338 1315135
0.072152004 -0.04912452 0.56737339 2039360
0.13634527 -0.049657766 0.56761485 2631247
0.13820417 -0.048808165 0.56965059 2763088
0.071412683 -0.047265641 0.56963962 1381693
0.0729708 -0.046476055 0.5680629 3355455
0.13784233 -0.047655523 0.5681591 2894671
0.13893858 -0.046142645 0.56845129 2828880
0.073953114 -0.043797322 0.56863433 3947582
0.075228482 -0.042987436 0.56742001 3026239
0.14021672 -0.043551136 0.5680902 2565455
0.074486457 -0.041609675 0.56957245 3947581
0.076070324 -0.040341459 0.56825364 2499646
0.14244391 -0.040527578 0.56879979 2565456
0.077069558 -0.037662271 0.56892461 1972796
0.078339234 -0.036865227 0.56771135 1907008
0.14324695 -0.037346907 0.56724095 2763087
0.14473876 -0.03695384 0.56908047 2894672
0.077610694 -0.035464488 0.56988114 1841468
0.079190716 -0.03421092 0.56857914 1775678
0.14570403 -0.034333773 0.56817621 3618383
0.080318473 -0.031562522 0.56903863 1512765
0.081648134 -0.03096965 0.56757885 1709888
0.14677639 -0.031196376 0.56704038 2697295
0.14761934 -0.031267054 0.56831753 2894671
0.08254464 -0.02819873 0.5684697 1776190
0.14919737 -0.028712271 0.56847048 2894414
0.15028356 -0.027184397 0.56870037 3157582
0.083447702 -0.025419068 0.56937921 3420989
0.08476752 -0.024840891 0.5679003 2894654
0.149887 -0.026089545 0.56719971 3947342
0.15189593 -0.024631018 0.56897378 2960462
0.085810483 -0.022050994 0.56859201 1512509
0.1520952 -0.023044728 0.5678044 2631503
0.15343399 -0.022065759 0.56897092 2631247
0.086763546 -0.019508656 0.56923324 1446716
0.087789699 -0.019707533 0.56757075 2302015
0.15299793 -0.02097965 0.5673539 2565710
0.15430485 -0.019992989 0.5683983 2697294
0.088696316 -0.016919069 0.56846476 1775933
0.15520678 -0.017928176 0.56794691 3487054
0.15637141 -0.016407046 0.56845647 3486797
0.089611918 -0.014121821 0.56939149 1446971
0.090911329 -0.013572305 0.56788474 1578302
0.15760015 -0.013830945 0.56795722 3092044
0.091959842 -0.010768567 0.56856477 2105147
0.09358374 -0.0097163441 0.56700772 1775934
0.15991528 -0.010775431 0.56890374 2960456
0.092910253 -0.0082127508 0.56914735 2828604
0.094140016 -0.0074775903 0.5678978 1907259
0.16082232 -0.0081941457 0.56787765 3487303
0.095146231 -0.0047606761 0.56849176 1512763
0.096679598 -0.003580726 0.56716931 1447228
0.16282672 -0.0046086311 0.56772584 4144967
0.095939249 -0.0025652205 0.56884557 1381434
0.097047158 -0.001366604 0.56832808 1446970
0.16453493 -0.0020512999 0.56831974 4079173
0.16572893 -0.00051309267 0.56889939 3684417
0.098301262 0.0011967708 0.56866425 1512763
0.099826127 0.0025596442 0.56760901 2368567
0.16665091 0.0015383161 0.56854391 3618619
0.10046226 0.0046132002 0.56831813 2500150
0.10141075 0.0070121009 0.5688436 2303026
0.10248835 0.0081994012 0.56818062 2500401
0.10363152 0.010619277 0.56843168 2303025
0.10424145 0.012837618 0.56935626 2040103
0.10549865 0.014046471 0.56838548 2697779
0.10697499 0.01674732 0.56842422 2236467
0.1080486 0.017922753 0.56777513 1973298
0.10741177 0.019015482 0.56982994 2104627
0.10892178 0.019776048 0.56806022 1907505
0.10950641 0.021860078 0.56896794 1907759
0.1110635 0.023031602 0.56748098 2302764
0.11044751 0.02414434 0.56958318 3158321
0.11189637 0.025454536 0.56824988 2763048
0.11293133 0.028002519 0.56864119 2697768
0.11411609 0.028657228 0.56738997 3618613
0.11354747 0.030313578 0.56967199 3289906
0.11514001 0.031262573 0.56823605 3289648
0.10453357 -0.092174917 0.57095176 2633019
0.1061579 -0.091213457 0.57137823 3093057
0.10770877 -0.089156069 0.57140559 1775939
0.10981402 -0.087644845 0.5716331 789565
0.10953788 -0.086910337 0.57019633 526396
0.11327594 -0.08547318 0.57089674 526141
0.1150111 -0.085097902 0.57184005 657727
0.11721738 -0.084169306 0.57253999 855362
0.11579043 -0.08388374 0.57059747 526400
0.11844121 -0.082394525 0.57097363 1513287
0.11991426 -0.0808006 0.57063001 2960974
0.12164618 -0.079378605 0.57151109 3816273
0.12188573 -0.077657156 0.57022232 3684176
0.12320775 -0.076811522 0.57158363 3421264
0.068436444 -0.072552927 0.57052606 4408652
0.12458101 -0.07361687 0.57079118 2763344
0.065600492 -0.069732808 0.57272094 2237740
0.066771589 -0.069861837 0.5709601 3092793
0.12599719 -0.070455573 0.5702095 2631760
0.12692691 -0.070687726 0.57208335 3684178
0.067636095 -0.067636728 0.57138026 1841976
0.12822706 -0.06746082 0.57097882 3816015
0.068073161 -0.064463899 0.5718022 525877
0.12987623 -0.064936645 0.57143331 4539730
0.068028055 -0.06132916 0.57142383 394548
0.13139281 -0.062347174 0.57130903 4408143
0.13219668 -0.060182925 0.57033116 4408143
0.067987598 -0.058202118 0.57108372 460341
0.13416615 -0.05831176 0.57215106 4868692
0.068015791 -0.055134442 0.57132131 460343
0.13539416 -0.055084314 0.57079983 3815760
0.068318494 -0.052334957 0.57169551 788792
0.13708599 -0.052565522 0.57141042 3487058
0.06866201 -0.050076801 0.57240647 1052216
0.069508277 -0.049942259 0.5708769 1118010
0.13726284 -0.05089521 0.57000858 2762832
0.13874142 -0.050029434 0.57186502 3881557
0.070607118 -0.046900004 0.5714404 1184058
0.14015062 -0.04688948 0.57130361 3618386
0.071387969 -0.04455322 0.57219023 1380921
0.072823182 -0.043487731 0.57062954 2894908
0.14219837 -0.043276463 0.57124466 3420755
0.073868014 -0.040713649 0.57141739 3487036
0.14378272 -0.040712669 0.57140255 2894667
0.074839108 -0.038193345 0.57226908 3815996
0.07595557 -0.03733369 0.57096392 3355195
0.14458159 -0.038589392 0.5704878 2631248
0.07702788 -0.034751005 0.57166588 3026490
0.14695814 -0.035579339 0.57172668 2960458
0.14776473 -0.033465877 0.5708586 3092042
0.077942565 -0.032519083 0.57231802 3158073
0.079226851 -0.031216476 0.57116067 2039608
0.14859085 -0.031363465 0.57007748 2960464
0.15028422 -0.030469997 0.57261151 3092042
0.080514491 -0.028556008 0.57152498 2631737
0.081801049 -0.027267016 0.57042879 2566202
0.15095606 -0.028336462 0.57124525 3223626
0.082176737 -0.025272055 0.57185525 3420987
0.15177955 -0.026239855 0.57046753 3092298
0.083499894 -0.023194596 0.57149708 1841719
0.08449208 -0.021638025 0.57123554 1249592
0.15463628 -0.022165772 0.57151997 2894665
0.085871108 -0.019063488 0.57127082 1315384
0.15579613 -0.019024609 0.57010347 3355465
0.086269706 -0.017047307 0.57277167 1512504
0.087404884 -0.016313327 0.57119066 1315129
0.15833566 -0.015988292 0.57184726 3421256
0.088373311 -0.014127901 0.57168221 1380920
0.15900566 -0.013893698 0.57055008 3289416
0.089310311 -0.011873625 0.57239413 1776184
0.090550482 -0.010610115 0.57110244 2565689
0.091832317 -0.0079356786 0.57138646 3223609
0.093078442 -0.0066851922 0.57017767 2762554
0.16284284 -0.0077311378 0.57137722 2960454
0.092455804 -0.0056816419 0.57269162 2368312
0.093686342 -0.0044312556 0.57137936 1710136
0.16400075 -0.0046269805 0.57002622 3420997
0.095088691 -0.0018032276 0.57144356 1315383
0.096212402 -0.00051450479 0.57046515 1315641
0.097174577 0.0017514776 0.57128751 1513015
0.16768473 0.00051595306 0.5720709 3486780
0.098285839 0.0043860548 0.57205373 1841973
0.099329203 0.0051469901 0.57063615 1644087
0.10034431 0.0077321809 0.57153749 1578293
0.1016036 0.010315511 0.57185054 1447219
0.10277519 0.011495815 0.57072145 1842222
0.10376784 0.013916109 0.57146603 1973545
0.10479495 0.016519826 0.57237935 1973800
0.10552463 0.01647253 0.57074177 2105137
0.10667652 0.019068003 0.57139999 2105137
0.1078072 0.021664975 0.57192773 2171183
0.10897578 0.022824973 0.57084578 2237230
0.10995803 0.025256196 0.57149339 2763305
0.1108721 0.027331263 0.57177281 2632232
0.11179699 0.0285422 0.57123297 2895148
0.11312926 0.03124718 0.57171726 2631982
0.10721403 -0.09271165 0.57427639 2698812
0.10823932 -0.091149531 0.57422018 2500416
