# .PCD v0.7 - Point Cloud Data file format
VERSION 0.7
FIELDS x y z rgb
SIZE 4 4 4 4
TYPE F F F U
COUNT 1 1 1 1
WIDTH 210
HEIGHT 1
VIEWPOINT 0 0 0 1 0 0 0
POINTS 210
DATA ascii
0.2909658 0.19412947 0.50645655 1776411
0.29187718 0.19412802 0.5064528 1381653
0.28458527 0.1977936 0.50648201 1776411
0.28659052 0.19742496 0.50647378 1447446
0.28968951 0.19650652 0.50646126 1381653
0.29187688 0.19641167 0.50645226 1381653
0.28112116 0.20017433 0.50649565 1513239
0.28367347 0.19962209 0.50648522 1381653
0.28640789 0.19961765 0.50647402 1381653
0.2895979 0.19961244 0.50646079 1381653
0.29187641 0.19960874 0.50645143 1381653
0.27501315 0.20329046 0.50652003 1776411
0.27742249 0.20263393 0.50651032 1447446
0.28048274 0.20236789 0.50649774 1381653
0.28367311 0.2023626 0.50648451 1381653
0.28640753 0.20235811 0.5064733 1381653
0.28959751 0.20235284 0.50646013 1381653
0.29187599 0.20234908 0.50645071 1381653
0.27273384 0.20512141 0.50652903 1381653
0.27455702 0.20557517 0.5065214 1381653
0.27729186 0.20557056 0.50651014 1381653
0.28048232 0.20556523 0.50649697 1381653
0.28367263 0.20555989 0.50648373 1381653
0.28640705 0.2055553 0.50647247 1381653
0.28959706 0.20555 0.50645936 1381653
0.29187554 0.20554614 0.50644994 1381653
0.27510363 0.20858903 0.50651836 1381653
0.27729142 0.208768 0.5065093 1381653
0.28048187 0.20876257 0.50649613 1381653
0.28367218 0.20875715 0.5064829 1381653
0.28640664 0.20875251 0.50647163 1381653
0.28959659 0.20874704 0.50645846 1381653
0.29187506 0.2087432 0.5064491 1381653
0.27546796 0.21059823 0.50651634 1315860
0.27731228 0.21152498 0.50654751 1315860
0.28048149 0.21150315 0.50649542 1381653
0.28367177 0.21149765 0.50648224 1381653
0.28640622 0.21149296 0.50647098 1381653
0.2895962 0.21148743 0.50645781 1381653
0.29187465 0.21148352 0.50644839 1381653
0.27797437 0.2140197 0.50650507 1381653
0.28048113 0.21424371 0.5064947 1381653
0.28367138 0.21423812 0.50648159 1381653
0.2864058 0.21423335 0.50647026 1381653
0.28959581 0.21422781 0.50645715 1381653
0.29187426 0.21422382 0.50644773 1381653
0.28068468 0.21731697 0.50650883 1315860
0.28367093 0.21743537 0.50648075 1381653
0.28640535 0.21743053 0.50646949 1381653
0.28959534 0.21742487 0.50645632 1381653
0.29187378 0.21742085 0.5064469 1381653
0.27288687 0.20603859 0.50766468 1513239
0.27435291 0.20863087 0.50840092 1315860
0.27524132 0.21020925 0.50778377 1315860
0.27626663 0.21201843 0.50882977 1315860
0.27749655 0.21419947 0.50856251 1315860
0.27872562 0.21637897 0.50829279 1315860
0.27985632 0.21837956 0.50868142 1315860
0.28089321 0.22020926 0.50972944 1315860
0.27438188 0.20866571 0.5107308 1315860
0.27585796 0.21127568 0.51147562 1315860
0.27773568 0.21460092 0.51170695 1315860
0.27946645 0.21767011 0.51132572 1315860
0.28095269 0.2202981 0.51207262 1315860
0.27441072 0.20870022 0.51308113 1315860
0.27544498 0.21052516 0.51414907 1315860
0.27658623 0.21254431 0.51454687 1315860
0.27772918 0.21456656 0.51494515 1315860
0.27897346 0.21677306 0.51466912 1315860
0.27964506 0.21796626 0.51419699 1315860
0.28101233 0.22038706 0.51443642 1315860
0.28241414 0.22286059 0.51586664 1315860
0.2751326 0.20995736 0.51617175 1776411
0.2761746 0.21179593 0.51725256 1315860
0.27767327 0.21444575 0.51801699 1315860
0.27867436 0.21622881 0.51669765 1315860
0.27982378 0.2182624 0.51709938 1315860
0.28097498 0.22029918 0.51750171 1315860
0.28248143 0.22296286 0.51826674 1315860
0.27680999 0.21289462 0.5210821 1315860
0.27771828 0.21450843 0.52043605 1315860
0.27932721 0.21735846 0.52052134 1315860
0.28116357 0.22061259 0.52044231 1315860
0.28290355 0.22369105 0.52105379 1315860
0.27766058 0.21438405 0.5235734 1513239
0.27882448 0.21644327 0.52398586 1315860
0.28009003 0.21868749 0.52370006 1315860
0.2809988 0.22030218 0.52304745 1315860
0.28287819 0.22362387 0.52419901 1315860
0.28387779 0.2254045 0.52284813 1315860
0.27851963 0.21588829 0.52608675 1315860
0.27968943 0.21795796 0.52650571 1315860
0.28096068 0.22021228 0.52621651 1315860
0.28272018 0.22332528 0.52684176 1315860
0.2846716 0.22678825 0.5260579 1315860
0.27928528 0.21722189 0.52933651 1315860
0.28115237 0.2205305 0.5292573 1315860
0.28292185 0.22366107 0.5298897 1315860
0.28429419 0.22609963 0.52888644 1315860
0.28547519 0.22818908 0.52930725 1315860
0.28016144 0.21875605 0.53190756 1710618
0.2813459 0.22085157 0.53233325 1315860
0.28289616 0.22359256 0.53314286 1315860
0.28391272 0.22540356 0.53174555 1315860
0.28509983 0.22750376 0.53217095 1315860
0.2862888 0.22960734 0.53259706 1315860
0.28104642 0.22030568 0.53450179 1315860
0.28273553 0.22328869 0.53587675 1315860
0.28472036 0.22681099 0.53506577 1315860
0.28628376 0.2295752 0.53588372 1315860
0.28720486 0.23121199 0.53519803 1315860
0.28184026 0.22168846 0.5378567 1315860
0.28294078 0.22363004 0.53903043 1315860
0.28433675 0.22611065 0.5379923 1315860
0.28613979 0.22930059 0.53864592 1315860
0.28803846 0.23266514 0.5385617 1315860
0.2839489 0.22540259 0.54095101 1315860
0.28515658 0.2275392 0.54139125 1315860
0.28636622 0.22967927 0.54183233 1315860
0.28776276 0.23216105 0.54078335 1315860
0.28888258 0.23413664 0.54196787 1315860
0.28365538 0.2248667 0.54319048 1315860
0.28477091 0.22683463 0.54438776 1315860
0.28598696 0.22898597 0.54483366 1315860
0.2873919 0.23148277 0.54377294 1315860
0.28860873 0.23363549 0.54421788 1315860
0.28973752 0.23562694 0.54541755 1315860
0.28447902 0.22630134 0.54665601 1776411
0.28631026 0.22954103 0.54733229 1315860
0.28824028 0.23296119 0.54724592 1315860
0.28946555 0.23512889 0.54769653 1315860
0.29060349 0.23713639 0.54891157 1315860
0.2866379 0.23010366 0.54985291 1315860
0.28786772 0.23227933 0.55030787 1315860
0.28971648 0.23555006 0.55099171 1315860
0.28635094 0.22957875 0.552167 1315860
0.28749096 0.23158982 0.55340421 1315860
0.28872943 0.23378079 0.55386502 1315860
0.29006135 0.23614289 0.55354559 1315860
0.29139146 0.23850179 0.55322868 1315860
0.28720579 0.23106782 0.5557484 1776411
0.28835511 0.23309529 0.55700171 1315860
0.2897867 0.23563954 0.55589312 1315860
0.2909424 0.23767835 0.55714488 1315860
0.29165748 0.23894921 0.55659163 1315860
0.29236919 0.24021414 0.55603576 1315860
0.289417 0.23496211 0.55905288 1315860
0.29066971 0.23717828 0.55952311 1315860
0.29192457 0.23939821 0.55999422 1315860
0.29326934 0.24178316 0.55966765 1315860
0.28991413 0.23581983 0.562298 1315860
0.29165494 0.23890343 0.56239462 1315860
0.29300535 0.24129841 0.56206751 1315860
0.29418132 0.2433728 0.56334728 1315860
0.29002476 0.23599553 0.56514835 1776411
0.29138273 0.23840393 0.56481802 1315860
0.293044 0.24134086 0.56572956 1315860
0.29400712 0.24305269 0.56496525 1315860
0.29165435 0.23886022 0.56832385 1315860
0.29317179 0.24154668 0.56861633 1315860
0.29501903 0.24482469 0.56789535 1315860
0.29201844 0.23948604 0.57104051 1315860
0.2933003 0.24175368 0.57153118 1315860
0.29467171 0.24418586 0.5711934 1315860
0.29595616 0.24645814 0.57168436 1315860
0.29312104 0.2414242 0.57319659 1315860
0.29496616 0.24468207 0.57477832 1315860
0.29699063 0.24826966 0.5746823 1315860
0.29470277 0.24419744 0.57730746 1315860
0.29673594 0.24780042 0.57721305 1315860
0.29795238 0.24994603 0.57856268 1315860
0.29508811 0.24486023 0.58011413 1513239
0.29639304 0.24716862 0.58062053 1315860
0.29770023 0.24948105 0.58112776 1315860
0.29613331 0.24669008 0.58320135 1315860
0.29837814 0.25066546 0.58347827 1315860
0.29718941 0.24853906 0.58632421 1315860
0.29851016 0.25087544 0.58684152 1315860
0.29991534 0.25336763 0.58648282 1315860
0.29825717 0.25040841 0.58947814 1315860
0.29966855 0.25291163 0.58911884 1315860
0.30091712 0.25511381 0.59052479 1315860
0.29808715 0.25009459 0.59124994 1776411
0.29933619 0.25229752 0.59266877 1315860
0.30075482 0.25481358 0.59230292 1315860
0.30050936 0.2543596 0.59499156 1315860
0.30185264 0.25673574 0.59552431 1315860
0.30026194 0.25390193 0.59770209 1315860
0.3016111 0.2562885 0.59823966 1315860
0.30296269 0.25867939 0.59877819 1315860
0.3013671 0.2558367 0.60098267 1513239
0.30272469 0.25823814 0.60152614 1315860
0.30400708 0.26049981 0.602992 1315860
0.30248472 0.25779328 0.60429657 1315860
0.30385083 0.26020977 0.60484612 1315860
0.3036145 0.25977111 0.60765016 1315860
0.30506623 0.262346 0.60726553 1315860
0.30483463 0.26191556 0.61009216 1315860
0.30614054 0.2642186 0.6116001 1315860
0.3052949 0.26270878 0.61322486 1710618
0.3058359 0.26365164 0.61542702 1315860
0.30715555 0.26597875 0.61696446 1315860
0.30693033 0.26555902 0.61987931 1315860
0.30833581 0.26804513 0.62045753 1315860
0.30818871 0.2677705 0.62242073 1315860
0.30931288 0.26972988 0.62697518 1315860
0.30945748 0.27000022 0.62498313 1315860
0.3105956 0.27198407 0.62957525 1315860
0.31045356 0.27171808 0.63159668 1776411
0.31175059 0.27399731 0.63423538 1315860
