# .PCD v0.7 - Point Cloud Data file format
VERSION 0.7
FIELDS x y z rgb
SIZE 4 4 4 4
TYPE F F F U
COUNT 1 1 1 1
WIDTH 1132
HEIGHT 1
VIEWPOINT 0 0 0 1 0 0 0
POINTS 1132
DATA ascii
0.32198119 -0.082825892 0.60818464 3815994
0.3252548 -0.084730245 0.606103 3815994
0.30872625 -0.075125217 0.60800177 3815994
0.31245613 -0.077292457 0.60778987 3815994
0.31617928 -0.079455793 0.6075713 3815994
0.30293563 -0.071761675 0.60739124 3815994
0.30666488 -0.07392855 0.60718083 3815994
0.29258949 -0.065750562 0.60752058 3815994
0.29776445 -0.068757214 0.60745537 3815994
0.28394169 -0.06072741 0.60659868 3815994
0.28741381 -0.062743515 0.60757971 3815994
0.27475852 -0.05539044 0.60806936 3815994
0.27782577 -0.057173025 0.60758239 3815994
0.28138083 -0.059237801 0.60816061 3815994
0.26726803 -0.05103809 0.60850173 3815994
0.27207208 -0.053830951 0.6069715 3815994
0.25864679 -0.046030361 0.60758799 3815994
0.26325774 -0.048710108 0.606848 3815994
0.24828602 -0.040010773 0.60770631 3815994
0.25203514 -0.042189188 0.60749459 3815994
0.25577816 -0.044364091 0.6072762 3815994
0.24310431 -0.037000217 0.60777164 3815994
0.24630721 -0.038862072 0.60688615 3815994
0.23196226 -0.030526573 0.60801989 3815994
0.23738378 -0.033677399 0.60716033 3815994
0.22365287 -0.025700942 0.60630459 3815994
0.22702584 -0.027659446 0.60728461 3815994
0.21432807 -0.020281684 0.60777378 3815994
0.2174422 -0.0220915 0.60728735 3815994
0.22093812 -0.024121908 0.60786498 3815994
0.20771843 -0.016441697 0.60768354 3815994
0.21148036 -0.018627567 0.60747421 3815994
0.19798498 -0.010786249 0.60808748 3815994
0.20345515 -0.013965335 0.60722774 3815994
0.1897705 -0.0060157799 0.6063717 3815994
0.19230688 -0.0074880854 0.60747558 3815994
0.19543573 -0.0093064634 0.60698146 3815994
0.18271884 -0.0019175746 0.60747641 3815994
0.18696827 -0.0043859039 0.60793257 3815994
0.17234427 0.0041100136 0.60760081 3815994
0.17753132 0.0010963582 0.60754168 3815994
0.16810668 0.0065714507 0.60713977 3815994
0.15026024 0.016938426 0.60583037 5592405
0.13759004 0.024301872 0.60779196 3815994
0.14270915 0.021325976 0.60625952 3750201
0.12939973 0.029060487 0.60794836 3815994
0.13197546 0.02756314 0.60718054 3815994
0.13515183 0.02571715 0.60668695 3815994
0.12239197 0.033130992 0.60718143 3815994
0.12659407 0.030690167 0.60763705 3815994
0.11254513 0.038851324 0.6067338 3815994
0.11680742 0.03637651 0.60804099 3815994
0.10361501 0.044040885 0.60785943 3815994
0.10782032 0.041596487 0.60684514 3815994
0.11040502 0.040097345 0.60902125 3815994
0.093643241 0.04983354 0.60718358 3815994
0.096986413 0.047891639 0.60755515 3815994
0.1012383 0.045420427 0.60675418 3815994
0.087895013 0.053173896 0.60781938 3815994
0.090861097 0.051449563 0.60688126 3815994
0.077253789 0.0593559 0.60749668 3815994
0.082231209 0.056464493 0.60783207 3815994
0.069051936 0.064121217 0.6076529 3815994
0.072861098 0.061907917 0.60743332 3815994
0.059697345 0.069555618 0.60725093 3815994
0.062465183 0.067947909 0.60756266 3815994
0.066278525 0.065732166 0.60734195 3815994
0.057605326 0.07077226 0.60829329 3815994
-0.026807405 0.11981269 0.60659438 3815994
-0.03289324 0.12334993 0.60785317 3815994
-0.029045487 0.12111419 0.60763454 3815994
-0.042185564 0.12874815 0.60745317 3815994
-0.038336884 0.12651189 0.60724163 3815994
-0.051467858 0.13414055 0.60706294 3815994
-0.047396336 0.13177562 0.60751849 3815994
-0.044453222 0.13006684 0.60849625 3815994
-0.060733717 0.1395234 0.60666168 3815994
-0.057818729 0.13783099 0.60764289 3815994
-0.053749986 0.13546765 0.60810459 3815994
-0.066890642 0.14310193 0.60792077 3815994
-0.063436694 0.14109343 0.60635996 3815994
-0.077324748 0.14916411 0.60804224 3815994
-0.072300687 0.14624438 0.6073091 3815994
-0.086589143 0.15454614 0.60764807 3815994
-0.082721487 0.15229884 0.60743409 3815994
-0.079233594 0.15027061 0.60587221 3815994
-0.093152732 0.15835935 0.60755783 3815994
-0.08928518 0.15611212 0.60733938 3815994
-0.10139892 0.16315044 0.60771304 3815994
-0.098031156 0.16119325 0.60722262 3815994
-0.11193355 0.1692705 0.60738635 3815994
-0.10677242 0.16627164 0.60710198 3815994
-0.10477081 0.16511002 0.60820025 3815994
-0.11550882 0.17134722 0.60697722 3815994
-0.11492319 0.17101011 0.60967875 3815994
-0.18078429 0.2092717 0.60742033 3815994
-0.17740537 0.20730752 0.60648155 3815994
-0.18733142 0.21307537 0.60733014 3815994
-0.1832898 0.21072856 0.60846329 3815994
-0.19728269 0.21885788 0.60817832 3815994
-0.19299383 0.21636516 0.60734004 3815994
-0.20695683 0.22447708 0.60705805 3815994
-0.20256381 0.22192539 0.60756618 3815994
-0.19925699 0.22000155 0.60528564 3815994
-0.21349621 0.22827625 0.60696793 3815994
-0.20950577 0.22595918 0.6080997 3815994
-0.22176515 0.23308055 0.60712302 3815994
-0.21821584 0.23101997 0.6084277 3815994
-0.23176971 0.23889351 0.60752261 3815994
-0.22698028 0.23611081 0.60740739 3815994
-0.24092907 0.24421448 0.6071254 3815994
-0.236564 0.24167903 0.60763365 3815994
-0.24746414 0.24801113 0.60703534 3815994
-0.24353659 0.24573061 0.60816729 3815994
0.30178905 0.24866214 0.60728359 1315860
-0.25749448 0.25383961 0.60788268 3815994
-0.25269443 0.25105071 0.60777152 3815994
0.3036896 0.25193366 0.60725355 1315860
0.30531126 0.25470111 0.60994339 1315860
-0.26705307 0.2593917 0.60676348 3815994
-0.2631661 0.25713474 0.60789537 3815994
0.3065145 0.25679725 0.60710013 1315860
-0.27230752 0.26244527 0.60749531 3815994
-0.26970384 0.26093295 0.60780418 3815994
0.30858001 0.26034692 0.60771805 1315860
0.31003359 0.26284263 0.60841507 1315860
0.35385996 -0.10134017 0.61400265 3815994
0.34370488 -0.095442928 0.61169839 3815994
0.34730372 -0.09753263 0.61269605 3815994
0.35117823 -0.099785343 0.61126262 3815994
0.33459049 -0.090145864 0.61319399 3815994
0.33809263 -0.092181906 0.61203092 3815994
0.34127766 -0.094030902 0.61328673 3815994
0.32790387 -0.086261153 0.61310208 3815994
0.33177254 -0.088509984 0.61207753 3815994
0.31912535 -0.081162073 0.61217487 3815994
0.32287177 -0.083338939 0.61195189 3815994
0.32543138 -0.084822826 0.61469686 3815994
0.30953452 -0.075590432 0.61176682 3815994
0.31231347 -0.077203639 0.61289042 3815994
0.31620237 -0.079464227 0.6118592 3815994
0.30264008 -0.071583569 0.6128912 3815994
0.3064746 -0.07381209 0.61226875 3815994
0.29365328 -0.066362061 0.61317074 3815994
0.29757962 -0.068644397 0.61214602 3815994
0.2837376 -0.060603876 0.61087281 3815994
0.28697255 -0.062480781 0.61307913 3815994
0.29074234 -0.064671203 0.61286497 3815994
0.27739385 -0.05691617 0.61267805 3815994
0.28115964 -0.059104286 0.61245596 3815994
0.26782 -0.051354393 0.61227292 3815994
0.27226821 -0.053938653 0.61233729 3815994
0.2585133 -0.045945622 0.61377007 3815994
0.26260352 -0.04832362 0.61233813 3815994
0.24871978 -0.040258411 0.6114676 3815994
0.2521624 -0.042257357 0.61246449 3815994
0.25650087 -0.04477739 0.61293364 3815994
0.2424971 -0.036641985 0.61246729 3815994
0.24604695 -0.038703687 0.61305487 3815994
0.23270684 -0.03095353 0.61287022 3815994
0.23739398 -0.033677537 0.6121254 3815994
0.22407557 -0.025939981 0.61194372 3815994
0.22838831 -0.028445076 0.61240661 3815994
0.21455169 -0.02040723 0.61153597 3815994
0.2171552 -0.021918526 0.61265874 3815994
0.22159791 -0.024499595 0.61272019 3815994
0.20827247 -0.016757945 0.61253583 3815994
0.21178983 -0.018800791 0.61312354 3815994
0.19845857 -0.011055763 0.61293888 3815994
0.20254247 -0.013429626 0.61191493 3815994
0.20512398 -0.01492816 0.61303067 3815994
0.18987814 -0.0060717389 0.61201221 3815994
0.19273475 -0.0077310414 0.61231714 3815994
0.19559619 -0.0093931193 0.61263329 3815994
0.18228172 -0.0016578616 0.61244655 3815994
0.18735678 -0.0046059783 0.61278886 3815994
0.17324603 0.0035920679 0.61272818 3815994
0.17752506 0.0011065595 0.6131922 3815994
0.1683442 0.0064390809 0.61198336 3815994
0.1375818 0.024312291 0.61263859 3815994
0.12894551 0.029330954 0.61360657 3815994
0.13333684 0.026778011 0.61217535 3815994
0.11964051 0.034734342 0.61130536 3815994
0.12206884 0.033324819 0.61242723 3815994
0.12650034 0.030750262 0.61248869 3815994
0.11320853 0.038472369 0.61230445 3815994
0.1166334 0.036483265 0.61289167 3815994
0.10333581 0.04420872 0.61270714 3815994
0.10772897 0.041656196 0.61255533 3815994
0.09464445 0.049259394 0.61367542 3815994
0.097710609 0.047476154 0.61208594 3815994
0.10052192 0.045843191 0.61240178 3815994
0.087241471 0.053558707 0.61221528 3815994
0.092261493 0.05064255 0.61255723 3815994
0.078978501 0.058359537 0.61237293 3815994
0.082370922 0.05638928 0.61296034 3815994
0.068036556 0.064717703 0.61330557 3815994
0.072364576 0.062202267 0.61249959 3815994
0.075726442 0.060249504 0.61286759 3815994
0.058964416 0.069985807 0.61100662 3815994
0.062439274 0.067968912 0.61268431 3815994
0.066285029 0.065734357 0.61247039 3815994
0.057540271 0.070816025 0.61343551 3487034
-0.027093746 0.11998659 0.61307365 3815994
-0.032592595 0.1231806 0.61245281 3815994
-0.028715115 0.1209276 0.612239 3815994
-0.041952681 0.12861821 0.61205256 3815994
-0.037006136 0.12574473 0.61239439 3815994
-0.050864097 0.13379669 0.61301875 3815994
-0.047656741 0.13193217 0.61206251 3815994
-0.061382502 0.13990787 0.61314231 3815994
-0.057491049 0.13764675 0.61292684 3815994
-0.053602271 0.13538718 0.61270458 3815994
-0.068661891 0.14413612 0.61231518 3815994
-0.063479349 0.1411248 0.61202615 3815994
-0.076704018 0.1488079 0.61184216 3815994
-0.072812907 0.14654878 0.61316735 3815994
-0.085514836 0.1539267 0.61171544 3815994
-0.082615949 0.15224364 0.6127131 3815994
-0.095678948 0.15983362 0.61321104 3815994
-0.091775 0.15756525 0.61299556 3815994
-0.088227883 0.15550257 0.61140865 3815994
-0.10291287 0.16403544 0.61238366 3815994
-0.09771359 0.16101442 0.61209458 3815994
-0.11162661 0.16909838 0.61271834 3815994
-0.1077178 0.16682717 0.61250085 3815994
-0.11703396 0.17223924 0.61209702 3487802
-0.11433232 0.17066999 0.61240447 3815994
-0.18019101 0.20893332 0.61285561 3815994
-0.1776728 0.20746906 0.61179757 3815994
-0.18679681 0.21277109 0.61276376 3815994
-0.18286219 0.21048488 0.61254162 3815994
-0.19783568 0.21918379 0.6121524 3815994
-0.19212833 0.21586788 0.61214244 3815994
-0.20659797 0.2242749 0.61248678 3815994
-0.20265692 0.22198498 0.61226946 3815994
-0.21319586 0.22810806 0.61239511 3815994
-0.20916909 0.22576994 0.61354721 3815994
-0.22503449 0.23498689 0.61304784 3815994
-0.22238274 0.23344663 0.61336231 3815994
-0.21890591 0.23142552 0.61240512 3815994
-0.23209202 0.23908623 0.61222094 3815994
-0.22683312 0.23603056 0.61193198 3815994
-0.24087401 0.2441888 0.61255538 3815994
-0.23692034 0.24189153 0.61233795 3815994
-0.2474675 0.2480194 0.61246365 3815994
-0.24350476 0.24571846 0.61361599 3815994
0.30221555 0.24936911 0.61035728 1315860
-0.2580131 0.2541464 0.61259079 3815994
-0.25317875 0.25133756 0.61247367 3815994
0.30383903 0.25213939 0.61308062 1381653
0.30512324 0.25436133 0.61177236 1315860
-0.26723152 0.25950167 0.61218691 3815994
-0.26285225 0.25695798 0.61270374 3815994
0.30720282 0.25793511 0.61240166 1315860
-0.27515772 0.26410717 0.61262393 3815994
-0.27247655 0.26254821 0.61156666 3815994
-0.26990634 0.2610569 0.61324632 3815994
0.30968532 0.26221094 0.61206919 1315860
0.31106493 0.26457113 0.6136992 1315860
0.35351977 -0.10113873 0.61727744 3815994
0.34392375 -0.095565021 0.61604494 3815994
0.34740543 -0.097585224 0.61828893 3815994
0.3506448 -0.099469766 0.61613762 3815994
0.33770552 -0.091950208 0.617881 3815994
0.34148118 -0.094144084 0.61765504 3815994
0.3280102 -0.08631786 0.61746901 3815994
0.33250251 -0.088927776 0.6175344 3815994
0.31833512 -0.080697283 0.61706454 3815994
0.32275587 -0.083265126 0.61753523 3815994
0.30866826 -0.075081468 0.61664987 3815994
0.31223863 -0.077154636 0.61766374 3815994
0.31622723 -0.07947363 0.61620706 3815994
0.30249158 -0.071491756 0.61766654 3815994
0.3061296 -0.073604681 0.61826408 3815994
0.29265794 -0.065778092 0.61807632 3815994
0.2973114 -0.068482541 0.61731893 3815994
0.28386208 -0.060668934 0.61713409 3815994
0.28765178 -0.062870935 0.61690754 3815994
0.29007292 -0.064274348 0.61969715 3815994
0.27421728 -0.055065945 0.61671937 3815994
0.2769534 -0.056654256 0.61786133 3815994
0.28093377 -0.058967993 0.6168133 3815994
0.26798317 -0.051442832 0.61773628 3815994
0.27110341 -0.053256232 0.61722958 3815994
0.25812548 -0.045715213 0.61814618 3815994
0.26282179 -0.048444565 0.61738855 3815994
0.24938129 -0.04063607 0.61720371 3815994
0.25318405 -0.042845678 0.61697716 3815994
0.25544959 -0.044158682 0.61976737 3815994
0.23975857 -0.035045914 0.61678886 3815994
0.24243118 -0.03659733 0.61793113 3815994
0.24647054 -0.038945355 0.6168828 3815994
0.23304707 -0.03114675 0.616696 3815994
0.23661582 -0.033219438 0.61729926 3815994
0.22358522 -0.025647804 0.61821604 3815994
0.22766189 -0.028017493 0.61717445 3815994
0.23031184 -0.029555757 0.61830944 3815994
0.21477808 -0.020534338 0.615345 3815994
0.2168601 -0.02174072 0.61812299 3815994
0.22068557 -0.023963522 0.6179052 3815994
0.2072489 -0.016157247 0.6177153 3815994
0.21199957 -0.018918198 0.61695242 3815994
0.19858503 -0.011124782 0.6167655 3815994
0.20212047 -0.013178115 0.61736882 3815994
0.18903714 -0.0055758595 0.61828595 3815994
0.1931725 -0.0079796379 0.61724406 3815994
0.19575931 -0.0094812205 0.61837935 3815994
0.18183471 -0.0013922774 0.61749816 3815994
0.18615454 -0.0039014791 0.617975 3815994
0.17336333 0.0035301156 0.61807072 3815994
0.17752081 0.0011134737 0.61702198 3815994
0.1688862 0.0061311824 0.6180039 5987163
0.17081784 0.0050076889 0.61692804 3815994
0.13832085 0.023886733 0.61592519 3947323
0.12863767 0.02951427 0.61744153 3815994
0.13248916 0.027276356 0.61722308 3815994
0.13633579 0.025041267 0.6169976 3815994
0.11927588 0.034950607 0.61511147 3815994
0.12335987 0.032580659 0.61750907 3815994
0.1266308 0.030681472 0.61851919 3815994
0.11198952 0.039186936 0.61776537 3815994
0.11713492 0.0361972 0.61746687 3815994
0.10365808 0.044027559 0.61792701 3815994
0.10751887 0.041784246 0.61769986 3815994
0.094122157 0.04956729 0.61751121 3815994
0.097986311 0.047322027 0.61729276 3815994
0.10184597 0.045079365 0.61706716 3815994
0.084889583 0.054928552 0.61518061 3815994
0.088276602 0.052964229 0.61816901 3815994
0.0912925 0.05121091 0.61719865 3815994
0.077454045 0.059251573 0.61783516 3815994
0.082616694 0.056251798 0.61753654 3815994
0.069112614 0.064097986 0.61799681 3815994
0.071936421 0.062457759 0.61830771 3815994
0.075086758 0.060625602 0.61669332 3815994
0.059598859 0.069624834 0.61758089 3815994
0.062889032 0.067712724 0.61707872 3815994
0.06629198 0.065736353 0.61767507 3815994
0.057471026 0.07086233 0.61865908 3815994
-0.032281913 0.12300554 0.6171273 3815994
-0.027880982 0.12045002 0.61829728 3618619
-0.042173889 0.12875362 0.61800307 3815994
-0.038033102 0.12634689 0.61713743 3815994
-0.052294351 0.13463211 0.61684632 3815994
-0.047935363 0.13210097 0.61801618 3815994
-0.044929545 0.13035116 0.6150164 3815994
-0.060547531 0.13942596 0.61589915 3815994
-0.057375591 0.13758509 0.61760384 3815994
-0.054180637 0.13573088 0.61931562 3815994
-0.066798002 0.1430589 0.61719692 3815994
-0.062462024 0.14054112 0.6183672 3815994
-0.076740079 0.14883609 0.61807293 3815994
-0.072550394 0.14640097 0.61720705 3815994
-0.086796977 0.15467764 0.61691588 3815994
-0.082230315 0.1520251 0.6174407 3815994
-0.079328977 0.15033673 0.61508548 3815994
-0.093742542 0.15871353 0.61746395 3815994
-0.089177817 0.15606213 0.61799169 3815994
-0.10183272 0.16341324 0.616983 3815994
-0.097963713 0.16116698 0.61833048 3815994
-0.11131409 0.16892309 0.61814272 3815994
-0.1070755 0.16645956 0.61727673 3815994
-0.11676957 0.17209192 0.61751038 3684667
-0.11373615 0.17032681 0.61515468 3815994
-0.17973937 0.20867574 0.61699319 3815994
-0.19035156 0.2148414 0.61712462 3815994
-0.18638986 0.21253945 0.61690015 3815994
-0.18323036 0.21070455 0.61750382 3815994
-0.19700187 0.21870501 0.61703157 3815994
-0.19291386 0.2163313 0.6182012 3815994
-0.20623264 0.22406907 0.6180135 3815994
-0.20275486 0.2220474 0.61704165 3815994
-0.21289012 0.22793685 0.61792016 3815994
-0.20891283 0.22562586 0.6176942 3815994
-0.22399551 0.23438819 0.61729842 3815994
-0.21823975 0.23104417 0.61728829 3815994
-0.23153117 0.23876606 0.61710113 3815994
-0.22750816 0.23643011 0.61827105 3815994
-0.24081793 0.24416265 0.61808336 3815994
-0.23728538 0.24210918 0.61711127 3815994
-0.24747095 0.24802783 0.61798996 3815994
-0.24348055 0.24570921 0.61776388 3815994
-0.25854278 0.25445965 0.61736804 3815994
-0.25278583 0.25111493 0.61735797 3815994
0.30464807 0.25350264 0.61639452 1315860
-0.26741323 0.25961363 0.61770821 3815994
-0.2634168 0.25729153 0.61748713 3815994
0.30685246 0.2572872 0.61747915 1315860
-0.27541107 0.26426077 0.61815321 3815994
-0.2718237 0.26217547 0.61718088 3815994
0.30915555 0.26125005 0.61762792 1315860
0.31072024 0.26394504 0.61741364 1315860
-0.28077453 0.26737773 0.6189127 3815994
-0.27798659 0.26575512 0.61644661 3815994
0.31219918 0.26648417 0.61813676 1315860
0.35299993 -0.10083092 0.62224931 3815994
0.35752603 -0.10346045 0.62231278 3815994
0.34414712 -0.095689684 0.6204527 3815994
0.34683537 -0.097248234 0.62327713 3815994
0.35010287 -0.09914913 0.62109113 3815994
0.334903 -0.090317227 0.6219914 3815994
0.33777592 -0.09198498 0.62315303 3815994
0.34168619 -0.09425804 0.62208694 3815994
0.32812041 -0.086376771 0.62189686 3815994
0.33181313 -0.088521451 0.62251043 3815994
0.3188149 -0.080968626 0.62344277 3815994
0.32276425 -0.083264336 0.62238359 3815994
0.32561293 -0.084918059 0.62353778 3815994
0.3094877 -0.07555306 0.6205231 3815994
0.31201848 -0.077020109 0.62334812 3815994
0.31625098 -0.07948231 0.62061816 3815994
0.30226281 -0.07135272 0.62293357 3815994
0.30693525 -0.074068218 0.62215769 3815994
0.29337853 -0.06619221 0.62196761 3815994
0.29703736 -0.068317227 0.62258124 3815994
0.28398558 -0.060733266 0.62351382 3815994
0.2879945 -0.063063622 0.62245435 3815994
0.29077908 -0.06468007 0.62360889 3815994
0.27482045 -0.05541186 0.62059349 3815994
0.27719364 -0.056787372 0.62341917 3815994
0.2815792 -0.059338473 0.62068856 3815994
0.26814598 -0.051530972 0.62329501 3815994
0.27217633 -0.053873781 0.62222844 3815994
0.25862873 -0.046003055 0.62203836 3815994
0.26225367 -0.048108388 0.62265211 3815994
0.26540226 -0.049938269 0.6221329 3815994
0.25242615 -0.042398751 0.62265289 3815994
0.25593725 -0.044437457 0.62367994 3815994
0.241807 -0.036229044 0.62278366 3815994
0.24734722 -0.039448876 0.62188381 3815994
0.23381467 -0.031586915 0.62169391 3815994
0.23740953 -0.033674758 0.62229919 3815994
0.22387099 -0.02580931 0.62210906 3815994
0.22746205 -0.027894951 0.62272292 3815994
0.23064004 -0.029741902 0.62220365 3815994
0.21763337 -0.02218464 0.62272382 3815994
0.2210875 -0.024190236 0.6237511 3815994
0.20700571 -0.016009983 0.62285453 3815994
0.21259685 -0.019259403 0.6219545 3815994
0.19907339 -0.011402712 0.6217646 3815994
0.20263483 -0.01347114 0.62237 3815994
0.18814908 -0.0050547514 0.62272596 3815994
0.19201231 -0.0072994856 0.62250382 3815994
0.19586989 -0.0095409406 0.6222744 3815994
0.18283269 -0.0019659281 0.62279469 3815994
0.1862298 -0.0039383941 0.62382221 3815994
0.17364506 0.003372262 0.62308329 3815994
0.17783861 0.0009346623 0.62202531 3815994
0.17077142 0.0050391564 0.62080473 3815994
0.12832594 0.029699888 0.62132472 3815994
0.13162468 0.027784565 0.62235409 3815994
0.13593945 0.025278324 0.6228385 3881787
0.12242179 0.03313164 0.6226455 3815994
0.12630589 0.030874774 0.62241602 3815994
0.11279637 0.038723357 0.62222701 3815994
0.11730039 0.036106676 0.62229353 3815994
0.1029528 0.044444107 0.62377328 3815994
0.10747833 0.041813135 0.62229443 3815994
0.093593299 0.049879063 0.62139529 3815994
0.096834876 0.047996957 0.6224249 3815994
0.10112303 0.045506164 0.62290943 3815994
0.087614633 0.053354107 0.62271637 3815994
0.09151201 0.051089529 0.62248683 3815994
0.078013994 0.058931433 0.62229651 3815994
0.081913829 0.056665435 0.62207466 3815994
0.068080388 0.0647045 0.62384444 3815994
0.072689101 0.062025182 0.62236512 3815994
0.075902276 0.060159583 0.62339127 3815994
0.062037144 0.068213955 0.62249571 3815994
0.066298708 0.065738618 0.62298036 3815994
0.058852769 0.070062824 0.62146586 3815994
-0.035236362 0.12472553 0.62014061 3815994
-0.032410152 0.12308707 0.62317735 3815994
-0.029178884 0.12120861 0.62219131 3815994
-0.042633615 0.12902537 0.62200117 3815994
-0.037991393 0.12632893 0.62253469 3815994
-0.051156152 0.13397832 0.62329054 3815994
-0.04657945 0.13131809 0.62222397 3815994
-0.044496741 0.13011073 0.62451202 3815994
-0.061204284 0.13981529 0.62257975 3815994
-0.057253014 0.13751942 0.62235773 3815994
-0.053304508 0.13522512 0.62212837 3815994
-0.067928843 0.14372206 0.62248904 3815994
-0.063977882 0.14142632 0.62226212 3815994
-0.077423505 0.1492378 0.62207186 3815994
-0.072810605 0.1465584 0.62260556 3815994
-0.085707597 0.15404961 0.62110865 3815994
-0.082764469 0.1523409 0.62213731 3815994
-0.079427302 0.15040489 0.6245833 3815994
-0.092064522 0.15774441 0.62242848 3815994
-0.088102736 0.15544242 0.62219918 3815994
-0.10212714 0.16359167 0.62331939 3815994
-0.097866088 0.16111504 0.62243885 3815994
-0.11222132 0.16945484 0.62214267 3815994
-0.10763774 0.1667925 0.62267637 3815994
-0.10461417 0.16503306 0.62028116 3815994
-0.11843261 0.17306371 0.6223377 3815994
-0.11466707 0.17087705 0.62323678 3815994
-0.18184069 0.2099027 0.62228417 3815994
-0.18854789 0.21379939 0.62218958 3815994
-0.18440947 0.21139641 0.62337887 3815994
-0.19654657 0.218447 0.62264097 3815994
-0.19254494 0.21612187 0.62241155 3815994
-0.20595449 0.22391237 0.62222129 3815994
-0.20195389 0.22158782 0.62199944 3815994
-0.21216673 0.22752236 0.6228891 3815994
-0.20865266 0.2254796 0.62190396 3815994
-0.2233649 0.23402758 0.62226033 3815994
-0.21797743 0.23089829 0.62290245 3815994
-0.23138976 0.23869042 0.6227119 3815994
-0.22737484 0.23635754 0.62248236 3815994
-0.24077526 0.24414274 0.62229204 3815994
-0.23676179 0.24181072 0.62207019 3815994
-0.24702561 0.24777485 0.62296003 3815994
-0.24345598 0.24569982 0.62197459 3815994
-0.25684059 0.25347584 0.62178469 3815994
-0.25283769 0.25115162 0.62297338 3815994
-0.26759824 0.25972766 0.62333 3815994
-0.26399326 0.25763211 0.62234139 3815994
-0.25953913 0.25504494 0.6228776 3815994
0.30675828 0.25708199 0.62236893 1315860
-0.27560395 0.26437771 0.62236279 3815994
-0.27157763 0.26203823 0.62214094 3815994
0.30870694 0.26043627 0.62233549 1315860
0.31028321 0.26315126 0.6221227 1315860
-0.28189239 0.26803198 0.62303096 3815994
-0.27826726 0.26592469 0.6220454 3815994
0.31240374 0.26679537 0.62276971 1315860
0.36159626 -0.10581925 0.62742633 3815994
0.35311222 -0.100889 0.62844265 3815994
0.35776836 -0.10359503 0.62765962 3815994
0.34407544 -0.095639884 0.62746865 3815994
0.34790602 -0.097865663 0.6272344 3815994
0.35119039 -0.09977641 0.6250205 3815994
0.33712304 -0.091599792 0.62822038 3815994
0.34106621 -0.093891963 0.62713683 3815994
0.32822981 -0.086435109 0.62639046 3815994
0.3325524 -0.088944398 0.62815261 3815994
0.31885919 -0.0809891 0.62795746 3815994
0.32270786 -0.083225384 0.62773156 3815994
0.30902404 -0.075275525 0.62754059 3815994
0.31286815 -0.077509157 0.62730628 3815994
0.31671619 -0.079745054 0.62708199 3815994
0.30202886 -0.071210571 0.62829256 3815994
0.30603302 -0.073538177 0.62720877 3815994
0.29323688 -0.066104703 0.62646222 3815994
0.29746148 -0.068557061 0.62822467 3815994
0.28377762 -0.060607199 0.62802958 3815994
0.28763935 -0.062851064 0.62780362 3815994
0.27426884 -0.055080902 0.62960619 3815994
0.27782226 -0.057147991 0.62737817 3815994
0.28168327 -0.059391424 0.62715387 3815994
0.2671327 -0.050937369 0.62751281 3815994
0.27188134 -0.053697169 0.62672681 3815994
0.25823805 -0.045770854 0.62653261 3815994
0.26178151 -0.047828346 0.62757933 3815994
0.24868797 -0.040220607 0.62810165 3815994
0.25256279 -0.042472064 0.62787569 3815994
0.2564311 -0.044719774 0.62764227 3815994
0.24276833 -0.036782149 0.62745011 3815994
0.24664232 -0.03903313 0.62722588 3815994
0.23299377 -0.031103777 0.62703258 3815994
0.23741984 -0.033674687 0.62751865 3815994
0.22322913 -0.025431165 0.62660438 3815994
0.22671451 -0.027454909 0.62765133 3815994
0.23097238 -0.029930405 0.62614715 3815994
0.21747814 -0.022088392 0.62794775 3815994
0.22135997 -0.024343936 0.62771428 3815994
0.20770638 -0.01641164 0.62752205 3815994
0.21225898 -0.019056551 0.62758976 3815994
0.19861312 -0.01112876 0.62739635 3815994
0.20316081 -0.013770819 0.62746078 3815994
0.18821217 -0.0050868155 0.62667614 3815994
0.19163945 -0.0070767934 0.62772334 3815994
0.19598188 -0.009601417 0.6262188 3815994
0.18238151 -0.0016985001 0.62735361 3815994
0.1862808 -0.0039634211 0.62778634 3815994
0.17361613 0.0033936687 0.627038 3815994
0.1771857 0.0013205269 0.62766171 3815994
0.12887026 0.029389875 0.62669063 3815994
0.13301855 0.026980849 0.62760478 3815994
0.11983324 0.034643732 0.6297012 3815994
0.12200918 0.033376709 0.62725616 3815994
0.12683371 0.030574374 0.62780082 3815994
0.11362007 0.03825007 0.62675983 3815994
0.11712624 0.036213756 0.62737507 3815994
0.10351437 0.044121809 0.62718177 3815994
0.10701501 0.042088713 0.62780577 3815994
0.11032017 0.040167857 0.62727791 3815994
0.09461765 0.049291831 0.6281963 3815994
0.097935356 0.047363698 0.62767678 3815994
0.10038785 0.045940202 0.6288507 3815994
0.0869442 0.053748969 0.6273281 3815994
0.092178471 0.050707597 0.62702483 3815994
0.07858187 0.05860677 0.62683165 3815994
0.082913153 0.05609199 0.62822258 3815994
0.069522299 0.06387008 0.62669855 3815994
0.071917593 0.062479824 0.62787789 3815994
0.075252645 0.0605416 0.62734985 3815994
0.059496969 0.069696449 0.62826842 3815994
0.062729031 0.067816749 0.62660253 3815994
0.066305906 0.06574069 0.62836587 3815994
0.057714649 0.07073094 0.62739217 3815994
-0.035621222 0.12495699 0.62691396 3815994
-0.033423029 0.12368125 0.62809414 3815994
-0.029998215 0.12169088 0.62756574 3815994
-0.04169618 0.12848723 0.62759191 3815994
-0.038427256 0.12658688 0.62659192 3815994
-0.051528167 0.13419974 0.62783134 3815994
-0.047547061 0.1318865 0.6276055 3815994
-0.060355585 0.13932551 0.6254223 3815994
-0.058315143 0.13814273 0.62773496 3815994
-0.054330118 0.13582724 0.62750828 3815994
-0.067689002 0.14358914 0.62803411 3815994
-0.062299006 0.14045757 0.62796748 3815994
-0.076798707 0.1488813 0.62766403 3815994
-0.072544016 0.14640836 0.62677103 3815994
-0.086645208 0.15460223 0.62790334 3815994
-0.082651019 0.1522814 0.6276775 3815994
-0.095338881 0.15965031 0.62549382 3815994
-0.093427584 0.15854257 0.62780702 3815994
-0.088745378 0.15582104 0.62673289 3815994
-0.10205662 0.16355555 0.62749451 3815994
-0.097424909 0.16086522 0.6280396 3815994
-0.11098501 0.16874319 0.62784582 3815994
-0.10697991 0.16641605 0.62761754 3815994
-0.11776303 0.172681 0.6277495 3815994
-0.11375784 0.17035379 0.62751621 3815994
-0.18801123 0.21349423 0.62789363 3815994
-0.18397899 0.21115127 0.62766016 3815994
-0.19750425 0.21900901 0.62746674 3815994
-0.193473 0.21666664 0.62724113 3815994
-0.20567209 0.22375326 0.62649322 3815994
-0.20154026 0.22135413 0.62769997 3815994
-0.21631286 0.22993886 0.62950188 3815994
-0.21283281 0.22791417 0.62705833 3815994
-0.20830049 0.2252816 0.62760276 3815994
-0.22314744 0.23390786 0.62796569 3815994
-0.21777767 0.2307872 0.62717724 3815994
-0.23261766 0.23940942 0.62753874 3815994
-0.22857329 0.23705944 0.62731308 3815994
-0.24073192 0.24412253 0.62656498 3815994
-0.23666717 0.24176238 0.62777203 3815994
-0.2479251 0.2483023 0.62713027 3815994
-0.24342272 0.24568713 0.6276747 3815994
-0.25692993 0.25353438 0.62748122 3815994
-0.25243223 0.25092193 0.62802416 3815994
-0.26594415 0.25877193 0.62783051 3815994
-0.26231658 0.25666314 0.62682968 3815994
-0.2596246 0.25509956 0.62715203 3815994
0.30787712 0.25896734 0.62693322 1513239
-0.27579981 0.26449648 0.62663674 3815994
-0.27180213 0.26217532 0.62784404 3815994
0.3097502 0.2621831 0.62786639 1315860
0.31125343 0.26476383 0.62861025 1315860
-0.28302547 0.26869512 0.62720221 3815994
-0.27855307 0.26609737 0.62774682 3815994
0.312554 0.2670145 0.62724113 1315860
-0.2866891 0.27082479 0.62820631 3815994
0.31451756 0.27039447 0.62720716 1315860
0.36195114 -0.10602012 0.63200009 3815994
0.36559266 -0.10813304 0.63436073 3815994
0.35257956 -0.10057352 0.63359666 3815994
0.3572745 -0.10330214 0.63280076 3815994
0.34399873 -0.095587 0.63463211 3815994
0.34733176 -0.097526051 0.63236856 3815994
0.35064495 -0.099453591 0.63011831 3815994
0.33758125 -0.091860883 0.63261473 3815994
0.34210667 -0.094491795 0.63114333 3815994
0.32749549 -0.086002529 0.63151079 3815994
0.33185139 -0.088531159 0.63330191 3815994
0.31890261 -0.081009001 0.63253903 3815994
0.32264933 -0.083185054 0.63317376 3815994
0.31200698 -0.077002868 0.63244158 3815994
0.31588686 -0.079257265 0.63221377 3815994
0.29997247 -0.070012555 0.63111788 3815994
0.30337614 -0.071987286 0.63347292 3815994
0.30741554 -0.074335389 0.63237935 3815994
0.29363602 -0.066329949 0.6321829 3815994
0.29735076 -0.068487436 0.6328088 3815994
0.28445306 -0.060994945 0.63204753 3815994
0.28727677 -0.062634073 0.63324714 3815994
0.29045764 -0.064482734 0.63270998 3815994
0.27488494 -0.055434179 0.63364434 3815994
0.27756858 -0.056995306 0.6319499 3815994
0.28127041 -0.059145261 0.6325835 3815994
0.26749456 -0.051141951 0.63238698 3815994
0.27208558 -0.053809177 0.63245249 3815994
0.25831544 -0.04580918 0.63225597 3815994
0.26290116 -0.048473325 0.63231826 3815994
0.24913898 -0.040477958 0.63212055 3815994
0.25212419 -0.042211935 0.63245505 3815994
0.25510722 -0.043944646 0.63278317 3815994
0.24225917 -0.036481027 0.63202286 3815994
0.24592602 -0.038610656 0.63265669 3815994
0.23215957 -0.030612806 0.63246006 3815994
0.23743072 -0.033674836 0.63282365 3815994
0.22366206 -0.025675703 0.63262957 3815994
0.22756945 -0.0279461 0.63239139 3815994
0.21777196 -0.022253633 0.63263756 3815994
0.22163594 -0.024499603 0.63172817 3815994
0.20789497 -0.016516544 0.63153356 3815994
0.2119118 -0.018848179 0.6333248 3815994
0.19814369 -0.010849366 0.63312644 3815994
0.20206782 -0.013129489 0.63289678 3815994
0.18830843 -0.0051357346 0.63270271 3815994
0.19222957 -0.007414131 0.63246447 3815994
0.19615273 -0.0096936841 0.6322366 3815994
0.18241224 -0.0017109186 0.63203764 3815994
0.18633243 -0.003988768 0.63180113 3815994
0.17455889 0.0028522993 0.63250613 4868681
0.17750329 0.0011420164 0.63283169 3815994
0.12942012 0.029076766 0.63214338 3815994
0.13234209 0.027379531 0.63247788 3881787
0.11945881 0.034865968 0.63374066 3815994
0.12255856 0.033063095 0.63204575 3815994
0.1261055 0.031003123 0.63267952 3815994
0.11237577 0.038979635 0.63248295 3815994
0.11695141 0.036321346 0.63254839 3815994
0.10384587 0.043935567 0.6326524 3815994
0.10779852 0.04163887 0.63241416 3815994
0.094082758 0.049607269 0.63221639 3815994
0.097954027 0.047358636 0.63266039 3815994
0.1019904 0.045012522 0.631751 3815994
0.088097833 0.053085219 0.6329059 3815994
0.091185808 0.051289968 0.63188887 3815994
0.077484086 0.059250213 0.63169277 3815994
0.082200222 0.056511641 0.63291973 3815994
0.068477102 0.064484328 0.6327256 3815994
0.072443515 0.062179625 0.63248724 3815994
0.076084241 0.060066506 0.63428253 3815994
0.062706664 0.067836076 0.63206047 3815994
0.066671811 0.065532118 0.6318239 3815994
0.058737233 0.070142522 0.63228947 3815994
-0.031775597 0.12272974 0.63292879 3815994
-0.028999062 0.12111373 0.63045406 3815994
-0.042790089 0.12912856 0.63257891 3815994
-0.037676025 0.12615781 0.63294256 3815994
-0.05136288 0.13410941 0.63274837 3815994
-0.048533656 0.13246605 0.63307422 3815994
-0.044986222 0.1304031 0.63138187 3815994
-0.061020497 0.13971983 0.6323123 3815994
-0.057007547 0.1373881 0.6320833 3815994
-0.052997455 0.13505803 0.63184673 3815994
-0.067175508 0.14329658 0.63300198 3815994
-0.063837513 0.14135608 0.63198465 3815994
-0.077493198 0.14928958 0.63178849 3815994
-0.072808236 0.14656834 0.63233894 3815994
-0.085533544 0.15396143 0.632254 3815994
-0.081513852 0.15162578 0.63201827 3815994
-0.079528712 0.15047519 0.63437903 3815994
-0.092363074 0.15792917 0.63215625 3815994
-0.087971434 0.15537912 0.63338405 3815994
-0.10258362 0.1638682 0.6330753 3815994
-0.098255306 0.16135247 0.63216692 3815994
-0.11128426 0.16892275 0.63275385 3815994
-0.10724808 0.16657753 0.63252354 3815994
-0.12090192 0.17450996 0.63232702 3815994
-0.11625082 0.17180841 0.63287848 3815994
-0.11314424 0.17000064 0.63040411 3815994
-0.12311734 0.1758001 0.63492209 4472894
-0.18707275 0.21295492 0.63302487 3815994
-0.18368851 0.21098587 0.63054943 4472636
-0.19716096 0.21881461 0.63181126 3815994
-0.19258009 0.21615382 0.63236171 3815994
-0.20528975 0.22353785 0.63227677 3815994
-0.20254481 0.22194347 0.63260472 3815994
-0.1997965 0.22034712 0.6329397 3815994
-0.2161708 0.22985971 0.6324082 3815994
-0.21210104 0.22749498 0.63217914 3815994
-0.20794179 0.22507995 0.63340694 3815994
-0.22249602 0.23353536 0.63309813 3815994
-0.21890783 0.23144951 0.63208044 3815994
-0.23251745 0.23935625 0.63188422 3815994
-0.22796686 0.23671307 0.63243484 3815994
-0.24067326 0.24409518 0.63234985 3815994
-0.23612642 0.24145417 0.63290125 3815994
-0.24747986 0.24804956 0.6322521 3815994
-0.24338883 0.24567419 0.63348025 3815994
-0.25702095 0.25359398 0.63328314 3815994
-0.25337556 0.25147489 0.63226277 3815994
-0.26697841 0.25937772 0.63206643 3815994
-0.26245725 0.2567516 0.6326195 3815994
-0.25971138 0.255155 0.6314922 3815994
-0.27606493 0.26465726 0.63242298 3815994
-0.27154842 0.26203385 0.63297445 3815994
0.30929869 0.26136297 0.63273185 1315860
0.31090108 0.26412296 0.63251191 1315860
-0.28286684 0.26860893 0.63232523 3815994
-0.27877066 0.26622882 0.63208848 3815994
0.31346291 0.26853555 0.6321553 1315860
-0.29257169 0.27425018 0.6348207 3815994
-0.28876385 0.27203497 0.63233584 3815994
0.31562114 0.2722443 0.63282537 1315860
0.3623108 -0.10622367 0.63664144 3815994
0.36598098 -0.10835321 0.63903654 3815994
0.35370514 -0.10122271 0.63768649 3815994
0.35760221 -0.10348712 0.63745254 3815994
0.34338531 -0.095224492 0.63988864 3815994
0.34674796 -0.097180836 0.63758749 3815994
0.35064679 -0.099446252 0.63735592 3815994
0.33454248 -0.090091199 0.63624209 3815994
0.33748066 -0.091796815 0.63745767 3815994
0.34148103 -0.094122276 0.63634205 3815994
0.32821333 -0.086412817 0.63732463 3815994
0.33199278 -0.088607885 0.63796061 3815994
0.318084 -0.080527335 0.63776076 3815994
0.32199463 -0.082799613 0.63752687 3815994
0.32503811 -0.084567435 0.63786018 3815994
0.30938995 -0.075475022 0.63880986 3815994
0.31286904 -0.077498972 0.63651639 3815994
0.3154853 -0.079015508 0.63948661 3815994
0.30187044 -0.071107782 0.63753194 3815994
0.30650237 -0.073798791 0.63759851 3815994
0.29332358 -0.066142008 0.63770413 3815994
0.29723585 -0.068415247 0.63746208 3815994
0.28335094 -0.060348578 0.63726109 3815994
0.28738713 -0.062693022 0.6377123 3815994
0.29118121 -0.064898372 0.63678825 3815994
0.2779212 -0.057193898 0.63733315 3815994
0.28155828 -0.059305727 0.63840914 3815994
0.26765335 -0.051227421 0.63821036 3815994
0.27249205 -0.054039583 0.63740146 3815994
0.25839305 -0.045847517 0.6380803 3815994
0.26253587 -0.048255727 0.63696253 3815994
0.26526839 -0.049845245 0.63524926 3815994
0.24959578 -0.04073862 0.63619119 3815994
0.25237143 -0.042349827 0.63740659 3815994
0.25560299 -0.044227932 0.63686234 3815994
0.23987614 -0.035089795 0.63780904 3815994
0.24312262 -0.036976565 0.63727355 3815994
0.24681689 -0.039122134 0.63790953 3815994
0.23293591 -0.03105774 0.63770968 3815994
0.23687741 -0.033347972 0.63747573 3815994
0.22410247 -0.02592445 0.63875854 3815994
0.22788747 -0.028126134 0.63646549 3815994
0.23010695 -0.029412167 0.63943517 3815994
0.21404609 -0.020084754 0.63626516 3815994
0.21675415 -0.021656683 0.63748085 3815994
0.22137685 -0.024342313 0.63754743 3815994
0.20751168 -0.016287118 0.63734776 3815994
0.21117085 -0.018412288 0.63798392 3815994
0.1982723 -0.010919345 0.63721007 3815994
0.20224796 -0.013228604 0.63766116 3815994
0.18840635 -0.0051854956 0.63883317 3815994
0.19283336 -0.0077593317 0.63728213 3815994
0.19632652 -0.009787539 0.63835794 3815994
0.18195185 -0.0014371919 0.63741899 3815994
0.18641126 -0.0040274439 0.63792723 3815994
0.17749879 0.0011493823 0.63691151 3815994
0.12910594 0.029264014 0.63621426 3815994
0.13165151 0.027786493 0.63742977 3815994
0.12306172 0.03277722 0.63759929 3815994
0.12703879 0.030466318 0.63735849 3815994
0.11215787 0.039112337 0.63773286 3815994
0.1171224 0.036227878 0.63761002 3815994
0.10312547 0.044361234 0.63878185 3815994
0.10775918 0.04166732 0.63723105 3815994
0.093540967 0.049926773 0.63628829 3815994
0.09686026 0.047999568 0.63736796 3815994
0.10125147 0.045448937 0.63787609 3815994
0.087418608 0.053485379 0.63767362 3815994
0.091409609 0.051166385 0.63743281 3815994
0.078665383 0.05856967 0.63666129 3815994
0.082345411 0.056433752 0.6384818 3815994
0.069593191 0.063841686 0.63770682 3815994
0.072982095 0.061872169 0.63717151 3815994
0.075424373 0.060454648 0.63838118 3815994
0.059391499 0.069770597 0.63933241 3815994
0.061838865 0.068345785 0.63681215 3815994
0.066683918 0.065531537 0.63737357 3815994
0.057967711 0.070594341 0.63636231 3815994
-0.035033375 0.12462693 0.63678354 3815994
-0.032799397 0.12333044 0.6380012 3815994
-0.02932113 0.12130899 0.637456 3355448
-0.041919697 0.12862766 0.63668448 3815994
-0.038584344 0.12669198 0.6385051 3815994
-0.051190242 0.1340149 0.63773 3815994
-0.047146514 0.13166529 0.63749707 3815994
-0.060157616 0.13922191 0.63524461 3815994
-0.058084279 0.1380201 0.63763058 3815994
-0.054036509 0.13566814 0.63739675 3815994
-0.068483174 0.14406221 0.63807565 3815994
-0.06307856 0.14092185 0.63775712 3815994
-0.075914204 0.14837906 0.63767076 3815994
-0.072537445 0.14641601 0.63663608 3815994
-0.086860985 0.1547391 0.63780433 3815994
-0.082803756 0.15238166 0.63757139 3815994
-0.07874912 0.1500257 0.63733065 3815994
-0.09569037 0.15986595 0.6353184 3815994
-0.092518568 0.15802528 0.63713259 3815994
-0.089322701 0.15617065 0.63895434 3815994
-0.10251509 0.16383338 0.63738251 3815994
-0.09781073 0.16110089 0.63794494 3815994
-0.11158451 0.169103 0.63774502 3815994
-0.10751602 0.166739 0.63750947 3815994
-0.12002278 0.17400432 0.63673258 3815994
-0.11795149 0.17280234 0.63795006 3815994
-0.11440074 0.17073879 0.63740492 3815994
-0.12254005 0.17546815 0.63787872 3815994
-0.1885041 0.2137914 0.63722044 3815994
-0.1966961 0.21855137 0.63769394 3815994
-0.1925965 0.2161693 0.63745838 3815994
-0.20766859 0.22492637 0.63782758 3815994
-0.20356709 0.22254319 0.63759458 3815994
-0.19946671 0.22016065 0.63735384 3815994
-0.21595503 0.22973949 0.63682169 3815994
-0.21135433 0.22706719 0.6373809 3815994
-0.22324336 0.23397458 0.63740569 3815994
-0.21864536 0.23130387 0.63796818 3815994
-0.23238179 0.23928428 0.63776827 3815994
-0.22826852 0.23689425 0.63753265 3815994
-0.24061349 0.2440673 0.6382426 3815994
-0.23696625 0.2419471 0.63720614 3815994
-0.24702418 0.24779089 0.63745517 3815994
-0.24336304 0.24566434 0.63790196 3815994
-0.2570903 0.25363943 0.63770211 3815994
-0.25297156 0.25124621 0.63746917 3815994
-0.2662071 0.25893483 0.63658363 3815994
-0.26256439 0.25681901 0.63702917 3815994
-0.25982884 0.25523007 0.63736886 3815994
-0.276335 0.26482099 0.63831705 3815994
-0.27262932 0.26266685 0.63728034 3815994
-0.2681247 0.26005211 0.6393277 3815994
0.31054509 0.26347542 0.63645411 2235933
-0.28270236 0.26851943 0.63752949 3815994
-0.27899167 0.26636237 0.6364975 3815994
0.3129195 0.26756078 0.63661456 2235933
-0.29147226 0.2736159 0.63868988 3815994
-0.28814796 0.27168241 0.63685685 3815994
0.31636813 0.27349654 0.63662231 1841432
-0.29561636 0.27602386 0.63892633 3815994
0.36967844 -0.11049856 0.64145017 3815994
0.36335766 -0.10682503 0.64255053 3815994
0.3672035 -0.10905865 0.64319706 3815994
0.35316947 -0.10090534 0.64299387 3815994
0.35718226 -0.10323802 0.64186734 3815994
0.36018616 -0.10498179 0.64309496 3815994
0.34446216 -0.09584529 0.64406025 3815994
0.34784278 -0.097812079 0.64172906 3815994
0.35064507 -0.099436663 0.64474815 3815994
0.33760673 -0.091864064 0.64262295 3815994
0.34169382 -0.094240427 0.64104617 3815994
0.32685351 -0.085618019 0.64142483 3815994
0.33213374 -0.088684268 0.64269024 3815994
0.31899285 -0.08105056 0.64190459 3815994
0.3227953 -0.083258949 0.6425584 3815994
0.3126536 -0.077366799 0.64255923 3815994
0.31637967 -0.079530299 0.64365292 3815994
0.3023496 -0.071379296 0.64345092 3815994
0.30718371 -0.074188799 0.64262867 3815994
0.29318103 -0.066053696 0.64242589 3815994
0.29800889 -0.068859547 0.64160198 3815994
0.2840336 -0.060740381 0.64139843 3815994
0.2868984 -0.062403332 0.64263391 3815994
0.29012662 -0.064279556 0.64208061 3815994
0.27432251 -0.055096488 0.64304298 3815994
0.27756646 -0.056981802 0.64249867 3815994
0.2813257 -0.059165094 0.64314508 3815994
0.26731992 -0.051028207 0.64294195 3815994
0.2714828 -0.053448081 0.6418156 3815994
0.25847089 -0.045885846 0.6440081 3815994
0.26276225 -0.04838087 0.64243191 3815994
0.25180793 -0.042016424 0.64257103 3815994
0.25610515 -0.044514891 0.64099443 3815994
0.24236406 -0.036529344 0.64288175 3815994
0.24726281 -0.039376389 0.64205527 3815994
0.23329149 -0.031259518 0.64185286 3815994
0.23700629 -0.033417001 0.64250654 3815994
0.22440116 -0.026093159 0.64291537 3815994
0.22768672 -0.028002642 0.64237136 3815994
0.23044509 -0.029603777 0.64360088 3815994
0.21439612 -0.02028089 0.64247859 3815994
0.21740779 -0.022030238 0.6428144 3815994
0.22138663 -0.024342148 0.64257681 3815994
0.20741212 -0.016223431 0.64237404 3815994
0.21138513 -0.018531963 0.64213061 3815994
0.19840257 -0.01099023 0.64134669 3815994
0.20192766 -0.013036972 0.64244366 3815994
0.18847273 -0.0052192453 0.64299095 3815994
0.19246158 -0.0075369687 0.64275426 3815994
0.19644438 -0.0098511931 0.64250952 3815994
0.18247682 -0.0017365012 0.64230824 3815994
0.18649146 -0.0040667919 0.64415973 3815994
0.17849091 0.00057952211 0.64255404 4276545
0.12862653 0.02954977 0.64242673 3815994
0.13159314 0.027826607 0.64276242 3815994
0.12208743 0.033349629 0.64307618 3815994
0.12670657 0.03066415 0.64149714 3815994
0.11320665 0.038508024 0.64205021 3815994
0.11764295 0.035931207 0.64255965 3815994
0.10370156 0.044030689 0.64235687 3815994
0.10728722 0.04194824 0.64301157 3815994
0.094589561 0.049325842 0.64342105 3815994
0.097804047 0.04745625 0.64167404 3815994
0.10049972 0.045892935 0.64410758 3815994
0.08496929 0.054912128 0.64089125 3815994
0.087611079 0.053380109 0.64331996 3815994
0.092091419 0.050775785 0.64219224 3815994
0.078166075 0.058865961 0.64198971 3815994
0.081721857 0.05680085 0.64263505 3815994
0.068887554 0.064256459 0.64184994 3815994
0.072193712 0.062336914 0.64294863 3815994
0.06278345 0.067803666 0.64256066 3815994
0.065959767 0.065957062 0.64151239 3815994
0.057902902 0.07063853 0.64199233 3289658
-0.035426408 0.12486357 0.64392751 3815994
-0.031856097 0.12278725 0.6421777 3815994
-0.042310756 0.12886177 0.64262909 3815994
-0.037607912 0.12612817 0.64149523 3815994
-0.051573336 0.13424301 0.6424939 3815994
-0.048145272 0.13225211 0.64314032 3815994
-0.044542618 0.13015701 0.64139372 3815994
-0.060830865 0.13962132 0.64235389 3815994
-0.05675428 0.13725261 0.64211762 3815994
-0.067083515 0.14325483 0.64306575 3815994
-0.063692674 0.1412836 0.64201581 3815994
-0.077565089 0.149343 0.6418134 3815994
-0.0728058 0.1465786 0.64238143 3815994
-0.085733168 0.15408908 0.64229381 3815994
-0.081649631 0.15171632 0.6420505 3815994
-0.079633355 0.15054773 0.64448696 3815994
-0.092671126 0.15811981 0.64219302 3815994
-0.088210195 0.15552954 0.64346004 3815994
-0.10210606 0.16360258 0.64325672 3815994
-0.098656893 0.16159745 0.64220387 3815994
-0.11063232 0.16855499 0.64222664 3815994
-0.10779276 0.16690566 0.64257199 3815994
-0.1049517 0.16525544 0.6429106 3815994
-0.12136918 0.17479485 0.64387536 3815994
-0.11693891 0.17221983 0.6429382 3815994
-0.11346735 0.1702017 0.64188868 3815994
-0.12322591 0.17587075 0.64144349 3815994
-0.18809275 0.21355763 0.64169461 4275772
-0.19768071 0.21912929 0.64275765 3815994
-0.19261692 0.21618716 0.64263296 3815994
-0.20739113 0.22477037 0.64231735 3815994
-0.20274307 0.22207057 0.64288622 3815994
-0.1992441 0.22003478 0.64033324 3815994
-0.21566285 0.22957668 0.64279842 3815994
-0.21152338 0.22717144 0.64255917 3815994
-0.22258586 0.23359871 0.64269751 3815994
-0.21844544 0.23119292 0.6424529 3815994
-0.23227845 0.23922944 0.64225018 3815994
-0.22857852 0.23708038 0.64270842 3815994
-0.24056797 0.24404606 0.64273119 3815994
-0.23642285 0.24163754 0.64249468 3815994
-0.24794476 0.24833079 0.6418224 3815994
-0.24333683 0.24565431 0.64239275 3815994
-0.25716069 0.25368553 0.6421901 3815994
-0.25255764 0.25101188 0.64275879 3815994
-0.26546806 0.25851256 0.64267099 3815994
-0.2626732 0.25688741 0.64150763 3815994
-0.25994855 0.2553066 0.64335597 3815994
-0.27654073 0.26494575 0.64280671 3815994
-0.2723819 0.26252925 0.64257014 3815994
-0.26822332 0.26011288 0.64232558 3815994
-0.28386751 0.26920143 0.64189774 3815994
-0.27929097 0.26654318 0.64246821 3815994
-0.29219109 0.27403784 0.64237827 3815994
-0.28761852 0.27138191 0.64294958 3815994
-0.29687259 0.27675882 0.64331621 3815994
0.36927333 -0.11025697 0.64682072 3815994
0.37232795 -0.11203019 0.64807719 3815994
0.36221457 -0.10615607 0.6467185 3815994
0.36677653 -0.1088043 0.648597 3815994
0.35262483 -0.10058264 0.64839041 3815994
0.3574293 -0.10337491 0.64755702 3815994
0.3438434 -0.095479511 0.64947474 3815994
0.3472546 -0.097464107 0.64710426 3815994
0.33486623 -0.090268284 0.6457184 3815994
0.33762041 -0.091864862 0.6487782 3815994
0.34190822 -0.094359443 0.64582145 3815994
0.32844326 -0.086535342 0.6468336 3815994
0.33227938 -0.088763312 0.64748871 3815994
0.31816283 -0.08056207 0.64728278 3815994
0.3219963 -0.082788475 0.64794767 3815994
0.32522076 -0.084662497 0.64738518 3815994
0.30933887 -0.075434245 0.64836341 3815994
0.31199044 -0.076976806 0.64658952 3815994
0.31552538 -0.07902769 0.64906055 3815994
0.3031635 -0.071847253 0.64766932 3815994
0.30714008 -0.074157864 0.64743048 3815994
0.29303277 -0.065961994 0.64722455 3815994
0.29700348 -0.068269186 0.6469751 3815994
0.28381836 -0.060609777 0.64617896 3815994
0.28724128 -0.062595561 0.64864832 3815994
0.29085883 -0.06470006 0.646281 3815994
0.27495226 -0.055457462 0.64725596 3815994
0.27802303 -0.057241134 0.64760673 3815994
0.28109124 -0.059023321 0.64795065 3815994
0.26790369 -0.051362466 0.64715362 3815994
0.27168474 -0.053558439 0.64781815 3815994
0.25806347 -0.045643531 0.64882773 3815994
0.26178631 -0.047809187 0.64646053 3815994
0.26512876 -0.04974822 0.64893067 3815994
0.24888614 -0.040312849 0.64778984 3815994
0.25287732 -0.04263195 0.64753985 3815994
0.25661394 -0.044805609 0.64518064 3815994
0.24285524 -0.036808986 0.64779812 3815994
0.24677472 -0.039087247 0.64684463 3815994
0.23409283 -0.031718787 0.64726883 3815994
0.23783591 -0.033892695 0.64792484 3815994
0.22373989 -0.025703389 0.64771867 3815994
0.22774675 -0.02803158 0.64747739 3815994
0.23078765 -0.029797899 0.64782119 3815994
0.21475227 -0.020480461 0.64880079 3815994
0.21766454 -0.022174517 0.64702439 3815994
0.22070193 -0.023938777 0.64737773 3815994
0.20730765 -0.0161568 0.64748269 3815994
0.2120019 -0.01888399 0.64755136 3815994
0.19860142 -0.011098422 0.64766037 3815994
0.20261121 -0.013428328 0.64741057 3815994
0.18854003 -0.005253437 0.64720327 3815994
0.19257109 -0.0075948816 0.64766866 3815994
0.19656381 -0.0099156816 0.64671558 3815994
0.18301466 -0.0020432107 0.64727765 3815994
0.18654586 -0.0040934831 0.64838749 3815994
0.12813871 0.029840522 0.6487478 3815994
0.13128789 0.028008843 0.64697182 3815994
0.12215378 0.033316869 0.64805287 3815994
0.1261995 0.030966086 0.64781368 3815994
0.11278088 0.038762212 0.64791888 3815994
0.11724646 0.036166437 0.64676619 3815994
0.10321397 0.044318851 0.64656079 3815994
0.10702267 0.042108238 0.64843845 3815994
0.11023007 0.040242728 0.64666295 3815994
0.094041429 0.049649201 0.64763904 3815994
0.098094113 0.047294378 0.64739889 3815994
0.087017298 0.053729992 0.64753658 3815994
0.091073915 0.051372871 0.64729536 3815994
