# .PCD v0.7 - Point Cloud Data file format
VERSION 0.7
FIELDS x y z rgb
SIZE 4 4 4 4
TYPE F F F U
COUNT 1 1 1 1
WIDTH 1114
HEIGHT 1
VIEWPOINT 0 0 0 1 0 0 0
POINTS 1114
DATA ascii
0.052644175 0.091980621 0.21698917 3092271
0.057531133 0.091971621 0.21696797 3092271
0.06241712 0.091962606 0.21694666 3092271
0.067497529 0.091953233 0.21692461 3092271
0.07257694 0.09194389 0.21690251 3092271
0.077655278 0.091934517 0.21688046 3092271
0.082537346 0.091925517 0.21685928 3092271
0.087418415 0.091916531 0.21683797 3092271
0.092493773 0.091907166 0.2168159 3092271
0.097407252 0.091761671 0.21679434 3026478
0.10155669 0.090781949 0.216775 3157807
-0.031674936 -0.0058064465 0.39959109 723769
-0.027506448 -0.0066254768 0.39918962 657984
-0.022737134 -0.0070117973 0.39916027 789565
-0.018437609 -0.0066268528 0.39949128 1315647
-0.035997044 -0.0012876651 0.39969254 526393
-0.032637913 -0.0024420856 0.39876896 657466
-0.027632656 -0.0025131737 0.39789531 1118013
-0.022619769 -0.002514096 0.39810616 1315387
-0.017627547 -0.0025193049 0.39889994 1512767
-0.014109498 -0.0015967021 0.39967269 2105408
-0.036457554 0.002554965 0.39950266 1249601
-0.032696545 0.0025151663 0.39836639 1381185
-0.027606741 0.0025096822 0.3975178 1447229
-0.022587707 0.0025093199 0.39753893 2236735
-0.017593596 0.0025128184 0.39812389 2763326
-0.012890022 0.0027593237 0.39914584 3487297
-0.0097366692 0.0043273182 0.39984006 3092541
-0.036152694 0.0070555978 0.39970472 1644357
-0.032718375 0.0075504039 0.39863002 1907779
-0.027610257 0.0075299735 0.39756545 2368831
-0.022570334 0.0075232671 0.39722636 3618623
-0.017569095 0.0075293793 0.39756498 2105148
-0.012574145 0.0075443629 0.39837241 3553088
-0.0084908502 0.0080277771 0.39942631 2960703
-0.035708878 0.010460177 0.39992696 1841733
-0.032578271 0.012453674 0.39906719 3684418
-0.027627213 0.012557726 0.39780465 3552832
-0.022565708 0.012536327 0.39713821 3224126
-0.017551251 0.012536506 0.39715499 2828863
-0.012553413 0.012553593 0.39770418 3421247
-0.0075959824 0.012631495 0.3987577 3092031
-0.0042851204 0.013736363 0.39964211 1973823
-0.031563129 0.017214991 0.399454 2302021
-0.027661253 0.017602339 0.398289 3618625
-0.022571968 0.017555624 0.39724168 3684415
-0.017540498 0.01754033 0.3969042 2631487
-0.01253761 0.017552951 0.3971962 2631487
-0.0075359982 0.017585687 0.39794323 3618878
-0.0029434143 0.017934663 0.39915273 3026241
-0.030646909 0.020912081 0.39976746 2302534
-0.027530527 0.022524264 0.39893803 3486787
-0.022590859 0.022590194 0.39756694 2697280
-0.017537758 0.022548104 0.39683345 2434366
-0.012525873 0.022546824 0.39681754 2170944
-0.0075245067 0.022575131 0.39731959 1973308
-0.002513417 0.02263253 0.39833656 1907773
0.0012871249 0.023314442 0.39946142 2368574
-0.026587775 0.027394781 0.39944494 3552580
-0.022624658 0.027651224 0.39815429 4013376
-0.017545786 0.027570972 0.39700505 2236479
-0.012518759 0.027541095 0.39658144 1775934
-0.0075158114 0.027559362 0.39684844 2302270
-0.0025088449 0.027608 0.39755315 3223611
0.0024277212 0.027773704 0.39884043 4211008
0.0056482796 0.02908214 0.39973852 4408129
-0.025786255 0.031195983 0.39987203 2565191
-0.022578126 0.03266729 0.39894927 2104645
-0.017565697 0.032620266 0.39744577 1907522
-0.012518997 0.032548171 0.39657301 2499901
-0.0075093098 0.032541238 0.39649382 3092030
-0.0025054838 0.032579254 0.39695945 4210750
0.0025134308 0.032657493 0.39791733 3882045
0.0069651483 0.033132803 0.39919347 3487550
-0.021662535 0.037137166 0.39943057 3552582
-0.017596517 0.037704092 0.39813426 2367811
-0.012528206 0.037582085 0.39684987 1710143
-0.0075059379 0.037529167 0.39629656 3157823
-0.0025028593 0.03754992 0.39651921 4013630
0.0025083167 0.037610605 0.39716268 3488061
0.0075461343 0.037721567 0.39833882 3224890
0.011127125 0.038381692 0.39948684 3026741
-0.020730287 0.040559247 0.39973864 4407879
-0.017428685 0.042559911 0.39888 2499397
-0.012545167 0.042649519 0.39737472 2104642
-0.0075079044 0.042541318 0.39637047 2368059
-0.0025011238 0.042522274 0.39619723 3224119
0.0025044142 0.042565316 0.39660096 3093048
0.0075280759 0.042651623 0.39740831 3026997
0.012439806 0.042763066 0.39887825 3487549
0.015747391 0.044116493 0.39984903 4014403
-0.016618354 0.047034398 0.39941618 2104902
-0.012489947 0.047654856 0.39803761 2565188
-0.0075146612 0.047586579 0.39670566 2368316
-0.0025008821 0.047514196 0.39610595 2697781
0.002501545 0.047523439 0.39618579 3355708
0.0075143334 0.047585092 0.3967022 2763566
0.012603193 0.047663685 0.39784068 3158580
0.016699068 0.047820829 0.39923403 4144958
-0.015685312 0.050661702 0.39979941 2236229
-0.012526195 0.05239848 0.39887884 2565698
-0.0075252983 0.052667685 0.39724746 3159092
-0.0025021781 0.052533895 0.39624116 2894647
0.0024999215 0.052498657 0.39597839 3289649
0.0075042089 0.052525658 0.39618438 3026481
0.012530648 0.052623283 0.39692372 3158064
0.017691372 0.052605625 0.39843339 3618612
0.021203419 0.053398062 0.39959207 4078908
-0.011557706 0.05688538 0.39940166 4211517
-0.0074434029 0.057595652 0.39796087 2894909
-0.002504996 0.057590973 0.39661065 3026487
0.0024994793 0.057497926 0.39597258 3487284
0.0074977777 0.057481367 0.39586118 3618615
0.012510257 0.057543356 0.39629021 3355440
0.017560333 0.057692781 0.39732155 3421489
0.022300381 0.057620775 0.39891973 3289651
0.025604719 0.059143201 0.39985391 4013884
-0.01045561 0.060570516 0.39975238 4080184
-0.0074699931 0.062230222 0.39883387 2960703
-0.0024640907 0.062642358 0.39716947 3947578
0.0025001671 0.062520608 0.396117 4210750
0.0074942573 0.062453169 0.39569172 4013628
0.012494961 0.062472481 0.395816 3289651
0.017526025 0.062588684 0.3965539 2763305
0.022691999 0.062584661 0.39790621 2763567
0.026746007 0.062760912 0.39933535 4276543
-0.006342974 0.066917069 0.39936298 3421247
-0.0024821481 0.067525618 0.39791271 4408128
0.0025019504 0.067584127 0.396478 4276543
0.0074938773 0.067449629 0.39569122 4013371
0.012483441 0.067409866 0.39546043 3553337
0.017495362 0.067478411 0.39586487 2829617
0.022550497 0.067646585 0.39685315 2566185
0.027547913 0.067460552 0.39844128 3750199
0.03114141 0.068553627 0.39963323 3947834
-0.0054090396 0.070678204 0.39982373 3881783
-0.0024193255 0.072250105 0.39882332 4407872
0.00258135 0.072600462 0.39703283 4276285
0.0074981656 0.072491303 0.39593816 3947834
0.012479638 0.072383933 0.39535356 3289909
0.017473033 0.07238631 0.3953687 3026741
0.022505386 0.072513558 0.39606526 2829360
0.027676711 0.072576597 0.39731705 2697515
0.031900607 0.072518557 0.39898536 3158063
-0.0012869507 0.076821372 0.39935371 3881788
0.0025099011 0.077510014 0.39786953 4144956
0.0075061736 0.077576339 0.39637488 4079420
0.012484022 0.077405378 0.39550275 3816250
0.017464435 0.07734222 0.39518142 3224633
0.022483632 0.077440239 0.39568236 2764337
-0.0003606212 0.080418527 0.39984432 4013374
0.0027091322 0.08228422 0.39882335 4342336
0.0075939875 0.082620926 0.39700374 4145213
0.012497334 0.082488097 0.39592752 3815992
0.0039614639 0.086413756 0.39934534 4342335
0.0075087664 0.087491997 0.39828736 3553076
-0.03688053 -0.016412828 0.40439487 3882820
-0.032657877 -0.017036427 0.40458536 2763323
-0.028044775 -0.016121203 0.40470362 657721
-0.022633301 -0.01569741 0.40476155 855609
-0.041057069 -0.01277689 0.40476447 3026748
-0.037547577 -0.012758736 0.40418166 1710392
-0.032389905 -0.012739725 0.40350452 592184
-0.027336758 -0.012794215 0.40275863 921144
-0.022505563 -0.012709296 0.40248764 1250106
-0.017755115 -0.012594186 0.40286031 789309
-0.013176012 -0.011846878 0.40391886 1184071
-0.04106316 -0.0069316463 0.40444642 460342
-0.037417959 -0.007630968 0.40276462 855350
-0.032610279 -0.0081567317 0.40110281 1447736
-0.027943989 -0.0090317391 0.40054348 1447225
-0.022548564 -0.0094855884 0.40030518 526397
-0.01701016 -0.008422778 0.40063852 1184064
-0.012694088 -0.0076199831 0.40222004 2302536
-0.0086443443 -0.0070132231 0.40411019 3947594
-0.042098209 -0.0023234799 0.40334523 855094
-0.03783584 -0.002833961 0.40100434 1184312
-0.034994535 -0.0039684521 0.40000752 788792
-0.012054441 -0.0029036384 0.40089235 3552838
-0.007675569 -0.00250042 0.40299669 2894665
-0.0043365415 -0.0014190634 0.40444252 3289165
-0.045614835 0.0032838646 0.4046092 460089
-0.042489752 0.0025413791 0.40262616 591930
-0.038680881 0.0024917528 0.40044451 986687
-0.010881112 0.0010827958 0.40025264 4342597
-0.0075085512 0.0024560168 0.40144202 2631494
-0.003025695 0.0028541537 0.40367189 3289419
-0.045883298 0.0075312704 0.40463439 2039364
-0.042487379 0.0076259556 0.40260834 2236743
-0.038248647 0.0078460602 0.40061498 1841734
-0.0063481643 0.0069673969 0.40060112 4079174
-0.0025369681 0.0076171868 0.40226755 3158087
0.0011345386 0.0083019761 0.40416703 4539723
-0.042169116 0.012479777 0.40339288 3157831
-0.03754985 0.012797083 0.40111315 2368326
-0.034633659 0.014069924 0.40000629 4210755
-0.005411969 0.01046314 0.40004027 4342600
-0.0021321361 0.012403229 0.40096942 3026245
0.0023700795 0.012870701 0.4031671 4013129
0.0056566736 0.014415012 0.40463603 3749455
-0.041143522 0.017036229 0.40417573 3750215
-0.037257139 0.017627068 0.40205079 3816262
-0.033548642 0.018228728 0.40042311 3618629
-0.00086645468 0.016537774 0.40036798 2697283
0.0025380396 0.017746774 0.40160778 2104905
0.0065567042 0.017900277 0.40380812 3683919
-0.040531855 0.020083351 0.40486774 3749961
-0.037268396 0.022156851 0.40342316 4079175
-0.032570094 0.022766417 0.40099832 3750213
-0.029771997 0.024358952 0.40012246 3947589
0.0034595467 0.022300759 0.40066981 2434114
0.007524827 0.022502489 0.40273067 3157827
0.010822895 0.023590736 0.40449175 3290935
-0.035998769 0.026703576 0.40418983 3157833
-0.032479361 0.027519589 0.40222698 3354951
-0.028742608 0.027850389 0.40041777 3355206
0.0046919598 0.025986154 0.40017563 4210749
0.0078757796 0.027334876 0.40127814 3487028
0.012058842 0.027720341 0.40361977 3881785
-0.031901136 0.032071918 0.40335906 3158088
-0.027770568 0.032557532 0.40108839 2631239
-0.024901124 0.034284156 0.40013775 2104648
0.0091213118 0.03169689 0.40051639 2894899
0.012701198 0.032287739 0.40226614 3750462
0.016351851 0.033379003 0.40416893 4539972
-0.030749356 0.036705256 0.40427101 2433610
-0.027585246 0.037383638 0.40240437 2368073
-0.024063203 0.037828721 0.40059862 3684423
0.01325688 0.036872778 0.40093768 3750978
0.017359573 0.037530258 0.40304345 4605766
0.020308396 0.038913626 0.4044998 4803150
-0.026741149 0.042260628 0.40352643 2828362
-0.022660773 0.042434506 0.40107325 4013128
-0.019848071 0.04402671 0.40012467 3289415
0.014513791 0.040652618 0.40030542 3882820
0.017776906 0.042312864 0.4014616 4474438
0.021875555 0.042922158 0.40377423 4342600
-0.025570337 0.046642654 0.40437558 2434121
-0.022465484 0.047504205 0.40250388 2367816
-0.018929165 0.047769889 0.40058917 2236486
0.019004408 0.046714343 0.40058845 4539714
0.02249518 0.047523126 0.40224633 4079163
0.025923416 0.048610177 0.4041099 4671301
-0.021726968 0.052220535 0.4037194 3157833
-0.01782419 0.052557673 0.40136892 2302278
-0.01480036 0.054147743 0.40024704 2302021
0.023061601 0.052134734 0.40083897 3552823
0.027238928 0.052774884 0.403164 3881785
0.030294033 0.054383263 0.40468645 4671557
-0.020518038 0.056264952 0.40443599 3947081
-0.017360095 0.057521883 0.40271151 2894918
-0.013795224 0.057949524 0.40073839 4145471
0.024499241 0.055960882 0.4003078 4210752
0.027610868 0.057479344 0.40146708 4342592
0.031263638 0.05789369 0.40372708 4868679
-0.016671821 0.062018447 0.4039228 4145473
-0.012676642 0.062580518 0.40149763 4277307
-0.0095656132 0.064071283 0.40022469 2960704
0.028818173 0.062050335 0.40051684 4473922
0.032450296 0.062486976 0.40253368 4539714
0.035838697 0.063742697 0.40444139 4802887
-0.015697539 0.065710783 0.40476483 4211516
-0.012538734 0.067265645 0.40302905 3421499
-0.0086769182 0.067991182 0.40082228 3026239
0.029946582 0.065305196 0.40004501 4144955
0.033004645 0.067200117 0.4010514 4342335
0.036759019 0.067721643 0.40329626 4671301
-0.011336965 0.071864836 0.40401211 3816257
-0.0076286737 0.072650135 0.40170252 3749943
-0.0045131501 0.074195214 0.40031597 3684148
0.034139484 0.072169989 0.40032169 3618869
-0.13146923 0.078535177 0.40461543 5788493
-0.12776327 0.078149006 0.40448591 5855576
-0.12452792 0.079975404 0.40490395 6513250
-0.0073144929 0.077311456 0.40323564 3881786
-0.0033993775 0.077986762 0.40083814 3947578
-0.13057713 0.080926247 0.4047884 6443331
-0.12705472 0.082173862 0.40398917 6511187
-0.12304506 0.083270714 0.40420365 6250335
-0.005953481 0.081887536 0.40412331 3355441
-0.0026420206 0.082479104 0.40195221 3618357
0.00060179207 0.084021501 0.40040007 4210751
-0.12582691 0.087452076 0.40457845 6574661
-0.1222832 0.087498225 0.40346727 6710370
-0.11834216 0.087888092 0.40426144 4342338
-0.0020295137 0.087162472 0.40339562 3289648
0.0019756008 0.087947503 0.40106618 4079164
-0.12535319 0.091039933 0.40473849 6574403
-0.12233063 0.092463262 0.40383565 6972252
-0.11772141 0.092300467 0.40399697 3881787
-0.00099034398 0.091128103 0.40438962 2236709
-0.12199962 0.097185723 0.40418658 7038559
-0.1176542 0.097342148 0.4042334 5789527
-0.1128007 0.097620763 0.40458217 3881787
-0.10990862 0.098954141 0.40486002 3355443
-0.12077747 0.10122001 0.40457383 6972509
-0.11739288 0.10217748 0.40390515 6709596
-0.11261672 0.10241202 0.40409732 5329233
-0.10891635 0.10304429 0.4046278 2171169
-0.11647511 0.10736091 0.4042027 7103323
-0.1126277 0.10752583 0.40413758 6249819
-0.10819095 0.10757379 0.40474051 3026478
-0.11600439 0.11153562 0.40446976 7168601
-0.11267936 0.11267983 0.40432194 6445395
-0.1077592 0.11288489 0.40472448 3355443
-0.10382108 0.11317754 0.404681 2368548
-0.11203502 0.11749432 0.40432569 6509640
-0.10753747 0.11774322 0.404181 6052698
-0.10304801 0.11780751 0.40419835 6579299
-0.11172053 0.12066539 0.40480962 6640711
-0.10705141 0.12090397 0.40418199 6641999
-0.10236937 0.12249795 0.40405172 6446682
-0.099039353 0.12331266 0.4047111 5592403
-0.10243758 0.1274288 0.40438452 5854028
-0.098806165 0.12771462 0.40479773 4606024
-0.10214211 0.13205768 0.40450561 3749946
-0.098314591 0.1326362 0.40455604 136747
-0.098605148 0.13583641 0.40471157 70697
-0.031205265 -0.020356683 0.40546128 3882825
-0.027161924 -0.021468375 0.40663919 4145479
-0.022896152 -0.022161644 0.40879682 2763331
-0.018847408 -0.020325899 0.40975738 460090
-0.041424219 -0.015030026 0.40645787 7369595
-0.037650008 -0.0171801 0.40529153 4935516
-0.031633243 -0.01904466 0.40520939 4342603
-0.027169857 -0.018122708 0.40564793 1381180
-0.022312978 -0.017914552 0.40669596 657723
-0.01735818 -0.017546467 0.40734392 1315899
-0.012670329 -0.016530043 0.40784714 657725
-0.0091390423 -0.015697666 0.40898418 723522
-0.04624692 -0.011169444 0.40665379 4145996
-0.043107554 -0.011904321 0.40542978 3355971
-0.015710065 -0.014979364 0.40508783 789053
-0.012071186 -0.013744614 0.40560982 920900
-0.0078635048 -0.012371617 0.40738365 3684430
-0.0045046071 -0.011299293 0.40940818 4144974
-0.050593995 -0.008124317 0.40946624 3750978
-0.047449626 -0.0077223824 0.40780771 2499902
-0.043082513 -0.0080513898 0.40579101 723511
-0.0066514765 -0.0083624013 0.40601885 4079182
-0.0033568451 -0.0073637003 0.40814671 3486798
-0.047378071 -0.0025926193 0.40766245 460085
-0.044445969 -0.0031863402 0.40535989 526132
-0.0054799523 -0.004749292 0.40506545 3881551
-0.0021617585 -0.0028265533 0.40679851 3158094
0.0010546193 -0.0016346601 0.4090305 3026511
-0.050624169 0.0036949501 0.40971044 394550
-0.047969278 0.0024694991 0.40698367 328760
-0.00089791027 0.0014964415 0.40575913 2565710
0.0022799568 0.002818028 0.40776071 4211022
0.0055414061 0.0048025521 0.40960798 4473933
-0.050602324 0.0077568283 0.40953365 591930
-0.04826251 0.0077537443 0.40686271 1249856
0.0033953886 0.0073179705 0.40642586 3881806
0.0065753795 0.0082318867 0.40874383 3684430
-0.047537725 0.012451891 0.40744448 3552584
-0.044467177 0.013522883 0.40523437 3223881
0.0045706383 0.011151884 0.40541416 4473934
0.0077021173 0.012558868 0.40745422 3157838
0.010710292 0.014033988 0.40948969 2302543
-0.046413817 0.016917191 0.4084149 2762824
-0.043355796 0.017782394 0.40612316 3486793
0.0090289302 0.016855195 0.40631172 2697549
0.011887785 0.017780188 0.40853286 3157837
-0.045677435 0.020560883 0.40953049 1841989
-0.0425044 0.022300281 0.40747803 3881543
-0.039453804 0.023776816 0.40557942 3157834
0.0098672789 0.020465301 0.40520358 3817281
0.012744868 0.022159846 0.40689847 3356225
0.015809672 0.023449237 0.40899962 2894920
-0.041166835 0.027088264 0.40862244 3947589
-0.038180925 0.027784254 0.40631697 3684169
0.01386768 0.02650382 0.40559551 3816507
0.017084394 0.027744457 0.40773305 3026507
0.020324208 0.029562268 0.40972325 2499660
-0.040277351 0.030669909 0.40970764 4210754
-0.037226226 0.032358173 0.40768331 2630984
-0.034226552 0.03362805 0.40567189 3223370
0.018164221 0.03213679 0.40624613 3947591
0.021224847 0.033107024 0.40848014 2565708
-0.036093257 0.037077595 0.40905002 2960197
-0.033014722 0.037743974 0.4065544 2828362
0.019373924 0.035823315 0.40530446 4539977
0.022564776 0.037442729 0.40722662 3026252
0.025654763 0.038943075 0.40928057 4144973
-0.035126403 0.040302925 0.40996778 1907268
-0.032058191 0.0421861 0.40790892 2565192
-0.028977877 0.043416213 0.4057619 2499659
0.023895666 0.041654669 0.40603846 3092043
0.026780842 0.042769834 0.40808132 3092043
-0.031041013 0.046113152 0.40902638 3420740
-0.028059294 0.047649857 0.40702155 2367817
0.028092474 0.047004923 0.40682799 3750217
0.031239618 0.048545752 0.408972 2434122
-0.026656389 0.05215304 0.40803364 2170439
-0.023845894 0.053182796 0.4059172 3289419
0.029216159 0.050853044 0.40564361 4145216
0.032208525 0.052661519 0.40740755 4013635
0.035070714 0.05426671 0.40931782 4539460
-0.02565923 0.056302615 0.40935096 1907524
-0.022666106 0.057708189 0.40711033 2894152
0.033774521 0.057040725 0.40629408 4605508
0.036604058 0.058033913 0.40850568 4145213
-0.021358859 0.062164482 0.40827787 2499396
-0.018587746 0.062955812 0.40596566 3487295
0.034726277 0.060314059 0.40529785 4605764
0.037797049 0.062308729 0.40706715 4342336
0.040639352 0.063830651 0.40909609 4342336
-0.13564111 0.069853321 0.40979338 5935
-0.13215491 0.069138765 0.40906712 5935
-0.12731868 0.068372101 0.40864685 859953
-0.12342115 0.069278382 0.40931001 6051151
-0.020559194 0.065616161 0.40949097 3092285
-0.017488835 0.067522466 0.40740213 3355961
-0.014621882 0.068723358 0.40530726 3684670
0.039267 0.067076303 0.40572643 4605764
0.041586891 0.067485638 0.40803665 3815991
-0.14004041 0.073530324 0.40968856 5418
-0.13722272 0.072618045 0.4082647 5420
-0.13242543 0.07237418 0.40672493 1385523
-0.12747176 0.072482862 0.40626904 5394251
-0.12247467 0.072488025 0.40799159 5329231
-0.11895198 0.073779605 0.40928036 6250334
-0.016103376 0.072036773 0.40854707 2434343
-0.013266312 0.07306771 0.40628996 3619134
-0.14001337 0.079427108 0.40960947 268075
-0.13747442 0.07732112 0.40748861 990766
-0.13309246 0.076642245 0.40544754 5196615
-0.12629108 0.076417916 0.40540707 5132109
-0.12254113 0.077285662 0.40648627 5855577
-0.1177122 0.077896811 0.40829301 6579300
-0.11437854 0.078919947 0.40953448 4737096
-0.015149673 0.075748362 0.40969348 2961461
-0.012295419 0.077317141 0.4076108 3289916
-0.0096347732 0.078541063 0.4056662 2828845
-0.14012723 0.080231152 0.40994254 4472379
-0.13706315 0.082336612 0.40856063 6508610
-0.13267583 0.082608104 0.4065088 6508611
-0.12919541 0.083863541 0.40534011 6574403
-0.12153287 0.081306353 0.40547243 6579300
-0.11753336 0.082455061 0.40674511 6184542
-0.11318468 0.082700178 0.40872547 4934475
-0.011369498 0.081527285 0.40902364 2104876
-0.0083910041 0.0827168 0.40667766 2631466
-0.13606197 0.085823722 0.40957609 6574403
-0.13248155 0.087353162 0.40835798 6574403
-0.12826261 0.087696165 0.4061271 6574403
-0.11619148 0.086694978 0.40542784 5131854
-0.11238197 0.08746881 0.40724182 4868682
-0.10873003 0.08827357 0.40919617 4408131
-0.0070669437 0.087112717 0.40777737 3355442
-0.0042467057 0.088658825 0.40586782 3355441
-0.13182086 0.092341565 0.40909216 6574403
-0.12777373 0.09272185 0.40644351 6574403
-0.12457533 0.094618797 0.40505812 6574403
-0.11535299 0.09318389 0.40517247 2894892
-0.11234715 0.092585556 0.40575799 3552822
-0.10765699 0.092566192 0.40815353 5066061
-0.10456038 0.094214916 0.40965703 4868682
-0.0059950766 0.091209091 0.40901488 3749942
-0.0029621611 0.092721403 0.4069474 2236964
-0.13101812 0.096473701 0.40920624 7167829
-0.1275413 0.097314358 0.40688413 7432032
-0.12430254 0.098053135 0.40535975 7168601
-0.11088087 0.095531873 0.40521187 1776411
-0.10745884 0.097418696 0.40660617 3947580
-0.10366783 0.09793973 0.40886223 4802889
-0.12650493 0.10218185 0.40802446 6706504
-0.12285615 0.10279056 0.40628347 6574917
-0.11950245 0.10451909 0.40519935 6574403
-0.10653362 0.10224286 0.4058398 3947580
-0.10246673 0.10256418 0.40809113 4671303
-0.099174596 0.10434904 0.40979442 3158064
-0.1258945 0.10651261 0.40934789 6574403
-0.12241163 0.10726285 0.4072904 6574403
-0.11903302 0.10776617 0.40559074 6574403
-0.10573295 0.10792501 0.40514144 1513239
-0.10262452 0.10752115 0.40637007 3947580
-0.098550849 0.10778136 0.40890583 5197647
-0.12160659 0.11202233 0.40873823 6706247
-0.11814485 0.11269393 0.40642768 6640711
-0.10594115 0.11069027 0.40504801 394758
-0.10148414 0.11219542 0.40588769 5066061
-0.097554013 0.11252896 0.4081184 5855577
-0.09466809 0.11369392 0.40961879 6447714
-0.12091279 0.11573609 0.4099814 7828077
-0.11744355 0.11723366 0.40723613 6772298
-0.11427393 0.11902775 0.405449 6574403
-0.10086544 0.11679684 0.40541434 6513507
-0.097607389 0.11756629 0.40708843 4539717
-0.093635261 0.11786167 0.40913084 5855832
-0.11632469 0.12166801 0.40858296 6574403
-0.11264939 0.12294286 0.40751019 6574403
-0.10771012 0.12327442 0.40608642 6574403
-0.09691906 0.12208609 0.40600681 5921625
-0.092615709 0.12271211 0.40823045 4737868
-0.089267932 0.12399017 0.40956154 268590
-0.11174453 0.12721197 0.40910929 6574403
-0.10755369 0.12742028 0.40667683 6574403
-0.096520439 0.12733625 0.40531862 3028541
-0.092473552 0.12751727 0.40702984 136747
-0.088362493 0.12761091 0.40889892 5419
-0.11081878 0.13216974 0.40911672 6640196
-0.10738772 0.13245139 0.40661177 5654848
-0.10397094 0.13394557 0.40530163 1910320
-0.096054107 0.13236386 0.40529203 5418
-0.092678979 0.13239825 0.40629545 5419
-0.088058367 0.13261908 0.40838149 334126
-0.10701443 0.13715392 0.40830508 3552567
-0.10256918 0.13765189 0.4067899 662316
-0.097469322 0.13789572 0.40598166 5161
-0.092670403 0.13727942 0.40766332 5161
-0.088306256 0.13616525 0.40914619 202539
-0.10546687 0.14111456 0.40958953 5161
-0.102184 0.14206773 0.40789622 5161
-0.097702719 0.14122057 0.40807322 5161
-0.093815364 0.14053918 0.40952718 5161
-0.10231262 0.14515834 0.4095332 5161
-0.021295389 -0.025878355 0.41185316 3883083
-0.018787444 -0.026088104 0.413876 4343116
-0.020813528 -0.023629004 0.41063324 3355462
-0.017625069 -0.022529297 0.41223314 1315391
-0.01296272 -0.02117236 0.41364047 460348
-0.015540219 -0.019610461 0.41025284 526138
-0.011826198 -0.019111101 0.41143632 526140
-0.0075258659 -0.017351329 0.41228098 789315
-0.0041048555 -0.016050423 0.41384429 2632014
-0.0057975352 -0.014185944 0.41031566 3684944
-0.0025558348 -0.012365918 0.41242835 3487055
0.0003739192 -0.010470023 0.41458869 2434129
-0.052684959 -0.0066813249 0.41161242 3159359
-0.0011113759 -0.0081566246 0.41104177 2697295
0.0013160039 -0.0070442064 0.41329065 2237009
-0.05245062 -0.0028541647 0.41278082 1381178
-0.049953587 -0.0033305131 0.41027269 657721
0.0030369109 -0.0028193747 0.41222593 2960720
0.0057922164 -0.00093469582 0.41432571 3881808
-0.052256022 0.0024172927 0.41236308 394549
0.0043933121 0.001110984 0.41078028 3816015
0.0069388407 0.0029750222 0.41254613 4605518
-0.05240725 0.0074335658 0.41209567 394807
0.0084915925 0.007128919 0.41129741 4342348
0.010700705 0.0080594094 0.4134773 4802893
-0.051911708 0.012275061 0.4124054 1118014
-0.049948994 0.0133199 0.41023493 2236485
0.0099941799 0.011104436 0.41041484 3618382
0.012273341 0.012409039 0.41228175 3025998
0.01534276 0.014594333 0.41491517 2565712
-0.050814327 0.016649606 0.41325554 1907775
-0.048717134 0.018096413 0.41154242 3750208
0.013772344 0.016589005 0.41120654 3421007
0.016170619 0.018142123 0.41308603 2828878
-0.047228571 0.022340782 0.41256186 2828863
-0.044624947 0.024256976 0.41060936 2236228
0.017897598 0.022448877 0.41197699 2433871
0.020540727 0.024274508 0.41408816 2565712
-0.045747817 0.026752558 0.41388029 2236220
-0.043349542 0.0279644 0.4115735 2894401
0.019210028 0.026300326 0.41072342 2236749
0.02165029 0.027787365 0.41266045 3158095
-0.041797563 0.032185491 0.4126443 2236479
-0.039462771 0.033904862 0.41084307 1907012
0.023551313 0.03202774 0.41174403 3223374
0.025924185 0.033388939 0.41390887 2631504
-0.040734045 0.036249589 0.41435111 1710652
-0.03821303 0.03767743 0.41197246 2631488
0.02455554 0.035413895 0.41044334 2565197
0.027368955 0.037702098 0.41226813 3618382
-0.036239002 0.042195063 0.41271698 1709886
-0.03399498 0.043628749 0.41081408 2762820
0.028972426 0.041943435 0.4109613 2828877
0.03103484 0.042912092 0.4130013 2565454
-0.035508435 0.045600709 0.41442659 1446715
-0.032807123 0.047549699 0.4121536 2499648
-0.029971696 0.049952827 0.41026643 1644611
0.033061728 0.047239877 0.41219965 3355213
0.035747707 0.0494483 0.414307 3947342
-0.031010821 0.051961906 0.41307542 1710141
-0.028780932 0.053481698 0.41121835 1775936
0.0342036 0.050872188 0.41072479 2565706
0.0366611 0.052821655 0.41256905 2894922
-0.027403157 0.057461604 0.41226625 1841725
-0.024802674 0.059600454 0.41045293 1775681
0.038656253 0.05710876 0.41171432 4079428
0.040779449 0.058581624 0.41372856 3816009
-0.13579711 0.064718738 0.41478553 137520
-0.13242362 0.064271636 0.41413131 5934
-0.12717311 0.064218871 0.41318125 5935
-0.12311965 0.06439928 0.41417614 5935
-0.026197825 0.061799806 0.413771 1381178
-0.023808809 0.062830508 0.41143996 1578557
0.039601825 0.060328018 0.41036576 4210750
0.042103849 0.062436081 0.41226533 4539718
-0.14050338 0.069319338 0.41322356 5676
-0.13728556 0.067801446 0.41251507 5934
-0.1327185 0.066711061 0.41198495 5934
-0.12753831 0.065942243 0.41118324 5934
-0.12218081 0.067032523 0.41166759 2896957
-0.1179956 0.068347469 0.41312656 5920852
-0.11478034 0.069915064 0.41454226 4868937
-0.022048524 0.067378007 0.41255257 2302521
-0.019373005 0.069224402 0.41044673 2895410
0.043763731 0.066942267 0.41147959 3618612
-0.14172676 0.072877288 0.41262373 5419
-0.13925573 0.070368193 0.41064313 5678
-0.12018684 0.070632882 0.41002774 5789780
-0.11701228 0.07209532 0.41176987 6052955
-0.11416133 0.073670186 0.4140422 5921369
-0.020823846 0.071128413 0.41376811 2368563
-0.018501535 0.072848015 0.41188639 2303018
-0.14218181 0.077432118 0.41182971 70954
-0.11591689 0.075919583 0.4106226 6645093
-0.1121752 0.077333502 0.41242874 5723733
-0.1096146 0.079685695 0.41480163 4802889
-0.016598884 0.076994501 0.41240978 2631987
-0.014264348 0.079101779 0.41079575 2895161
-0.14148611 0.082435712 0.41264454 5457470
-0.13914841 0.083637111 0.41032678 6574403
-0.11081932 0.081548207 0.41111195 3881787
-0.10832919 0.08306922 0.41276842 4868682
-0.015494416 0.080831602 0.4139612 2302514
-0.01293264 0.082836516 0.41186699 1973552
-0.14052172 0.086777747 0.41382676 6574403
-0.13749239 0.087881833 0.4112888 6574403
-0.13428321 0.089892074 0.41016141 6574403
-0.10661016 0.087144345 0.41159904 4342338
-0.10432604 0.08852423 0.41385996 4868682
-0.011175788 0.08725287 0.41298941 2368302
-0.0089846626 0.088363275 0.41078988 3026221
-0.13642833 0.091902703 0.4121685 6574403
-0.13406558 0.092681907 0.41050142 6574403
-0.10544289 0.091013759 0.41021556 3881787
-0.10267805 0.092532888 0.41236007 5197647
-0.099495128 0.093963221 0.41441375 6314323
-0.010089839 0.090808548 0.41434312 2236960
-0.0076146801 0.092720076 0.41215286 3158062
-0.13597859 0.095632762 0.41419786 6772297
-0.13288245 0.097675763 0.41197857 7432032
-0.101402 0.097003825 0.4111141 4210752
-0.098550402 0.09789031 0.41323802 5395025
-0.1315776 0.10183208 0.41327924 6706505
-0.12911709 0.10316433 0.41108406 6640453
-0.10044143 0.10081136 0.41018811 4342338
-0.097378328 0.10248297 0.41205585 4342338
-0.09446381 0.10432091 0.41398811 4079164
-0.13073629 0.10581014 0.41455373 6574403
-0.12777327 0.10759716 0.41222945 6574403
-0.12469321 0.10989284 0.41025379 6574403
-0.096131109 0.10715604 0.41077384 3355443
-0.093637027 0.10757627 0.41281837 5395026
-0.12610868 0.11194114 0.4133749 6640454
-0.12350915 0.11356904 0.41123676 6772298
-0.0950692 0.11097563 0.41015348 1250067
-0.092572689 0.11256692 0.41216108 5329233
-0.1251443 0.11543161 0.41419604 7432289
-0.1223418 0.11723586 0.41213277 7432546
-0.11947098 0.11947098 0.41010928 6838091
-0.091276713 0.1170738 0.41096094 5987162
-0.088587061 0.11802468 0.413169 5789782
-0.12093336 0.12118239 0.41342255 6640453
-0.11829694 0.12312078 0.41168031 6574403
-0.090436615 0.12054113 0.41039506 5197900
-0.08734443 0.12234372 0.41177836 2239801
-0.084301949 0.12340198 0.41420195 5676
-0.11667649 0.12713405 0.41257179 6574403
-0.11386234 0.12829863 0.41042382 6574403
-0.086026937 0.12704808 0.41099405 5419
-0.083488822 0.12765722 0.41326904 5419
-0.11570531 0.13175441 0.41383848 6574403
-0.11335154 0.13212717 0.41122034 6574403
-0.085653692 0.1320879 0.41023731 1517625
-0.083628692 0.13271505 0.41263586 3424329
-0.11167899 0.13708635 0.41228834 5457726
-0.10895745 0.13903007 0.41063219 1844528
-0.090701826 0.13957064 0.41048035 5161
-0.087038271 0.13806638 0.41134083 662575
-0.08257392 0.13679472 0.41315237 3093559
-0.079696231 0.13694271 0.41485643 1776410
-0.11056648 0.14157018 0.41416347 793644
-0.10745458 0.1423194 0.4116818 5161
-0.10259011 0.14462586 0.41064325 5161
-0.097191572 0.1436418 0.41199285 5161
-0.092441052 0.1419014 0.4125165 5161
-0.088092938 0.14074913 0.41363335 5161
-0.10620295 0.14651798 0.4138948 136746
-0.10240611 0.14732657 0.4126325 662574
-0.098910786 0.14594249 0.41385117 5161
-0.016785292 -0.027080595 0.41699335 3684935
-0.014589665 -0.026232308 0.41908327 2631491
-0.01561224 -0.024105683 0.41545144 1118276
-0.012304017 -0.023068439 0.41722479 657725
-0.0082548494 -0.021275809 0.41783535 526140
-0.0049170041 -0.020046247 0.41936955 526144
-0.0064740782 -0.019425618 0.41618785 526400
-0.0027089962 -0.017280523 0.41741291 2105419
-0.00080354157 -0.013884873 0.41605899 4342351
0.0012318494 -0.011884822 0.41782227 3421264
-0.056089669 -0.0058709993 0.41552135 2306877
0.0033876207 -0.0076354812 0.41713539 3026256
0.0056779361 -0.0056779361 0.41969997 4408398
-0.056347467 -0.0028606267 0.4176113 2105398
-0.054378152 -0.0014993255 0.41581115 789046
0.0046888548 -0.0043141088 0.41588944 3355472
0.0068056304 -0.0022393516 0.41775918 4539983
-0.055805031 0.002830859 0.41853642 526388
-0.054374229 0.0026238987 0.4157812 394548
0.0087063042 0.0017521145 0.41664419 4276560
0.010647579 0.0040503046 0.41786143 4013391
-0.055783972 0.0073714075 0.41816318 394548
-0.054299861 0.0074897744 0.41521248 460342
0.012418896 0.0075254533 0.41719469 4539727
-0.055468425 0.011321147 0.41837734 460341
-0.054267757 0.012855467 0.41668755 789047
0.014230503 0.011223701 0.41641799 2960465
0.016000181 0.013188212 0.41785738 2631248
-0.052418504 0.017669113 0.41683236 1184057
0.01809966 0.017554339 0.41708741 3420753
0.020049082 0.019292513 0.41942886 4539474
-0.050775941 0.021996172 0.4180603 1578551
-0.04933067 0.023164133 0.4164685 3026235
0.019691911 0.021191373 0.41587546 2828625
0.02153191 0.022920366 0.41769621 2697041
-0.047338668 0.027318683 0.41721609 3223610
0.023592811 0.026899187 0.41696993 2565456
0.025449509 0.029218689 0.418033 2499664
-0.045912981 0.030817894 0.41840506 3289914
-0.043974496 0.032836713 0.41672447 2500153
0.027071835 0.03255903 0.41720894 2828624
-0.041674294 0.03744388 0.41741908 3026489
0.029201167 0.036384039 0.41686398 2828624
0.031001624 0.038725946 0.41790044 2565455
-0.040342584 0.040342584 0.41804171 2565688
-0.038456354 0.042464808 0.4166609 1841720
0.03286425 0.042453375 0.41702092 2631246
0.035155859 0.044984378 0.41913548 2499660
-0.036474839 0.046872728 0.41777444 1381431
-0.034495667 0.048744772 0.4157362 1380921
0.034640543 0.046145409 0.41597256 4276558
0.036341555 0.048013646 0.41755083 3092044
-0.035169974 0.050296843 0.41930377 1512757
-0.032786094 0.052711476 0.41686767 1841720
0.038623277 0.052276149 0.41700664 2368332
0.040385164 0.054349501 0.41848296 2170954
-0.030983398 0.056599259 0.41766104 2631479
-0.029376876 0.058679067 0.41651922 2433848
0.041783061 0.057496265 0.41735268 2434122
-0.13637803 0.064331748 0.41713548 6191
-0.13211639 0.062708646 0.41710472 5935
-0.12751889 0.062112696 0.41810966 5934
-0.12229788 0.063041888 0.41757688 5934
-0.11907551 0.064117417 0.41841564 5934
-0.027554009 0.062558383 0.41734403 1446966
0.044110574 0.062068176 0.41659236 2828873
0.045664009 0.063775368 0.41843593 2499907
-0.14177267 0.068250395 0.41732696 5677
-0.13893874 0.065891296 0.41748706 5935
-0.1170017 0.066696391 0.4170523 5722958
-0.1135595 0.068952575 0.41831589 7035468
-0.025755689 0.066082753 0.41788998 1841973
-0.023904921 0.068596616 0.41691354 1841974
-0.14578317 0.073710628 0.41911569 5676
-0.14379491 0.072122276 0.41693011 5676
-0.11233602 0.072383374 0.41702643 6181963
-0.10925057 0.073859252 0.41818675 7166281
-0.021899795 0.072533183 0.41741967 1710132
-0.019854052 0.074546345 0.4153488 1907764
-0.14599627 0.077442005 0.4176333 5162
-0.14414153 0.077499166 0.41511461 71211
-0.10845556 0.077735558 0.41752085 6049347
-0.020830104 0.076124564 0.41992182 1644593
-0.018625416 0.077878773 0.41678241 1908012
-0.1457586 0.082438901 0.4189015 2435634
-0.14405443 0.083050765 0.41666663 4275258
-0.10642928 0.081816912 0.41709414 5918534
-0.10413571 0.083857819 0.4185625 6903625
-0.016521841 0.082016513 0.41735861 2170926
-0.01462231 0.083985128 0.41571057 2104881
-0.14503026 0.086715221 0.41985521 6574403
-0.14273414 0.087502792 0.41722491 6574147
-0.10522978 0.08500769 0.41521403 3947579
-0.10268356 0.087529786 0.41744772 6247758
-0.015490268 0.085007571 0.41890424 2631728
-0.013281094 0.087455794 0.41700202 2631727
-0.1412397 0.092275366 0.418349 6442047
-0.13883428 0.093231738 0.41581458 6574403
-0.10087741 0.090993397 0.41691059 6839122
-0.098339327 0.093088083 0.41787854 7166025
-0.010985842 0.091789246 0.41710073 2697770
-0.0091261677 0.094135784 0.41583404 3026478
-0.1373869 0.097485632 0.41733569 6706764
-0.096241511 0.0971426 0.41673294 6903368
-0.094326332 0.098511748 0.41849735 6968903
-0.010219996 0.095008112 0.41968808 2631474
-0.0080158403 0.096860699 0.41742417 2631726
-0.13622801 0.10162389 0.41887122 6443082
-0.13372037 0.10276936 0.41647154 6838092
-0.095400624 0.10064836 0.41562778 6379084
-0.093275309 0.10269388 0.41717407 6837575
-0.13236046 0.10746996 0.41810575 6243384
-0.12968305 0.10906979 0.41557375 6574403
-0.091414295 0.1073662 0.4174366 6115914
-0.13078898 0.11151148 0.41911721 6242865
-0.12859365 0.11279212 0.41714263 6640197
-0.090714037 0.11170159 0.41648838 5790039
-0.089030273 0.11313891 0.41828549 5854802
-0.12676691 0.1171063 0.41774794 7168087
-0.1240145 0.11876918 0.4154169 7102036
-0.086809933 0.11721245 0.41733849 5854802
-0.084636047 0.11977568 0.41893733 3684926
-0.12516096 0.12137967 0.41925725 6706247
-0.12255038 0.12254836 0.416688 6574660
-0.085346699 0.12058517 0.41565013 3487806
-0.082863897 0.12263471 0.41740686 71726
-0.12130107 0.12725843 0.41869369 6574403
-0.11903933 0.12823971 0.41636157 6574403
-0.081069089 0.12732048 0.41663352 70954
-0.079747289 0.12850298 0.41905704 5161
-0.11802547 0.13239552 0.41767421 6574403
-0.081094511 0.1324698 0.41672656 3884366
-0.079230197 0.13335843 0.41872483 4474697
-0.11621484 0.13677922 0.41835806 6377282
-0.11399499 0.13849135 0.41658831 5654591
-0.081537239 0.1388171 0.41598615 6053211
-0.078772239 0.13665912 0.41650495 1118224
-0.11247779 0.14254297 0.41751909 1450543
-0.10933018 0.14452536 0.41514197 5161
-0.091880903 0.14411962 0.41667503 5161
-0.087523468 0.14274594 0.41745228 5161
-0.11118008 0.14609848 0.41857776 5161
-0.10791022 0.14824238 0.41717434 465453
-0.10091165 0.14930482 0.41593951 1648437
-0.097450286 0.1476859 0.41745809 333868
-0.093524002 0.14601411 0.41869426 5161
-0.10725681 0.15094312 0.41903132 2042679
-0.1046623 0.15042861 0.41593528 2568248
-0.015557241 -0.028838428 0.42071536 3027772
-0.01356533 -0.027046103 0.42235729 2500161
-0.011326361 -0.024403397 0.42145342 789308
-0.0076565393 -0.022546124 0.42208362 526395
-0.0041909358 -0.020576335 0.4224768 591934
-0.0014798591 -0.018321827 0.42222109 1315655
0.00063685974 -0.015897375 0.42303312 2499915
0.0025301706 -0.012435072 0.42247751 3882058
0.0046389038 -0.0084420675 0.4215762 3947596
0.0060993661 -0.0064802063 0.42263326 3552588
-0.058330785 -0.0021884677 0.42201912 2039602
0.008138448 -0.0028040765 0.42230511 3816012
-0.057095733 0.001140445 0.42202556 922166
0.0094785281 0.00037914113 0.42037857 3815758
0.01135135 0.0027420509 0.42231473 3947594
-0.057158802 0.0076102475 0.42248896 333888
0.013989048 0.007421968 0.42202932 4013387
0.015689092 0.0095665194 0.42428103 2960202
-0.056364018 0.012095058 0.42168912 529212
0.017139442 0.012854027 0.42228329 2631244
-0.055297714 0.016018752 0.42284271 857659
-0.054039687 0.018268591 0.42195323 989242
0.01902275 0.016358653 0.4218204 3684174
0.020581152 0.018674532 0.42257369 3486796
-0.052013904 0.022200353 0.42197767 1120826
0.022694442 0.022388827 0.42217526 2433868
-0.048912831 0.027767196 0.42171997 1515835
0.024743762 0.025884911 0.42207736 2039116
0.026073698 0.028031008 0.42247662 2302538
-0.046144646 0.032582257 0.42168239 1911101
0.028364738 0.032075752 0.42213368 3486538
0.030146714 0.03472596 0.42310929 3947335
-0.043270569 0.037490852 0.42158675 1909818
0.029996889 0.035312794 0.4210065 3815757
0.031529538 0.037299894 0.42264766 3091783
-0.040740859 0.042078182 0.42218143 1189183
-0.039471462 0.043647252 0.42081657 1447220
0.033892717 0.04150749 0.42223078 2170439
0.035734616 0.04438065 0.42298999 2236741
-0.037249353 0.048217766 0.42229289 1908791
0.037309967 0.047397647 0.42212188 2697287
-0.035378378 0.051355708 0.42178839 2105142
-0.034201998 0.053204603 0.42135713 1710389
0.039401263 0.051010069 0.4220973 2236741
0.040886693 0.053524036 0.422113 2170692
-0.032202706 0.057178941 0.42171344 1776181
0.043292154 0.057558034 0.42265564 2697282
-0.1372824 0.063594446 0.4222315 138291
-0.13301033 0.061757177 0.42112216 6962
-0.12682699 0.060315702 0.42060354 6448
-0.12269648 0.061293252 0.42174596 203313
-0.11751281 0.063584983 0.42238784 925490
-0.11454437 0.064742468 0.42475864 7034954
-0.030100761 0.06134459 0.42246434 1973558
-0.028891057 0.062981553 0.4215031 1907509
0.044356048 0.060278732 0.42034575 2762823
0.046306044 0.063074894 0.42256504 2763326
-0.14207208 0.06689059 0.42260116 5934
-0.11563297 0.065711163 0.42115149 7166026
-0.1126169 0.067568719 0.42243707 7363660
-0.10950767 0.069825448 0.42306033 6969675
-0.026232442 0.067670673 0.42152286 2763061
-0.14655022 0.072266676 0.42205453 5676
-0.14435823 0.070095204 0.42010346 5933
-0.11058876 0.0707312 0.42088464 6968646
-0.10830691 0.072762087 0.4220086 6838089
-0.023574734 0.072241783 0.42158049 2434101
-0.148653 0.077735387 0.42273605 5162
-0.10626893 0.077336252 0.4221046 6903368
-0.10461519 0.079244383 0.42364603 6968905
-0.020930441 0.076994248 0.42192563 2236723
-0.019361353 0.07934358 0.42092544 2434353
-0.1481041 0.082763009 0.42253116 1121837
-0.10512983 0.080839351 0.42080984 7034440
-0.10300292 0.082608618 0.42236394 7100232
-0.017488975 0.08287406 0.42151332 2894898
-0.14685842 0.087275453 0.42256904 6311490
-0.14443359 0.089086331 0.42032275 6574403
-0.10084681 0.086792663 0.42115524 7034439
-0.099179916 0.088690512 0.42233256 6903367
-0.015573145 0.086222045 0.42114547 3223861
-0.01404771 0.088830806 0.42091864 3355702
-0.14585137 0.092178434 0.4240779 6177334
-0.14367098 0.092638224 0.42164421 6044722
-0.097263865 0.09213753 0.42176881 7034182
-0.012138466 0.092178449 0.42059186 2960948
-0.14199103 0.097172968 0.42277086 4988958
-0.1391921 0.098736227 0.42052078 4929081
-0.095248379 0.096011482 0.421877 6506042
-0.094435826 0.098243408 0.42220721 6307380
-0.0095005194 0.096905299 0.42135391 2829107
-0.14065619 0.10137981 0.42417398 4139059
-0.13805228 0.1027763 0.42205667 4533298
-0.092410579 0.10248395 0.42265028 6571578
-0.13668741 0.10689667 0.42346534 4596519
-0.13426764 0.10859487 0.42173293 5317662
-0.09042792 0.10569037 0.42305842 7166025
-0.089173391 0.10837711 0.42225817 6837318
-0.13510999 0.11061413 0.42437759 5118228
-0.13256952 0.11255629 0.42226604 5843990
-0.087143585 0.11248498 0.42224213 6968903
-0.13117176 0.11699976 0.42347053 5977638
-0.1288998 0.11838 0.42159078 6573633
-0.085583284 0.11586553 0.42120942 7034696
-0.083960474 0.11794116 0.42277312 5195328
-0.1272386 0.12249826 0.42274493 6574403
-0.12432011 0.12394172 0.42025024 6574403
-0.082435034 0.12102308 0.42153242 5934
-0.1258153 0.12673345 0.42401028 6574403
-0.12351317 0.12791024 0.42194992 6574403
-0.080638297 0.12686923 0.42293897 662575
-0.079109564 0.12896201 0.42130002 71211
-0.12182587 0.13224132 0.42254961 6574403
-0.11950129 0.13391732 0.42063144 6574403
-0.078506984 0.13182388 0.42105722 3489608
-0.12065997 0.13645916 0.42381236 6574403
-0.11853536 0.13756523 0.4219926 6443074
-0.116686 0.14186044 0.4229506 4603707
-0.11435974 0.1439945 0.42125624 924973
-0.11543477 0.14630285 0.42427671 136490
-0.1129435 0.14792129 0.42228997 5161
-0.10949867 0.14966081 0.42009807 530989
-0.1114269 0.15113969 0.42339176 728110
-0.10926498 0.15209562 0.4221223 2108471
-0.012382117 -0.02735078 0.42711687 4013398
-0.0077004498 -0.023476455 0.42666897 3421273
-0.0037229108 -0.021182463 0.42701709 5131886
0.00077071076 -0.016933929 0.42674547 3223632
0.0030815955 -0.01309039 0.42693526 5066073
0.0049914387 -0.0095989211 0.42571807 5131872
0.006358366 -0.0075172582 0.4273068 4868448
-0.060228486 -0.0034525883 0.42534563 1710898
-0.059096143 -0.001150596 0.42548126 1389123
0.0088654831 -0.0032112685 0.42734107 5329247
0.010379713 -0.00038443381 0.42624691 5724001
-0.05792293 0.0037077873 0.4253175 667978
0.012433585 0.0032060689 0.42632675 3753554
-0.057993308 0.0065290481 0.42583427 404811
0.014191604 0.0065204669 0.42527461 2965838
0.015467893 0.0081192181 0.42878342 1783631
0.017692674 0.012500672 0.42643607 1779787
0.019637022 0.015786625 0.42691866 2499651
0.021162933 0.018341182 0.42661944 2368320
-0.051774647 0.024161501 0.42522916 799307
0.02396076 0.023192346 0.4261913 2434112
0.027325375 0.028864833 0.42672437 2631743
-0.047935084 0.031061934 0.42519012 930891
0.028868916 0.03156428 0.4267509 3026239
0.030362306 0.034205634 0.42613512 3026239
0.033057734 0.038823061 0.42620945 2763326
0.035736933 0.043422297 0.42606318 2960446
0.038782168 0.048765697 0.42574582 2631487
0.041866854 0.054158043 0.42587635 2960700
0.045055393 0.059688769 0.42697319 3158075
-0.13921483 0.064046495 0.42522478 75323
-0.12167595 0.061581437 0.42712906 2504779
-0.11772451 0.06309393 0.42656505 2899280
-0.11396968 0.064851433 0.42547354 8417381
0.046063613 0.061801784 0.42561769 2828859
-0.14509748 0.068122685 0.42673492 210247
-0.14292419 0.066467524 0.42599154 75323
-0.14804624 0.071710423 0.42746726 5934
-0.15109871 0.077961013 0.42792636 5419
-0.10427982 0.078593299 0.42508045 5265747
-0.15137804 0.08291851 0.4276225 5161
-0.14994191 0.082448877 0.42519286 5161
-0.10292307 0.080931686 0.42528233 5986381
-0.15115291 0.086925454 0.42835134 3618359
-0.14912593 0.087970354 0.42592907 6377282
-0.10040525 0.088775299 0.42982963 5392449
-0.15058903 0.090198576 0.42922345 6574403
-0.14821114 0.092557982 0.42743775 6309690
-0.096449055 0.094143495 0.42605329 5122598
-0.14650087 0.09699785 0.42813426 5185563
-0.14407089 0.098161668 0.42597654 5052950
-0.095731631 0.097277433 0.42800343 5055265
-0.094715931 0.099343397 0.42748535 5185825
-0.14531632 0.10114016 0.42965788 4465449
-0.14258878 0.10250957 0.42728761 4726303
-0.13998611 0.10393489 0.42523769 4269615
-0.092655122 0.10287526 0.42761019 5977904
-0.14113674 0.10710955 0.42873219 4596004
-0.13862391 0.10810456 0.42655277 4661025
-0.090788618 0.10540729 0.42653966 6771783
-0.089331664 0.10696796 0.42509812 6377798
-0.1371776 0.11215562 0.42775121 5315858
-0.13447918 0.11400638 0.42561069 5975053
-0.13575405 0.11641577 0.42882887 5843473
-0.13342868 0.11785688 0.42688763 5911071
-0.082861133 0.11815381 0.42534083 3947325
-0.13185865 0.12196517 0.42782289 6508096
-0.12927411 0.12389263 0.42616665 6574403
-0.13075872 0.12585384 0.4293603 6574403
-0.12789944 0.12772021 0.42723462 6574403
-0.081307963 0.12716328 0.42725775 859696
-0.12639342 0.13197094 0.42826912 6574403
-0.12410201 0.13301709 0.42600614 6574403
-0.12563834 0.1361081 0.42994881 6574403
-0.12288152 0.13741408 0.42729187 6574403
-0.11998767 0.13915503 0.42504212 6574403
-0.12117656 0.14204939 0.42856744 6048833
-0.11867888 0.14329909 0.42653593 4340794
-0.11743095 0.1474468 0.42749062 267818
-0.11593454 0.15166654 0.42876524 268075
-0.11302457 0.15305898 0.42682657 1319473
0.0027150444 -0.014350949 0.43004963 7631994
-0.15128925 0.074085273 0.43232879 202798
-0.15308227 0.077546835 0.43243709 5676
-0.15531598 0.08254756 0.43377575 5418
-0.15356211 0.082418412 0.43104899 5418
-0.15553266 0.086581744 0.43438092 5161
-0.153529 0.087786824 0.43216968 2829876
-0.10295226 0.085081309 0.43075439 5065801
-0.15205325 0.092478625 0.43265045 6508353
-0.15070496 0.096518636 0.4332656 6111285
-0.14886709 0.098002478 0.43192786 5449762
-0.14699924 0.10237807 0.43270698 4989987
-0.14432457 0.10358811 0.43016726 4335150
-0.093964271 0.10134044 0.43051201 4730672
-0.1457082 0.10693131 0.43429121 5581091
-0.14336717 0.10801168 0.43206108 5054236
-0.14168738 0.11216149 0.43301171 5316633
-0.13914861 0.11349678 0.43095928 5250067
-0.14062308 0.11555379 0.43431202 5646876
-0.13796774 0.11784337 0.4323667 6041877
-0.13657893 0.12180123 0.43322754 6837064
-0.1339315 0.12330047 0.43126288 6837834
-0.13515845 0.12575613 0.43437397 7498082
-0.13258161 0.12753734 0.43264741 6640454
-0.12999398 0.12844181 0.43024725 6574403
-0.082623474 0.12606868 0.43009412 1253938
-0.13105385 0.13183622 0.433754 6574403
-0.12843929 0.13293524 0.43139586 6574403
-0.12745966 0.13741727 0.4330579 6574403
-0.12484173 0.13962051 0.43121558 6574403
-0.1259611 0.1412168 0.43372905 6574403
-0.12346709 0.1428636 0.43184614 6245953
-0.12194967 0.1471124 0.43283781 2172978
-0.11955303 0.14856827 0.43084463 70953
-0.1207767 0.15175495 0.43478233 596524
-0.11799489 0.15267494 0.43205923 333867
-0.11650324 0.15598756 0.43346772 2108471
-0.11432344 0.15646315 0.43262076 1647661
-0.15581445 0.077904187 0.43774581 137005
-0.15452136 0.076670907 0.43594897 5677
-0.15757862 0.082927912 0.43715632 7217
-0.15741995 0.087619521 0.43762502 990509
-0.15631829 0.09225928 0.43789688 5590597
-0.1541099 0.093567066 0.43589711 6574403
-0.15561363 0.095823616 0.43903056 6574403
-0.15292671 0.096930474 0.43644312 6442304
-0.15098937 0.10079015 0.43710479 6309435
-0.14874643 0.10388441 0.43630585 6110774
-0.14733674 0.10745054 0.43679574 6640717
-0.14591672 0.11181101 0.43805408 6180933
-0.14389506 0.11333537 0.4366315 6309947
-0.1422852 0.11716814 0.43719128 6310460
-0.14070569 0.12149074 0.43782067 6180419
-0.13878053 0.12303274 0.43652362 6904915
-0.13675793 0.12640581 0.43661872 7037789
-0.13439831 0.12889589 0.43571866 6640453
-0.13303907 0.13272187 0.43667156 6508867
-0.13133742 0.13725989 0.43763354 6574403
-0.12931573 0.13816081 0.43580884 6574403
-0.13031763 0.14101306 0.43918443 6574403
-0.12757157 0.14302148 0.43709761 6377282
-0.12606339 0.14740166 0.43816239 3946809
-0.1242753 0.14787288 0.43605161 2435891
-0.12264633 0.1522661 0.43795022 465196
-0.11824154 0.15699893 0.43700579 2239285
-0.15548094 0.074742764 0.44316679 206909
-0.153578 0.073460899 0.44267467 7219
-0.1544559 0.075044125 0.44024515 5935
-0.15947145 0.088684283 0.44093874 73523
-0.15623422 0.097133063 0.44078168 5526089
-0.15430269 0.099421889 0.44094205 6574404
-0.15612303 0.10073748 0.44499695 5067853
-0.1527597 0.10290301 0.44222975 6838092
-0.15116048 0.10569268 0.44222036 6904144
