# .PCD v0.7 - Point Cloud Data file format
VERSION 0.7
FIELDS x y z rgb
SIZE 4 4 4 4
TYPE F F F U
COUNT 1 1 1 1
WIDTH 566
HEIGHT 1
VIEWPOINT 0 0 0 1 0 0 0
POINTS 566
DATA ascii
0.29172203 0.18143965 0.50737464 1579032
0.28646207 0.18441568 0.507379 1579032
0.28886336 0.18361412 0.50737691 1381653
0.29149318 0.18349886 0.50737453 1381653
0.28204057 0.18685763 0.50738269 1776411
0.28380913 0.18642995 0.50738114 1447446
0.28600454 0.18624619 0.50737917 1381653
0.28874877 0.18624525 0.50737667 1381653
0.29149297 0.18624432 0.50737417 1381653
0.27685669 0.18990996 0.50738698 1381653
0.27881697 0.18925558 0.50738531 1447446
0.2814306 0.18899323 0.50738293 1381653
0.28371748 0.18899244 0.50738084 1381653
0.28600436 0.18899167 0.50737876 1381653
0.28874856 0.18899074 0.50737631 1381653
0.29149276 0.1889898 0.50737375 1381653
0.27365482 0.19174144 0.50738966 1579032
0.27594182 0.19128306 0.50738764 1447446
0.27868614 0.19128211 0.50738513 1381653
0.28143042 0.19128115 0.50738257 1381653
0.2837173 0.19128036 0.50738055 1381653
0.28600416 0.19127958 0.50737846 1381653
0.28874835 0.19127862 0.5073759 1381653
0.29149255 0.19127768 0.50737339 1381653
0.26908064 0.19448857 0.50739342 1579032
0.27148205 0.19368696 0.50739133 1447446
0.27365467 0.19357181 0.50738937 1381653
0.27594161 0.19357099 0.50738728 1381653
0.27868593 0.19357003 0.50738478 1381653
0.28143021 0.19356909 0.50738227 1381653
0.2837171 0.19356829 0.50738019 1381653
0.28600398 0.19356748 0.50737816 1381653
0.28874817 0.19356653 0.5073756 1381653
0.29149234 0.19356558 0.50737309 1381653
0.26873749 0.19620468 0.50739348 1381653
0.27136752 0.19631815 0.5073911 1381653
0.27365446 0.19631733 0.50738901 1381653
0.27594143 0.19631654 0.50738692 1381653
0.27868572 0.19631556 0.50738442 1381653
0.28142998 0.19631457 0.50738192 1381653
0.28371689 0.19631378 0.50737977 1381653
0.28600374 0.19631298 0.50737768 1381653
0.28874794 0.196312 0.50737518 1381653
0.2914921 0.19631103 0.50737262 1381653
0.26923284 0.19845434 0.5073927 1315860
0.27136728 0.1990637 0.50739074 1381653
0.27365428 0.19906288 0.50738859 1381653
0.27594122 0.19906206 0.50738651 1381653
0.27868551 0.19906108 0.507384 1381653
0.2814298 0.1990601 0.50738156 1381653
0.28371668 0.19905929 0.50737941 1381653
0.28600353 0.19905847 0.50737733 1381653
0.28874773 0.19905747 0.50737482 1381653
0.29149193 0.19905648 0.50737226 1381653
0.27155009 0.20126006 0.5073902 1381653
0.2736541 0.20135085 0.50738829 1381653
0.27594101 0.20135002 0.50738615 1381653
0.2786853 0.20134902 0.50738364 1381653
0.28142959 0.20134801 0.50738114 1381653
0.28371647 0.20134717 0.50737906 1381653
0.28600332 0.20134635 0.50737697 1381653
0.28874752 0.20134534 0.50737447 1381653
0.29149172 0.20134437 0.50737196 1381653
0.27205601 0.2034128 0.50739491 1315860
0.27365389 0.20363879 0.50738794 1381653
0.27594084 0.20363794 0.50738579 1381653
0.27868512 0.20363693 0.50738335 1381653
0.28142941 0.20363593 0.50738084 1381653
0.28371632 0.20363508 0.50737876 1381653
0.28600317 0.20363426 0.50737667 1381653
0.28874737 0.20363323 0.50737411 1381653
0.29149154 0.20363224 0.50737166 1381653
0.27388239 0.20615542 0.5073874 1381653
0.27594066 0.20638347 0.50738549 1381653
0.27868494 0.20638244 0.50738299 1381653
0.28142917 0.20638143 0.50738043 1381653
0.28371605 0.20638055 0.50737834 1381653
0.28600293 0.20637971 0.50737625 1381653
0.28874716 0.2063787 0.50737375 1381653
0.2914913 0.20637769 0.50737125 1381653
0.27594045 0.20867139 0.50738513 1315860
0.27868474 0.20867036 0.50738263 1381653
0.28142902 0.20866935 0.50738013 1381653
0.2837159 0.20866847 0.50737804 1381653
0.28600276 0.20866759 0.50737596 1381653
0.28874695 0.20866658 0.50737345 1381653
0.29149112 0.20866555 0.50737095 1381653
0.27662638 0.21073025 0.50738418 1381653
0.27868459 0.21095826 0.50738221 1381653
0.28142887 0.21095723 0.50737977 1381653
0.2837157 0.21095635 0.50737768 1381653
0.28600252 0.2109555 0.5073756 1381653
0.28874674 0.21095443 0.50737309 1381653
0.29149091 0.2109534 0.50737059 1381653
0.2787987 0.21358933 0.50738186 1381653
0.28142864 0.21370269 0.50737935 1381653
0.28371549 0.21370184 0.50737733 1381653
0.28600234 0.21370095 0.50737518 1381653
0.28874654 0.21369988 0.50737268 1381653
0.2914907 0.21369883 0.50737017 1381653
0.27929401 0.21583891 0.50738102 1315860
0.2814284 0.21644819 0.507379 1381653
0.28371528 0.21644729 0.50737691 1381653
0.2860021 0.2164464 0.50737482 1381653
0.28874633 0.21644533 0.50737232 1381653
0.29149047 0.21644428 0.50736982 1381653
0.2816112 0.2186445 0.50737852 1381653
0.2837151 0.21873519 0.50737661 1381653
0.28600192 0.21873428 0.50737447 1381653
0.28874615 0.21873321 0.50737196 1381653
0.29149029 0.21873212 0.50736946 1381653
0.26709607 0.19562611 0.50797063 1776411
0.26803032 0.19722986 0.50974745 1315860
0.26886526 0.19866693 0.50871718 1315860
0.26969624 0.20009722 0.50769079 1315860
0.27075797 0.20192105 0.50882661 1315860
0.2719422 0.20395651 0.50932562 1315860
0.27336049 0.20639619 0.50854576 1315860
0.27454665 0.20843495 0.50904429 1315860
0.27596015 0.21086642 0.50826526 1315860
0.27714819 0.21290842 0.50876319 1315860
0.27822915 0.21476531 0.50990224 1315860
0.27904367 0.21616736 0.50887132 1315860
0.27985439 0.21756275 0.50784433 1315860
0.28093916 0.21942621 0.50898087 1315860
0.26909262 0.19905466 0.51089251 1315860
0.27028006 0.20109561 0.51139563 1315860
0.27158853 0.20334558 0.51125294 1315860
0.27325478 0.20621014 0.51149517 1315860
0.27420303 0.20784128 0.51096946 1315860
0.27539566 0.20989117 0.5114727 1315860
0.27634254 0.21152 0.51094931 1315860
0.27789861 0.21419415 0.51183558 1315860
0.27931467 0.21663007 0.51104802 1315860
0.28051257 0.21868894 0.51155144 1315860
0.2818186 0.2209347 0.51140869 1315860
0.26872703 0.19842324 0.51283175 1315860
0.26979733 0.20026177 0.51399076 1315860
0.27159089 0.20334618 0.51358289 1315860
0.27254471 0.20498693 0.51305288 1315860
0.27362409 0.20684111 0.51421285 1315860
0.27493885 0.20910189 0.5140686 1315860
0.27516785 0.20949753 0.51276737 1315860
0.27625257 0.21136087 0.51392603 1315860
0.27756584 0.21361911 0.51378196 1315860
0.27887809 0.2158756 0.51363957 1315860
0.27997336 0.21775705 0.51480061 1315860
0.2801899 0.21813132 0.51349568 1315860
0.2815007 0.22038528 0.51335347 1315860
0.28260127 0.22227587 0.51451313 1315860
0.27075225 0.20190102 0.51581001 1315860
0.27195281 0.20396446 0.51632285 1315860
0.27315575 0.20603201 0.5168367 1315860
0.274593 0.20850438 0.51603371 1315860
0.27579784 0.21057525 0.51654696 1315860
0.27723026 0.2130392 0.51574492 1315860
0.27832621 0.21492192 0.51691538 1315860
0.27928016 0.21656285 0.51638079 1315860
0.28107327 0.21964653 0.5159685 1315860
0.28228444 0.22172824 0.51648164 1315860
0.27038953 0.20127441 0.5177868 1315860
0.27147397 0.20313728 0.51896834 1315860
0.2734063 0.20645949 0.51908076 1315860
0.27424479 0.20790277 0.51801217 1315860
0.27533853 0.20978159 0.51919472 1315860
0.27677894 0.21225938 0.51838446 1315860
0.27799147 0.21434347 0.51890242 1315860
0.27931699 0.21662273 0.5187555 1315860
0.28064144 0.2189002 0.51861036 1315860
0.28185838 0.22099185 0.5191288 1315860
0.28328845 0.22345182 0.51831865 1315860
0.27171826 0.20355393 0.52123106 1513239
0.27329329 0.20626248 0.52094847 1315860
0.2749911 0.20918125 0.52119762 1315860
0.27632302 0.21147156 0.52105117 1315860
0.27742824 0.2133701 0.52224588 1315860
0.27765447 0.21376105 0.52090299 1315860
0.27898487 0.21604876 0.52075666 1315860
0.28020519 0.21814619 0.52127934 1315860
0.28142798 0.22024785 0.52180314 1315860
0.28323942 0.223363 0.52138281 1315860
0.28419545 0.22500765 0.52083653 1315860
0.27208444 0.20418122 0.52283853 1315860
0.27318341 0.20606899 0.52404326 1315860
0.27464062 0.20857574 0.52321774 1315860
0.27586237 0.21067557 0.52374542 1315860
0.27708656 0.21277961 0.52427411 1315860
0.27891004 0.21591556 0.52384979 1315860
0.27987519 0.21757583 0.52329838 1315860
0.28110239 0.21968506 0.52382624 1315860
0.28233203 0.22179854 0.52435511 1315860
0.28254652 0.22216931 0.52300137 1315860
0.28366995 0.22409914 0.52420688 1315860
0.28500736 0.22639889 0.52405691 1315860
0.27282432 0.20544857 0.52608377 1315860
0.27416933 0.20776138 0.52593452 1315860
0.27527994 0.20966917 0.52715176 1315860
0.27612817 0.21112923 0.52605003 1315860
0.27808696 0.21449697 0.52616704 1315860
0.27931905 0.21661465 0.52670074 1315860
0.28077397 0.21911739 0.52586681 1315860
0.28200808 0.22123852 0.52639985 1315860
0.28335157 0.22354874 0.52624863 1315860
0.28469402 0.22585714 0.52609932 1315860
0.28582937 0.22780743 0.52731735 1315860
0.27369308 0.20693853 0.52867967 1513239
0.27480841 0.20885439 0.52990967 1315860
0.2750448 0.20926285 0.52852714 1315860
0.27639544 0.21158531 0.52837652 1315860
0.27763098 0.21370894 0.52891469 1315860
0.27898216 0.21603233 0.52876198 1315860
0.28033227 0.2183539 0.52861124 1315860
0.2815724 0.22048536 0.52914989 1315860
0.28340921 0.22364415 0.52871764 1315860
0.2843785 0.22531161 0.52815586 1315860
0.28562167 0.22744831 0.52869356 1315860
0.27457079 0.20844379 0.53129947 1315860
0.27592865 0.21077867 0.53114724 1315860
0.27717021 0.21291262 0.53169107 1315860
0.27901945 0.21609278 0.53125471 1315860
0.27999809 0.21777628 0.53068751 1315860
0.28124276 0.21991554 0.53123039 1315860
0.28248996 0.22205916 0.53177434 1315860
0.28270707 0.22243449 0.5303821 1315860
0.28384674 0.22439222 0.53162187 1315860
0.28530797 0.22690588 0.53077233 1315860
0.28655827 0.22905481 0.53131533 1315860
0.27533838 0.20975865 0.53465092 1315860
0.27619854 0.21123925 0.5335176 1315860
0.27818516 0.21465483 0.53363806 1315860
0.27943492 0.21680279 0.53418696 1315860
0.28091025 0.21934074 0.53332925 1315860
0.28216201 0.22149223 0.53387749 1315860
0.28352454 0.22383517 0.53372192 1315860
0.284886 0.22617626 0.53356832 1315860
0.28614247 0.22833577 0.5341171 1315860
0.28750443 0.23067775 0.53396142 1315860
0.27646992 0.21170233 0.53591084 1315860
0.27772319 0.21385638 0.53646445 1315860
0.27909362 0.21621291 0.53630739 1315860
0.28046295 0.21856752 0.53615224 1315860
0.28172091 0.22072965 0.53670639 1315860
0.28319952 0.2232732 0.53584051 1315860
0.28445959 0.22543892 0.536394 1315860
0.28645971 0.22887775 0.5365141 1315860
0.28729856 0.23032171 0.53537261 1315860
0.28835788 0.23214023 0.53734666 1315860
0.27611572 0.21109022 0.53804493 2171169
0.27737364 0.21325225 0.53860301 1315860
0.27874935 0.21561781 0.53844655 1315860
0.2798973 0.21758972 0.5397225 1315860
0.28012452 0.21798252 0.53828835 1315860
0.28138718 0.22015265 0.53884691 1315860
0.28265241 0.22232729 0.5394066 1315860
0.28364313 0.22403157 0.5388245 1315860
0.28551048 0.22724289 0.53837562 1315860
0.28677893 0.22942299 0.53893435 1315860
0.28815296 0.23178577 0.5387758 1315860
0.27713895 0.21284661 0.54003882 1315860
0.27816978 0.21461605 0.5420475 1315860
0.27903575 0.21610665 0.54088271 1315860
0.28105041 0.2195705 0.54100645 1315860
0.28232038 0.22175325 0.54157066 1315860
0.28370252 0.22412987 0.54141057 1315860
0.28497618 0.226319 0.54197556 1315860
0.28519082 0.22669013 0.54052943 1315860
0.28646401 0.22887839 0.54109263 1315860
0.28784341 0.23125033 0.5409348 1315860
0.28912032 0.23344499 0.54149884 1315860
0.27793568 0.21421146 0.54350173 1315860
0.2793237 0.21659824 0.54334247 1315860
0.28059739 0.21878731 0.54391158 1315860
0.281986 0.22117509 0.54375011 1315860
0.28337348 0.22356094 0.54359072 1315860
0.28465196 0.22575831 0.54416037 1315860
0.28614628 0.22832891 0.54327023 1315860
0.28732225 0.23034894 0.54456919 1315860
0.28753158 0.23071104 0.54310918 1315860
0.28881332 0.23291397 0.54367781 1315860
0.29009771 0.23512149 0.54424757 1315860
0.27897608 0.21599735 0.54553622 1315860
0.28025454 0.21819466 0.54610991 1315860
0.28164858 0.22059172 0.54594916 1315860
0.28293079 0.22279552 0.54652369 1315860
0.28432533 0.22519356 0.54636067 1315860
0.28561136 0.22740386 0.54693609 1315860
0.28646901 0.2288802 0.54575026 1315860
0.2883999 0.23219891 0.54661173 1315860
0.28939763 0.23391517 0.54601407 1315860
0.27979288 0.21739657 0.54907018 1315860
0.28055239 0.21870312 0.54861867 1315860
0.28130865 0.22000414 0.54816401 1315860
0.28259575 0.22221628 0.54874325 1315860
0.28399581 0.22462371 0.54858094 1315860
0.28528669 0.2268424 0.54916108 1315860
0.28679368 0.2294348 0.54825461 1315860
0.28808677 0.23165727 0.54883397 1315860
0.28948569 0.23406279 0.54866964 1315860
0.29088354 0.23646642 0.54850739 1315860
0.28085098 0.21921287 0.55114663 1315860
0.28225768 0.22163177 0.55098295 1315860
0.28355238 0.223857 0.55156815 1315860
0.28495964 0.22627686 0.55140209 1315860
0.28636575 0.22869474 0.55123818 1315860
0.28777134 0.23111171 0.55107242 1315860
0.28917581 0.23352671 0.55090868 1315860
0.29047769 0.23576429 0.55149376 1315860
0.29188266 0.23818022 0.55132776 1315860
0.28062025 0.21881402 0.55265015 1776411
0.28180283 0.22084531 0.55399644 1315860
0.28321677 0.22327673 0.5538289 1315860
0.28462964 0.22570616 0.55366361 1315860
0.28604192 0.22813465 0.5534963 1315860
0.28734657 0.23037699 0.55408686 1315860
0.28755954 0.23074536 0.55257553 1315860
0.28875884 0.23280543 0.5539214 1315860
0.29082534 0.23635837 0.55404949 1315860
0.29168198 0.23783301 0.55283231 1315860
0.29279268 0.23973964 0.55493742 1315860
0.28276485 0.22249524 0.55687368 1315860
0.28353268 0.22381616 0.5564093 1315860
0.2842972 0.2251313 0.55594164 1315860
0.28560576 0.22738032 0.55653739 1315860
0.28637078 0.22869635 0.55607355 1315860
0.28713244 0.23000661 0.55560648 1315860
0.28844324 0.2322595 0.55620152 1315860
0.28986055 0.23469664 0.5560348 1315860
0.29117531 0.23695631 0.55663079 1315860
0.29259315 0.2393944 0.55646169 1315860
0.28253701 0.22210129 0.55840868 1315860
0.28384948 0.22435704 0.55900973 1315860
0.28527534 0.22680886 0.55884135 1315860
0.28670061 0.22925971 0.55867088 1315860
0.28812474 0.23170859 0.55850267 1315860
0.28944346 0.23397507 0.55910397 1315860
0.29086816 0.23642489 0.55893338 1315860
0.2922917 0.23887274 0.55876499 1315860
0.29371464 0.24131958 0.55859458 1315860
0.28351027 0.22377045 0.56133425 1513239
0.28494245 0.22623317 0.56116223 1315860
0.28637344 0.22869384 0.56099248 1315860
0.28769618 0.23096721 0.5615992 1315860
0.28912774 0.23342888 0.56142706 1315860
0.29055816 0.23588854 0.56125718 1315860
0.29198802 0.23834723 0.56108528 1315860
0.29341668 0.2408039 0.56091559 1315860
0.29464889 0.2429205 0.56230032 1315860
0.28460646 0.22565213 0.5635047 1315860
0.2859332 0.22793238 0.56411684 1315860
0.28737175 0.23040603 0.56394315 1315860
0.28880912 0.23287763 0.56377172 1315860
0.29024589 0.23534825 0.56359828 1315860
0.2916815 0.23781684 0.56342709 1315860
0.29291493 0.23993552 0.56482422 1315860
0.29311651 0.24028441 0.56325382 1315860
0.29445186 0.24257952 0.56386536 1315860
0.28559995 0.22735594 0.56648183 1315860
0.28693473 0.2296501 0.56710041 1315860
0.28715387 0.23002912 0.56551737 1315860
0.28848809 0.23232228 0.56613386 1315860
0.28982526 0.23462045 0.56675172 1315860
0.29003617 0.23498535 0.56517059 1315860
0.291269 0.23710306 0.56657863 1315860
0.29271218 0.23958465 0.56640339 1315860
0.29415417 0.24206424 0.56623048 1315860
0.29559559 0.24454281 0.56605554 1315860
0.2853761 0.22696878 0.56807029 1315860
0.28671443 0.22926895 0.56869239 1315860
0.28816408 0.23176171 0.56851804 1315860
0.28950649 0.23406896 0.56914115 1315860
0.29095677 0.23656273 0.56896436 1315860
0.29230329 0.23887703 0.56958836 1315860
0.2925083 0.23923184 0.56799144 1315860
0.29385424 0.24154511 0.56861329 1315860
0.2953015 0.24403375 0.56843907 1315860
0.29655501 0.24618691 0.56986123 1315860
0.28638142 0.22869295 0.57109827 1710618
0.28783762 0.23119695 0.57092023 1315860
0.28918537 0.23351333 0.57154858 1315860
0.29064155 0.23601729 0.57137251 1315860
0.29209712 0.23852023 0.57119435 1315860
0.2935515 0.24102111 0.57101858 1315860
0.29480627 0.24317646 0.57245362 1315860
0.29500526 0.24352092 0.57084054 1315860
0.2963607 0.24585053 0.57146871 1315860
0.28739786 0.23043612 0.5741564 1315860
0.28761834 0.2308176 0.57253373 1315860
0.28886122 0.23295245 0.57397878 1315860
0.29032397 0.23546775 0.57379889 1315860
0.29178554 0.23798098 0.57362151 1315860
0.29324648 0.24049315 0.57344192 1315860
0.29460618 0.24283004 0.57407582 1315860
0.29606712 0.2453422 0.5738982 1315860
0.2975274 0.24785326 0.57371843 1315860
0.28853458 0.23238732 0.57642734 1315860
0.28989613 0.23472738 0.57706785 1315860
0.29079109 0.23626813 0.57574785 1315860
0.29283553 0.23978184 0.57670677 1315860
0.293883 0.24158382 0.57604164 1315860
0.29577124 0.24482998 0.5763461 1315860
0.29714066 0.24718356 0.57698649 1315860
0.29733458 0.24751937 0.57534784 1315860
0.28831521 0.23200771 0.57807219 1776411
0.28968036 0.23435402 0.57871634 1315860
0.29115462 0.23688912 0.57853591 1315860
0.29262829 0.23942314 0.57835317 1315860
0.29399896 0.2417789 0.57899803 1315860
0.29547259 0.24431291 0.57881737 1315860
0.2969456 0.24684583 0.5786345 1315860
0.29841739 0.24937665 0.57845408 1315860
0.28946337 0.23397854 0.5803743 1315860
0.29083529 0.23633642 0.58102363 1315860
0.29231507 0.23888099 0.58084172 1315860
0.29369128 0.24124628 0.58149207 1315860
0.29517168 0.24379188 0.58130753 1315860
0.29665083 0.24633536 0.58112544 1315860
0.29812932 0.24887772 0.58094108 1315860
0.29951227 0.25125459 0.58159167 1315860
0.29051286 0.23577841 0.58353519 1315860
0.29199943 0.23833469 0.58334935 1315860
0.29338124 0.24070957 0.58400536 1315860
0.29486781 0.24326581 0.58382154 1315860
0.29635376 0.24582095 0.58363551 1315860
0.29783845 0.24837399 0.58345199 1315860
0.29922706 0.25076059 0.58410823 1315860
0.29168075 0.23778309 0.58588111 1315860
0.29296347 0.23998635 0.58739197 1315860
0.29317296 0.24034901 0.58569378 1315860
0.29456162 0.24273571 0.58635503 1315860
0.29605383 0.2453016 0.58616984 1315860
0.29754537 0.24786639 0.58598226 1315860
0.29893965 0.25026277 0.58664417 1315860
0.30043119 0.25282753 0.5864588 1315860
0.2913596 0.23722723 0.58843255 1776411
0.29275274 0.23962158 0.58910006 1315860
0.29425249 0.24220046 0.58891308 1315860
0.29575157 0.24477823 0.58872372 1315860
0.29715037 0.24718234 0.58939189 1315860
0.29734844 0.24752535 0.58768213 1315860
0.29874659 0.24992831 0.58834791 1315860
0.30014786 0.25233671 0.58901519 1315860
0.30155236 0.25475058 0.58968401 1315860
0.29254082 0.2392547 0.59081811 1315860
0.29394093 0.24166104 0.59149098 1315860
0.2954464 0.24424976 0.59130251 1315860
0.29695117 0.24683733 0.59111166 1315860
0.2984547 0.24942273 0.59092343 1315860
0.29986179 0.2518411 0.59159654 1315860
0.30136591 0.25442752 0.59140551 1315860
0.29362634 0.24111637 0.59409416 1315860
0.29513881 0.24371716 0.59390146 1315860
0.29664999 0.24631575 0.59371144 1315860
0.29816055 0.2489132 0.59351903 1315860
0.29957351 0.25134164 0.59419811 1315860
0.30108404 0.25393909 0.59400785 1315860
0.30259389 0.25653535 0.59381527 1315860
0.29482824 0.24317935 0.59652591 1315860
0.29634649 0.24579011 0.59633166 1315860
0.29786348 0.24839865 0.59614003 1315860
0.2993798 0.25100604 0.59594607 1315860
0.30079994 0.25344682 0.59663069 1315860
0.30231625 0.25605422 0.59643894 1315860
0.29451516 0.24263725 0.59917104 1776411
0.29603997 0.24525926 0.59897768 1315860
0.29756406 0.24788006 0.59878176 1315860
0.29908693 0.25049865 0.59858865 1315860
0.30060905 0.25311604 0.59839302 1315860
0.30203643 0.25556931 0.5990833 1315860
0.30355859 0.25818673 0.59888995 1315860
0.29573101 0.2447242 0.60164464 1315860
0.29716054 0.24718107 0.60234249 1315860
0.29736289 0.24753161 0.60055685 1315860
0.29879171 0.24998726 0.60125214 1315860
0.30022389 0.25244865 0.6019491 1315860
0.30041704 0.25278333 0.60016578 1315860
0.30184844 0.25524348 0.60086018 1315860
0.30328318 0.25770932 0.60155618 1315860
0.30472124 0.26018089 0.60225379 1315860
0.29695696 0.24682845 0.60413873 1315860
0.29849362 0.2494708 0.60394216 1315860
0.30002955 0.25211194 0.60374302 1315860
0.30156419 0.25475085 0.60354662 1315860
0.30309811 0.25738853 0.60334778 1315860
0.30454025 0.2598671 0.60404956 1315860
0.29675218 0.24647371 0.60594577 1315860
0.29819313 0.24895023 0.60665363 1315860
0.29973575 0.25160289 0.60645539 1315860
0.30127767 0.25425431 0.60625458 1315860
0.3028183 0.25690347 0.60605657 1315860
0.30435815 0.25955138 0.605856 1315860
0.30580777 0.26204279 0.60656363 1315860
0.29799119 0.24860038 0.60847574 1315860
0.29943961 0.25108972 0.60918951 1315860
0.30098826 0.25375277 0.6089896 1315860
0.30253622 0.25641453 0.60878712 1315860
0.30408284 0.25907406 0.6085875 1315860
0.30562872 0.26173231 0.60838521 1315860
0.29924056 0.25074485 0.61102688 1315860
0.30069655 0.25324717 0.61174667 1315860
0.30225128 0.25592068 0.61154509 1315860
0.30380532 0.2585929 0.61134088 1315860
0.30535799 0.26126286 0.61113954 1315860
0.30690995 0.26393154 0.61093563 1315860
0.29904035 0.25039792 0.6128754 1315860
0.30050048 0.2529074 0.61359954 1315860
0.3019641 0.25542283 0.6143254 1315860
0.30361879 0.25826955 0.61319131 1315860
0.30508509 0.2607896 0.61391616 1315860
0.3066439 0.26347011 0.6137132 1315860
0.3001048 0.25222164 0.61733919 1776411
0.30030325 0.25256556 0.61546367 1315860
0.30177104 0.25508824 0.61619395 1315860
0.30333674 0.25778055 0.61598945 1315860
0.30490169 0.26047158 0.61578226 1315860
0.30637574 0.26300496 0.61651331 1315860
0.30794072 0.26569602 0.61630857 1315860
0.30147916 0.25458229 0.61901963 1315860
0.30305243 0.25728759 0.61881042 1315860
0.30453148 0.25982964 0.61954862 1315860
0.30471715 0.26015157 0.61765969 1315860
0.3061955 0.2626923 0.61839521 1315860
0.30767733 0.26523909 0.61913246 1315860
0.30916271 0.26779193 0.61987144 1315860
0.3028613 0.25695628 0.62070638 1315860
0.30434471 0.25950572 0.62144917 1315860
0.30592287 0.26221949 0.62124115 1315860
0.30750027 0.26493195 0.62103039 1315860
0.30899003 0.26749226 0.62177396 1315860
0.30247557 0.25628749 0.62453341 1315860
0.30266905 0.25662291 0.62261403 1315860
0.30415675 0.25917977 0.62336135 1315860
0.30564806 0.26174283 0.62411052 1315860
0.30723256 0.26446748 0.62390077 1315860
0.30881625 0.26719075 0.62368816 1315860
0.31031397 0.26976478 0.62443811 1315860
0.30387253 0.2586869 0.62625337 1315860
0.30546334 0.2614224 0.62603915 1315860
0.30696264 0.26399916 0.62679476 1315860
0.30864146 0.2668874 0.62561423 1315860
0.31014356 0.26946899 0.62636876 1315860
0.30358592 0.25818989 0.62916929 1776411
0.30518395 0.26093781 0.62895614 1315860
0.3067812 0.26368439 0.62874007 1315860
0.30837709 0.26642859 0.62852722 1315860
0.30997211 0.26917139 0.62831146 1315860
0.31148231 0.2717669 0.62907255 1315860
0.30490226 0.2604492 0.63189733 1315860
0.3065986 0.26336765 0.63069749 1315860
0.30811045 0.26596597 0.63146436 1315860
0.30971277 0.26872128 0.63124967 1315860
0.31131428 0.27147517 0.63103205 1315860
0.30632249 0.26288855 0.63365817 1315860
0.30793124 0.26565498 0.63343883 1315860
0.30945128 0.26826739 0.63421237 1315860
0.31106013 0.27103391 0.63399583 1315860
0.31266814 0.273799 0.63377631 1315860
0.30604401 0.26240548 0.63664359 1315860
0.30766019 0.26518458 0.63642538 1315860
0.30927554 0.26796231 0.63620412 1315860
0.31080389 0.27058896 0.63698447 1315860
0.31250259 0.27351144 0.63576525 1315860
0.30738685 0.26471025 0.63943696 3156262
0.30909863 0.26765522 0.63820833 2301726
0.31063157 0.27028981 0.63899362 2236190
0.31233597 0.27322209 0.63776672 2104603
0.31387183 0.27586165 0.63855088 2038553
