# .PCD v0.7 - Point Cloud Data file format
VERSION 0.7
FIELDS x y z rgb
SIZE 4 4 4 4
TYPE F F F U
COUNT 1 1 1 1
WIDTH 1134
HEIGHT 1
VIEWPOINT 0 0 0 1 0 0 0
POINTS 1134
DATA ascii
-0.063675039 0.14348041 0.40343103 3815994
-0.062447321 0.1427889 0.40490896 3815994
-0.070110396 0.14712285 0.40277711 3815994
-0.068401299 0.14615844 0.40412959 3815994
-0.06655439 0.1451104 0.40324157 3815994
-0.075177535 0.1499919 0.40267757 3815994
-0.073485881 0.14903738 0.40402946 3815994
-0.07137005 0.14783855 0.40374106 3815994
-0.0784036 0.15182281 0.40433002 3815994
-0.076449007 0.15071428 0.40364105 3815994
-0.083056562 0.15445653 0.40390721 3815994
-0.0810977 0.15334558 0.40322009 3815994
-0.079752058 0.15258498 0.40377316 3815994
-0.088134721 0.15733182 0.4038071 3815994
-0.086599387 0.15646151 0.40344119 3815994
-0.08459045 0.15532601 0.40427399 3815994
-0.091670796 0.15933299 0.40334132 3815994
-0.089672834 0.15820369 0.40417373 3815994
-0.096739709 0.16220304 0.40324152 3815994
-0.093981519 0.16064282 0.40389028 3815994
-0.10093498 0.1645806 0.40401796 3815994
-0.098726965 0.16333006 0.40392914 3815994
-0.10511337 0.16694477 0.40327361 3815994
-0.10380151 0.16620331 0.40382907 3815994
-0.10201884 0.16519065 0.40254435 3815994
-0.11017811 0.16981246 0.40317383 3815994
-0.10887355 0.16907513 0.40372905 3815994
-0.10645846 0.16770884 0.40423995 3815994
-0.11394307 0.17194553 0.40362906 3815994
-0.111535 0.17058322 0.4041397 3815994
-0.11836293 0.17444876 0.40380532 3815994
-0.11615279 0.17319703 0.40371773 3815994
0.23442534 -0.025313534 0.40676481 3815994
0.23111576 -0.023441084 0.40610701 3815994
0.23308289 -0.024554405 0.40634441 3815994
0.22619183 -0.020651957 0.40647316 3815994
0.22852358 -0.021973353 0.40605801 3815994
0.22144718 -0.017965144 0.40651286 3815994
0.22315405 -0.018932249 0.40628204 3815994
0.21689296 -0.015386983 0.40622693 3815994
0.21821949 -0.016137097 0.4066464 3815994
0.22011873 -0.017213944 0.4060899 3815994
0.21234816 -0.012814157 0.40593982 3815994
0.21430275 -0.013920375 0.40617412 3815994
0.21620513 -0.014999002 0.40561891 3815994
0.20936286 -0.011122202 0.40654039 3815994
0.21107617 -0.012092946 0.40631032 3815994
0.20417874 -0.0081868777 0.40643907 3815994
0.20653273 -0.0095208939 0.40602395 3815994
0.19943231 -0.0054990724 0.40647876 3815994
0.20115153 -0.0064731757 0.40624794 3815994
0.19425143 -0.0025655944 0.40637749 3815994
0.19597317 -0.0035411206 0.40614676 3815994
0.19812687 -0.0047609047 0.40605587 3815994
0.19079737 -0.0006105252 0.40604565 3815994
0.19295169 -0.0018306612 0.40595478 3815994
0.18648495 0.0018318758 0.4062241 3815994
0.18842597 0.00073334645 0.40646181 3815994
0.18131053 0.0047616907 0.40612292 3815994
0.18324804 0.003665149 0.40636051 3815994
0.18519376 0.002561979 0.40580481 3815994
0.17742114 0.0069649071 0.40644467 3815994
0.17872426 0.0062260749 0.40607393 3815994
0.18000962 0.0054992759 0.40649378 3815994
0.17224619 0.0098950341 0.4063434 3815994
0.17398025 0.0089125158 0.4061127 3815994
0.1761387 0.0076900474 0.40602183 3815994
0.16881037 0.011839765 0.40601161 3815994
0.17096943 0.010616945 0.40592074 3815994
0.16448864 0.014287433 0.40619004 3815994
0.16641663 0.013196283 0.40642768 3815994
0.15932015 0.0172139 0.40608889 3815994
0.16124463 0.016124735 0.40632641 3815994
0.16317214 0.015033837 0.40656096 3815994
0.15607518 0.019051727 0.4062252 3815994
0.15799926 0.017962793 0.40645966 3815994
0.15090834 0.021977263 0.40612403 3815994
0.15349157 0.0205146 0.40617308 3815994
0.14640999 0.024523791 0.4058378 3815994
0.14849687 0.023343816 0.40653935 3815994
0.14182779 0.027119759 0.40634143 3815994
0.14416076 0.025799634 0.40671936 3815994
0.14516167 0.025229611 0.40541622 3815994
0.13733342 0.029664021 0.40605482 3815994
0.13899058 0.028727042 0.40661797 3815994
0.14000781 0.028147785 0.40531546 3815994
0.13408139 0.031505875 0.40619117 3815994
0.13599259 0.030424217 0.40642554 3815994
0.12892044 0.034428064 0.40609002 3815994
0.13150081 0.032967024 0.40613902 3815994
0.12443795 0.036965601 0.4058038 3815994
0.12648667 0.035807237 0.40650526 3815994
0.11915067 0.039961301 0.40649274 3815994
0.12132365 0.03873061 0.40640393 3815994
0.12308616 0.03773199 0.406174 3815994
0.11616316 0.041652527 0.40630269 3815994
0.11792818 0.040652506 0.40607291 3815994
0.11140975 0.044344299 0.40634236 3815994
0.11317837 0.043342229 0.40611172 3815994
0.10665617 0.04703616 0.40638122 3815994
0.10830373 0.046101488 0.40568522 3815994
0.11019629 0.045030378 0.40591973 3815994
0.10230318 0.049501538 0.40655994 3815994
0.10419791 0.048429213 0.40679729 3815994
0.10504474 0.047947254 0.40581876 3815994
0.097145475 0.052421898 0.40645865 3815994
0.099323064 0.051188588 0.40636984 3815994
0.10109788 0.050182998 0.40613997 3815994
0.094168507 0.054107156 0.4062686 3815994
0.095945805 0.053100169 0.40603885 3815994
0.089016519 0.05702427 0.40616742 3815994
0.091194294 0.05579086 0.40607762 3815994
0.084262036 0.059716646 0.40620708 3815994
0.086045466 0.058706183 0.40597653 3815994
0.087832898 0.057697762 0.40747315 3815994
0.08099176 0.061568812 0.40634039 3815994
0.082872219 0.060504574 0.40657806 3815994
0.075842135 0.064484581 0.40623915 3815994
0.078416206 0.063027114 0.40629131 3815994
0.071869522 0.066734925 0.40656036 3815994
0.073575936 0.065766908 0.40586415 3815994
-0.12851286 0.069452398 0.40672794 5935
-0.1261207 0.06895297 0.40631044 5934
-0.12381841 0.069113158 0.40644953 991282
-0.12175149 0.069231272 0.40722179 4407360
0.066719383 0.069650993 0.40645903 3815994
0.068824328 0.068457656 0.40590322 3815994
-0.13596512 0.072110862 0.40689161 5677
-0.1337446 0.07159245 0.40655583 5678
-0.13139878 0.070977531 0.40623504 5678
-0.12930557 0.070616305 0.40568629 5678
-0.12748426 0.070499897 0.40501475 5935
-0.12349242 0.07070303 0.40534216 5984328
-0.1213135 0.071068689 0.40604529 5920338
-0.11898203 0.071616098 0.40682992 5658196
-0.11723036 0.072396182 0.40746388 5723989
0.062030293 0.072307497 0.40696475 3815994
0.063683279 0.071368575 0.40580222 3815994
0.065777265 0.070186913 0.40743887 3815994
-0.13781795 0.07460545 0.40748742 5418
-0.13598567 0.073710889 0.4061603 5419
-0.13382389 0.073249467 0.40540782 5677
-0.13187726 0.07269688 0.40504417 5677
-0.12072427 0.07321424 0.40521204 5395023
-0.11872627 0.073798522 0.40593982 5066060
-0.11662835 0.074040093 0.40707371 6382177
0.057387289 0.074932449 0.40528053 3815994
0.058998 0.074022919 0.4063063 3815994
0.060865439 0.072966054 0.40654391 3815994
-0.13774353 0.076401547 0.40726739 5418
-0.13626991 0.076321058 0.40600249 5418
-0.11837808 0.07587155 0.40541765 4671302
-0.11643414 0.07627932 0.40622732 6184542
-0.11455765 0.077106029 0.40710813 6974058
0.053854294 0.076935351 0.40620512 3815994
0.056104675 0.075661987 0.40658283 3815994
-0.13769133 0.078943126 0.40711305 5161
-0.13618863 0.078711025 0.40591624 5418
-0.11799473 0.077810764 0.40504172 5526611
-0.11619563 0.07856109 0.40548703 6645092
-0.11375151 0.078788638 0.40663445 6513507
-0.11200707 0.079690278 0.40717891 4671303
0.049423464 0.079443641 0.40591872 3815994
0.051282883 0.078391314 0.40615606 3815994
-0.13608363 0.081283167 0.40642175 5654591
-0.1346316 0.081022941 0.40527138 5786176
-0.11531675 0.080593683 0.40525916 6710886
-0.11363177 0.081157975 0.40586367 6447714
-0.11150654 0.081551231 0.40669474 5131854
-0.10986877 0.08194226 0.4074204 1579032
0.044287045 0.082351945 0.40581772 3815994
0.046142999 0.081301577 0.40605491 3815994
0.048002835 0.080249012 0.40628919 3815994
-0.13582888 0.083700277 0.40703312 6574403
-0.13365036 0.083852097 0.40598986 6574403
-0.13168375 0.084175281 0.40519783 6574403
-0.11347897 0.083144918 0.40522307 6776679
-0.11122632 0.083736829 0.40598232 5263440
-0.10933446 0.083997555 0.40714198 4342338
0.040672909 0.084399633 0.40627894 3815994
0.043293707 0.082916863 0.40679628 3815994
-0.13373072 0.086013444 0.40697816 6574403
-0.13153061 0.086131081 0.40594608 6574403
-0.12952493 0.087121628 0.40530375 6574403
-0.11067136 0.086167008 0.40551519 3684408
-0.10875714 0.086382367 0.40670183 4605510
0.035872433 0.087116897 0.40585211 3815994
0.038482871 0.085639991 0.40636882 3815994
-0.13256124 0.087762155 0.40714493 6574403
-0.13104051 0.088814229 0.40672973 6574403
-0.12902823 0.088904865 0.40565702 6574403
-0.10856233 0.088435613 0.40574527 4605510
-0.10651834 0.089091651 0.40678969 4605510
0.031152025 0.089791134 0.40635633 3815994
0.033721983 0.088335991 0.40640795 3815994
-0.13062577 0.091269039 0.40706331 6574403
-0.12856008 0.091226943 0.40581444 6574403
-0.12748034 0.09022247 0.40500227 6574403
-0.10779195 0.090618193 0.40513891 5000268
-0.10626268 0.09127982 0.40595812 4934475
-0.10436239 0.091583289 0.40715536 4342338
0.027141366 0.09206301 0.40667841 3815994
0.028959319 0.091033004 0.40644732 3815994
0.030328428 0.090254478 0.40514594 3815994
-0.13041693 0.093679942 0.40732893 6574403
-0.12850343 0.093671516 0.40613461 6574403
-0.10571881 0.093427666 0.40559801 5526612
-0.10384783 0.093917422 0.4066478 6118749
0.022324657 0.094788298 0.40578374 3815994
0.023821315 0.093942203 0.40634608 3815994
0.025610574 0.092927277 0.4056502 3815994
-0.12865324 0.096152909 0.40639699 6706247
-0.1055669 0.095338963 0.40501359 4210752
-0.10377252 0.096086055 0.40585646 5921370
-0.10196967 0.096462876 0.40705949 4079166
0.018685864 0.096849948 0.40624487 3815994
0.021278452 0.095383152 0.40676212 3815994
-0.12825979 0.098181464 0.40670028 7629926
-0.12669484 0.099136472 0.40560535 7761771
-0.10318356 0.098431051 0.40533772 4868682
-0.10139219 0.098910645 0.40653002 5460819
0.013908887 0.099553898 0.4058181 3815994
0.016491149 0.098092951 0.40633473 3815994
-0.12629254 0.10122328 0.40634918 7102294
-0.1246599 0.10199446 0.4053331 6640454
-0.100954 0.10121602 0.40598354 5131854
-0.099261843 0.1015872 0.40712035 5000268
0.0091615915 0.10224336 0.40632224 3815994
0.01135767 0.10099959 0.40623352 3815994
0.012841147 0.10016095 0.40679488 3815994
-0.12546879 0.10382348 0.4067702 6574403
-0.1240173 0.10353047 0.40562156 6574403
-0.1224294 0.10488728 0.40521041 6574403
-0.10077675 0.10357937 0.40533695 5197647
-0.099073052 0.10386804 0.40650436 3881787
-0.097372986 0.10472189 0.40741056 2302755
0.0047771079 0.1047289 0.40743783 3815994
0.0062267482 0.10390478 0.40613234 3815994
0.0080531631 0.10286997 0.40590274 3815994
-0.12340365 0.10603566 0.40600964 6574403
-0.12197427 0.10637709 0.40531704 6574403
-0.098698914 0.10617886 0.40595835 4408131
-0.097026974 0.10644806 0.40698734 4802889
0.0010983814 0.10680851 0.40603116 3815994
0.0032948593 0.10556451 0.40594149 3815994
-0.12312796 0.10821071 0.40671262 6574403
-0.12113801 0.10888665 0.40547353 6574403
-0.098158188 0.1085018 0.4054513 6184542
-0.096112572 0.1087429 0.40674493 4737096
-0.094446257 0.10988106 0.40746593 5131854
-0.0032974908 0.10929814 0.40621069 3815994
-0.00073311059 0.10784734 0.40672791 3815994
-0.12125751 0.11111165 0.40658936 6574403
-0.11941564 0.11209691 0.40573144 6574403
-0.097571462 0.11036164 0.40518299 5197646
-0.096155085 0.11119095 0.40585214 5658198
-0.094408512 0.11156557 0.40690947 5987162
-0.0080509735 0.11198877 0.40578392 3815994
-0.0058672596 0.11075433 0.4066264 3815994
-0.0047561298 0.1101227 0.40564865 3815994
-0.12043437 0.11309065 0.40711397 6574403
-0.118608 0.11377314 0.40614015 6772298
-0.11735915 0.11406903 0.40537 6706505
-0.095802814 0.11372022 0.40543142 5987163
-0.093817666 0.11377013 0.40665653 6118749
-0.092216022 0.11499448 0.40735433 6513507
-0.012825144 0.11469343 0.40628791 3815994
-0.010998848 0.11365987 0.40652499 3815994
-0.0095235649 0.11282355 0.4061541 3815994
-0.11813367 0.11629897 0.40677643 7762027
-0.11659826 0.11623299 0.40526682 6970448
-0.095537499 0.11600461 0.40523624 5263440
-0.093867078 0.11624272 0.40618694 5395026
-0.091994047 0.11659926 0.40718517 6579300
-0.016508458 0.11678028 0.40675017 3815994
-0.0142714 0.11551099 0.40572795 3815994
-0.11769322 0.11805992 0.40652391 7498082
-0.1164351 0.11906972 0.40571612 6640454
-0.095346063 0.11799532 0.40504375 4013373
-0.093611546 0.1186433 0.40576234 4144959
-0.091433339 0.11878672 0.40684602 6052955
-0.020871922 0.11924925 0.4059968 3815994
-0.018692274 0.11801594 0.4063721 3815994
-0.11573772 0.12116207 0.406351 6574403
-0.11445536 0.12140349 0.40544456 6574403
-0.093084261 0.12057842 0.40537661 6447713
-0.091287091 0.12121885 0.40624461 5461074
-0.089675985 0.12169798 0.40716535 5197901
-0.025635123 0.12194654 0.40603638 3815994
-0.023817457 0.12091787 0.4062708 3815994
-0.022408158 0.12012242 0.40730149 3815994
-0.11502027 0.12383971 0.40744567 6574403
-0.11382734 0.12347571 0.4062469 6574403
-0.11124065 0.12441536 0.40572619 6574403
-0.10898101 0.12470622 0.40548372 6574403
-0.091102123 0.12366489 0.40566814 5723987
-0.088989906 0.12393151 0.40682083 4474695
-0.030328315 0.12460187 0.40514442 3815994
-0.028474769 0.12355571 0.40651295 3815994
-0.026705243 0.12255146 0.40561438 3815994
-0.11302328 0.1251328 0.40687072 6574403
-0.11109065 0.12631854 0.40684798 6574403
-0.1087724 0.12633654 0.40572774 6574403
-0.090512417 0.12559669 0.40521041 2633785
-0.088514142 0.12612788 0.40602615 5677
-0.086528733 0.12653568 0.40695781 5676
-0.035435125 0.12749338 0.40504372 3815994
-0.033743821 0.12653975 0.40667629 3815994
-0.031499624 0.12526757 0.40611976 3815994
-0.11074002 0.12873755 0.40724581 6574403
-0.10873525 0.12873788 0.40620369 6574403
-0.10708608 0.12864965 0.40523326 6574403
-0.088645041 0.12860641 0.40542722 5418
-0.086431839 0.1289461 0.40636158 5419
-0.084886953 0.12935153 0.40744466 5419
-0.038516168 0.12924223 0.40671572 3815994
-0.036618434 0.12816587 0.40601856 3815994
-0.10892506 0.13129586 0.40663844 6574403
-0.10712854 0.13125993 0.40539396 6640196
-0.088311434 0.1307009 0.40517247 5676
-0.086339012 0.1312889 0.406131 5419
-0.084852785 0.13113604 0.40728065 5419
-0.043238506 0.13191521 0.40628788 3815994
-0.041734695 0.13106275 0.40591747 3815994
-0.039927829 0.13004018 0.40615228 3815994
-0.10879202 0.13371536 0.40641442 6771524
-0.10707941 0.13339224 0.40520799 6837317
-0.086402148 0.13370082 0.40580326 5419
-0.084570974 0.13389398 0.40710351 531504
-0.048356511 0.13481307 0.40618664 3815994
-0.046247255 0.13361797 0.40589461 3815994
-0.044445194 0.13260096 0.40726691 3815994
-0.10850767 0.13615453 0.40690911 6574403
-0.10677229 0.13675576 0.40542865 6311746
-0.088163756 0.13718513 0.40561631 5161
-0.086209372 0.1361635 0.40606013 465454
-0.084507808 0.13604987 0.40703505 2963522
-0.051359549 0.13651258 0.40579352 3815994
-0.049575228 0.13550562 0.40716517 3815994
-0.10615339 0.13862304 0.4064602 3355446
-0.10386045 0.13881695 0.40583956 1450543
-0.1015085 0.13952799 0.4053379 5418
-0.09316317 0.13992743 0.40508276 5161
-0.090943858 0.13908699 0.40561447 5161
-0.088870279 0.13880642 0.40650615 5161
-0.086310603 0.13797477 0.40722713 202540
-0.056407638 0.13937193 0.40612838 3815994
-0.0538822 0.1379426 0.40641141 3815994
-0.10620198 0.14001022 0.40745011 727852
-0.10348213 0.1412784 0.40686902 5418
-0.1017414 0.14135055 0.40557224 5418
-0.095659502 0.14196627 0.40534016 5161
-0.093453489 0.14123394 0.40594935 5161
-0.091370754 0.1409625 0.40686423 5161
-0.061211362 0.14209275 0.40639997 3815994
-0.05899911 0.14083983 0.40631011 3815994
-0.103383 0.14302313 0.40696082 5161
-0.10157778 0.14394255 0.40610182 5161
-0.098703645 0.14396898 0.4058325 5161
-0.096416049 0.1433426 0.40647903 5161
-0.094604857 0.14264119 0.40656972 5161
-0.065487951 0.14451252 0.4056468 3815994
-0.06411346 0.14373562 0.40620884 3815994
-0.10051896 0.14564231 0.40675858 5161
-0.098835245 0.14512983 0.40737957 5161
-0.070331037 0.14725623 0.40615225 3815994
-0.068803027 0.14639005 0.40578204 3815994
-0.06674546 0.14522703 0.40662456 3815994
-0.073908299 0.1492807 0.40568107 3815994
-0.071861848 0.14812398 0.40652314 3815994
-0.078513563 0.15189123 0.40679312 3815994
-0.07620813 0.15058437 0.40623641 3815994
-0.083629116 0.15478769 0.40669155 3815994
-0.081317261 0.15347719 0.40613514 3815994
-0.086423859 0.15636858 0.40603396 3815994
-0.09253034 0.15982513 0.40551162 3815994
-0.091193765 0.1590697 0.40607324 3815994
-0.088742122 0.15768272 0.4065901 3815994
-0.096018314 0.16180229 0.40634623 3815994
-0.093852587 0.1605763 0.40648872 3815994
-0.10051833 0.16435149 0.40675861 3815994
-0.098515756 0.16321579 0.4060618 3815994
-0.10562798 0.16724463 0.40665716 3815994
-0.10361715 0.16610424 0.40596065 3815994
-0.10229345 0.16535608 0.40652129 3815994
-0.10871599 0.16899125 0.40585956 3815994
-0.10739967 0.16824727 0.40641993 3815994
-0.11348505 0.17169183 0.40589854 3815994
-0.11073506 0.17013629 0.40655568 3815994
-0.11825598 0.17439352 0.40593776 3815994
-0.11630034 0.17328823 0.40678093 3815994
-0.12075578 0.1758116 0.40695998 3815994
-0.1195547 0.17512752 0.40537649 3815994
0.2346994 -0.02546275 0.40916258 3815994
0.23605286 -0.026228096 0.40958881 3815994
0.22955702 -0.02254908 0.40986294 3815994
0.23136988 -0.023579035 0.40849698 3815994
0.23334841 -0.024698805 0.40873405 3815994
0.22596969 -0.020520547 0.40872371 3815994
0.22876211 -0.022102483 0.40844429 3815994
0.22164437 -0.018070839 0.40890452 3815994
0.22380771 -0.019296078 0.40881467 3815994
0.216427 -0.015116707 0.408802 3815994
0.21859093 -0.01634229 0.40871224 3815994
0.22030815 -0.017315246 0.40847969 3815994
0.21249162 -0.01288944 0.40832472 3815994
0.21340901 -0.013406884 0.40914533 3815994
0.21509653 -0.014364371 0.40837738 3815994
0.20904748 -0.010937999 0.40879166 3815994
0.21121226 -0.012164057 0.40869957 3815994
0.20383471 -0.0079864701 0.40868923 3815994
0.20688136 -0.0097111911 0.40888265 3815994
0.19949996 -0.0055314223 0.40886998 3815994
0.20166798 -0.0067593134 0.40878019 3815994
0.19428858 -0.0025806832 0.40876749 3815994
0.19624637 -0.0036886921 0.4090082 3815994
0.19818686 -0.0047889194 0.40844524 3815994
0.19103405 -0.0007374179 0.40890566 3815994
0.19298123 -0.0018414308 0.40834296 3815994
0.18647644 0.0018426597 0.40861547 3815994
0.18842886 0.00073766138 0.40885282 3815994
0.18127155 0.0047897147 0.4085131 3815994
0.18322049 0.0036867051 0.40875036 3815994
0.18517226 0.0025820935 0.40899086 3815994
0.1773593 0.0070058769 0.40883547 3815994
0.17953201 0.0057753348 0.40874568 3815994
0.17215392 0.009953225 0.40873301 3815994
0.17409851 0.0088526895 0.40897363 3815994
0.17606932 0.0077352943 0.40841079 3815994
0.16889217 0.01180057 0.40887114 3815994
0.17086965 0.010679399 0.40830857 3815994
0.16435066 0.014371533 0.40858099 3815994
0.16629007 0.013273905 0.4088183 3815994
0.15915176 0.017315201 0.40847862 3815994
0.16108768 0.016219556 0.40871584 3815994
0.16302627 0.015122414 0.40895632 3815994
0.1558879 0.019163735 0.40861344 3815994
0.15782294 0.018068597 0.40885377 3815994
0.15086533 0.022008741 0.40898415 3815994
0.15328886 0.02063535 0.40856382 3815994
0.14650418 0.024478739 0.40916634 3815994
0.1480943 0.023576561 0.4084608 3815994
0.1422286 0.026898291 0.40854651 3815994
0.14415501 0.025808033 0.40878379 3815994
0.1370357 0.029838575 0.40844423 3815994
0.1389586 0.028750297 0.40868136 3815994
0.14088401 0.027660616 0.40892178 3815994
0.13391984 0.031604473 0.40905222 3815994
0.13568667 0.030603407 0.40881926 3815994
0.129136 0.034313474 0.4090924 3815994
0.13116866 0.033161055 0.40852937 3815994
0.12393945 0.037255824 0.40898982 3815994
0.12571244 0.036251277 0.40875614 3815994
0.12789577 0.035014693 0.40866402 3815994
0.11997732 0.039500225 0.40931293 3815994
0.12079283 0.039035976 0.40832406 3815994
0.12270497 0.03795379 0.40856165 3815994
0.11478026 0.042442862 0.40921023 3815994
0.11560811 0.041971616 0.40822187 3815994
0.11833591 0.04042827 0.4087446 3815994
0.11177486 0.044144224 0.40901765 3815994
0.11355414 0.043136101 0.40878478 3815994
0.10698924 0.046854228 0.40905786 3815994
0.1090522 0.045684647 0.40849492 3815994
0.10179868 0.049793184 0.40895528 3815994
0.10358415 0.048781559 0.40872166 3815994
0.10577232 0.047542259 0.40862957 3815994
0.098398708 0.05171762 0.4086192 3815994
0.10058749 0.050477967 0.4085272 3815994
0.093215853 0.05465221 0.40851688 3815994
0.096208893 0.052957848 0.40871012 3815994
0.089337602 0.056850292 0.40931335 3815994
0.091025434 0.05589278 0.40860772 3815994
0.084643871 0.059509445 0.40982619 3815994
0.086243406 0.058600757 0.40864727 3815994
0.079661645 0.062328428 0.40892076 3815994
0.081459612 0.061309725 0.40868711 3815994
0.083652578 0.06006771 0.40859509 3815994
0.076280147 0.0642424 0.40858474 3815994
0.078473724 0.063000031 0.40849274 3815994
-0.12837563 0.067079805 0.40940991 5935
-0.12617067 0.066626079 0.40904683 5934
-0.12371875 0.066466898 0.40878242 5934
-0.1214541 0.066817991 0.40931478 5934
0.071414836 0.066996351 0.40815306 3815994
0.073775791 0.065661572 0.40900612 3815994
-0.13610372 0.069621384 0.40951699 5934
-0.13369134 0.06910561 0.40919933 5935
-0.13120963 0.06867037 0.40875921 5935
-0.12899348 0.068153776 0.40847179 5935
-0.12686086 0.068026833 0.40770704 5935
-0.12315951 0.068013459 0.4076269 5934
-0.12110347 0.068424597 0.40813309 2436664
-0.11884181 0.068678394 0.40896413 5459531
-0.11653341 0.069535837 0.4096655 5789782
0.066712037 0.069660641 0.408663 3815994
0.068594202 0.068595439 0.4089036 3815994
0.070480153 0.067528106 0.40914112 3815994
-0.13757971 0.071187355 0.40896413 5677
-0.13627489 0.070950791 0.40821323 5678
-0.13390647 0.070447922 0.40788668 5935
-0.11840276 0.070423797 0.40796 5789780
-0.11638519 0.071304955 0.40858516 5855575
-0.11459261 0.07144472 0.40959516 5723989
0.062461153 0.072070561 0.40979153 3815994
0.063733242 0.071346939 0.40847096 3815994
0.065297678 0.070462473 0.40903848 3815994
-0.13853543 0.073801845 0.40873545 5419
-0.11563466 0.07340987 0.40799364 6579300
-0.11434557 0.073771365 0.40897658 6447714
0.058560953 0.074275546 0.40836862 3815994
0.060827192 0.072993204 0.40874827 3815994
-0.13891943 0.07627634 0.40856516 5418
-0.11509628 0.075750269 0.40771493 6447714
-0.1135699 0.076180197 0.40884167 6974058
-0.11151896 0.076931119 0.40943408 6908265
0.054165322 0.076765068 0.40855026 3815994
0.056818083 0.075264215 0.40907341 3815994
-0.14004602 0.077967569 0.40970495 5419
-0.1391056 0.078822084 0.40838906 5418
-0.11288917 0.077955872 0.4077121 5723991
-0.11116897 0.078753732 0.40841994 5526612
-0.10942861 0.078838609 0.40962443 6579300
0.04932379 0.079505563 0.40811867 3815994
0.05131172 0.078382827 0.40930152 3815994
0.05261834 0.077639647 0.40798178 3815994
-0.13839762 0.081241295 0.40832877 3946809
-0.11034058 0.080548756 0.40780675 5000268
-0.10891977 0.081382953 0.40891978 3289650
0.044593789 0.082185246 0.40862852 3815994
0.046462778 0.081127509 0.40886909 3815994
0.048335701 0.080067538 0.40910652 3815994
-0.13802931 0.083776854 0.4092032 6574403
-0.13695957 0.083745368 0.40784979 6574403
-0.10827612 0.083621949 0.40799698 3684408
-0.10676187 0.08387778 0.40924615 5263440
0.04128978 0.084056526 0.4087666 3815994
0.043159228 0.082998522 0.40900394 3815994
-0.13607232 0.086580165 0.40849766 6574403
-0.13458852 0.086783811 0.40772423 6574403
-0.10773703 0.085674837 0.40769655 5131854
-0.10610902 0.086213693 0.40851045 3815994
-0.10450689 0.086780913 0.40944746 4868682
0.036459323 0.08679074 0.40833423 3815994
0.038704827 0.085520148 0.40871379 3815994
-0.13573527 0.088792786 0.40918532 6574403
-0.13371384 0.088805154 0.40813982 6574403
-0.10579446 0.08814168 0.40776834 2236962
-0.10405549 0.088813327 0.40888718 4408131
0.031674318 0.089500405 0.40837431 3815994
0.033535734 0.088446945 0.40861136 3815994
0.03509951 0.087564044 0.40965393 3815994
-0.13565883 0.090562433 0.40984693 6574403
-0.13390265 0.091112576 0.40899694 6574403
-0.1319135 0.091449298 0.40786672 6574403
-0.10343755 0.091056056 0.40814465 4210752
-0.10212473 0.091638356 0.40937275 5000268
0.028781503 0.09114036 0.40912431 3815994
0.030538142 0.090142705 0.40794742 3815994
-0.13339634 0.093174741 0.40914291 6574403
-0.13181049 0.093887411 0.40823066 6574403
-0.10259525 0.093402028 0.40772066 5658198
-0.1010488 0.093831465 0.40890697 5197647
-0.099429265 0.094993763 0.40982801 6118749
0.02247927 0.094707742 0.40859404 3815994
0.02398652 0.093855672 0.40916428 3815994
0.02578789 0.092833862 0.40845871 3815994
-0.13104905 0.095984943 0.40838185 6772555
-0.10100524 0.095957831 0.40808988 3289650
-0.099388041 0.096435316 0.40927958 5000268
0.018815424 0.096783601 0.40906158 3815994
0.020625258 0.095757008 0.40835643 3815994
-0.1307316 0.098232746 0.40946412 7695976
-0.1292064 0.098776013 0.40814683 7629927
-0.10041467 0.09783981 0.40782532 3026478
-0.09878242 0.098782837 0.40868536 4737096
-0.097208977 0.099056929 0.40981728 5329233
0.014005229 0.099506348 0.40862894 3815994
0.016082058 0.098329574 0.40833339 3815994
-0.1285232 0.10104723 0.40889916 7102293
-0.098180279 0.10112507 0.40809515 4408131
-0.096509054 0.10130874 0.40935859 4210752
0.0095746461 0.1020145 0.40833986 3815994
0.011436417 0.10096201 0.40905011 3815994
0.012930305 0.1001175 0.40961927 3815994
-0.12825735 0.10312334 0.40981933 6574660
-0.12691304 0.10370409 0.40846562 6574403
-0.097841054 0.10262296 0.4078308 4144959
-0.096420296 0.10378744 0.40840691 2763306
-0.094738729 0.10397232 0.40952462 5723991
0.006269909 0.10388735 0.40894756 3815994
0.0081089493 0.10284539 0.40871474 3815994
-0.12598088 0.10607789 0.40866891 6574403
-0.12465824 0.10700752 0.40771902 6574403
-0.095761977 0.10606488 0.40798441 2500134
-0.093882941 0.10637651 0.40913215 5066061
0.0011059917 0.10681123 0.40884504 3815994
0.003317686 0.1055586 0.40875402 3815994
-0.12524638 0.10899021 0.40964264 6574403
-0.12440282 0.1086838 0.40849003 6574403
-0.095236398 0.10773847 0.40770203 1644825
-0.093592778 0.10878132 0.40843302 3092271
-0.091844395 0.10883871 0.40962973 6250335
-0.0033203547 0.10931813 0.40902707 3815994
-0.0014725162 0.10827002 0.40832198 3815994
-0.12328088 0.11098941 0.40884134 6574403
-0.093107343 0.11089449 0.40804169 2500134
-0.091742419 0.11145191 0.40881816 4473924
-0.0081067299 0.11202736 0.40859437 3815994
-0.0066265967 0.11118829 0.4082197 3815994
-0.0047890595 0.11014836 0.40845719 3815994
-0.12295756 0.11261878 0.40940267 6574660
-0.12131065 0.11394469 0.40833211 6574404
-0.091292128 0.11374075 0.40853775 4210752
-0.012914081 0.11475083 0.40910533 3815994
-0.011426277 0.11390742 0.40873221 3815994
-0.0095895827 0.11286797 0.4089697 3815994
-0.12085338 0.1160563 0.40915394 7234394
-0.11960939 0.11592957 0.40805772 7366239
-0.090822764 0.11617978 0.40799922 6250335
-0.089413591 0.11643688 0.40932664 6776679
-0.01585863 0.11641773 0.40891278 3815994
-0.01400715 0.11536872 0.40868005 3815994
-0.12000292 0.11852595 0.40940025 7563875
-0.11885951 0.11849075 0.40800887 7432289
-0.090088494 0.11876953 0.40770209 5526611
-0.088715114 0.11865592 0.40867561 5789783
-0.08726383 0.11951101 0.40940225 5461074
-0.021016559 0.11933818 0.40881023 3815994
-0.018800132 0.11808288 0.4087193 3815994
-0.11818801 0.12151296 0.40950972 6706248
-0.11745172 0.1211336 0.40823326 6706247
-0.088603877 0.12115082 0.4080165 5197645
-0.086474687 0.12129232 0.40934354 5460817
-0.025812786 0.12205417 0.40885031 3815994
-0.023954881 0.12100155 0.40861681 3815994
-0.11610565 0.12384596 0.40867856 6574403
-0.087928399 0.12287889 0.40791619 5920852
-0.086206779 0.12378472 0.40847883 1648437
-0.084632695 0.12380738 0.40977207 137004
-0.030538032 0.12472763 0.40794596 3815994
-0.029107044 0.12391873 0.40851435 3815994
-0.026890123 0.12266316 0.40842244 3815994
-0.1137817 0.12642373 0.40827438 6574403
-0.11210203 0.12680393 0.40752411 6574403
-0.085523546 0.1261043 0.40797895 5676
-0.084052898 0.12630521 0.40935028 5676
-0.03504952 0.12728511 0.40907049 3815994
-0.033223763 0.12625185 0.40931082 3815994
-0.031717964 0.12539825 0.40893483 3815994
-0.11345656 0.12849541 0.40869507 6574403
-0.11196893 0.12901577 0.40793154 6574403
-0.083883725 0.12856247 0.40862224 5419
-0.082413785 0.12934889 0.40976483 5676
-0.038382351 0.12917268 0.40920806 3815994
-0.036474828 0.12809075 0.40850282 3815994
-0.11325721 0.13022734 0.40904129 6574403
-0.11144967 0.13132791 0.40816191 6574403
-0.083523214 0.13119397 0.40829295 5419
-0.082042441 0.13132077 0.40949383 5418
-0.043538347 0.13209204 0.40910533 3815994
-0.041267969 0.13080502 0.40854228 3815994
-0.11264409 0.13258764 0.40949467 6574403
-0.11117935 0.13357694 0.40845394 6639939
-0.10995466 0.13496107 0.40773889 6574403
-0.083454311 0.13350952 0.40807885 728625
-0.082377762 0.13409507 0.40958571 2766659
-0.048396084 0.13484405 0.4096176 3815994
-0.046414856 0.13371921 0.40843987 3815994
-0.11065394 0.13625577 0.40941867 6377282
-0.10928591 0.13651539 0.40798798 6574403
-0.083317414 0.13632695 0.4081586 4278607
-0.081803881 0.13634011 0.4093565 5329230
-0.05260925 0.13722552 0.4079113 3815994
-0.051209133 0.13643412 0.4084796 3815994
-0.04945359 0.13544181 0.40919125 3815994
-0.10853287 0.13859405 0.40847573 4931900
-0.086032607 0.13928476 0.40840101 334124
-0.084074378 0.1385276 0.40885797 794161
-0.082114384 0.1380066 0.40950063 2569279
-0.055972785 0.13913335 0.40919581 3815994
-0.053842578 0.13792637 0.40890002 3815994
-0.10785821 0.14147192 0.40955335 924716
-0.10646077 0.14121141 0.408443 202282
-0.10483098 0.14161395 0.40783498 5161
-0.090485997 0.14161459 0.40783733 5161
-0.08878585 0.14110032 0.40847608 5161
-0.086599149 0.14078955 0.40928835 268076
-0.084630877 0.14006595 0.40976328 728624
-0.06052117 0.14170885 0.40917316 3815994
-0.05857566 0.14060543 0.40846804 3815994
-0.10592523 0.14338674 0.40922013 5161
-0.10418562 0.14394535 0.40818849 5161
-0.096599199 0.14446963 0.40828285 5161
-0.093671396 0.14364274 0.40889844 5161
-0.091441162 0.1426931 0.40881959 5161
-0.065671176 0.14462483 0.40907046 3815994
-0.063717276 0.14351664 0.4083657 3815994
-0.062330291 0.14273268 0.40893295 3815994
-0.10345874 0.14568987 0.40895179 5161
-0.1014342 0.14671999 0.40822569 5161
-0.098965131 0.14636838 0.40878582 5161
-0.096430711 0.14520027 0.40965149 5161
-0.070556208 0.14739229 0.40958264 3815994
-0.068856314 0.14642642 0.40826342 3815994
-0.067476816 0.14564669 0.4088304 3815994
-0.10077674 0.14802809 0.40929782 399660
-0.073649779 0.14914083 0.40830281 3815994
-0.071590558 0.14797693 0.40915638 3815994
-0.078535601 0.15190876 0.40881306 3815994
-0.076394662 0.1506974 0.40919566 3815994
-0.082900912 0.15437992 0.40852296 3815994
-0.081540965 0.15361126 0.40909299 3815994
-0.079806857 0.15262601 0.40777457 3815994
-0.087800235 0.15715547 0.40903562 3815994
-0.086245351 0.15627408 0.40866017 3815994
-0.084693313 0.15539429 0.40828538 3815994
-0.092712551 0.15993838 0.40954769 3815994
-0.090941451 0.15893219 0.40822864 3815994
-0.08959274 0.1581699 0.4087956 3815994
-0.096516959 0.16208993 0.40845528 3815994
-0.094059408 0.16069962 0.4089787 3815994
-0.10143321 0.16487508 0.40896595 3815994
-0.098863706 0.1634202 0.40901828 3815994
-0.10400213 0.16632962 0.40891564 3815994
-0.10186462 0.1651163 0.40773997 3815994
-0.11012913 0.16979775 0.40838584 3815994
-0.1088076 0.16905086 0.40895548 3815994
-0.10677829 0.16789997 0.40825063 3815994
-0.11394276 0.1719584 0.40885291 3815994
-0.11170408 0.17069052 0.40876326 3815994
-0.11861013 0.17460026 0.40842056 3815994
-0.11618108 0.17322612 0.40894389 3815994
-0.12098711 0.17594764 0.40898344 3815994
0.23497635 -0.025613535 0.41158554 3815994
0.23624277 -0.026331611 0.41120535 3815994
0.23770313 -0.027155444 0.41245228 3815994
0.22972143 -0.022638138 0.41148171 3815994
0.23189662 -0.023870088 0.41139075 3815994
0.23361744 -0.024845107 0.41115516 3815994
0.22664495 -0.020896539 0.41128698 3815994
0.22836834 -0.021873012 0.41105151 3815994
0.22184414 -0.018177923 0.41132763 3815994
0.22357099 -0.019156357 0.41109124 3815994
0.21659581 -0.015206264 0.41122389 3815994
0.21832524 -0.016186157 0.41098765 3815994
0.22049955 -0.017417612 0.41089457 3815994
0.21332911 -0.013356106 0.41136053 3815994
0.21531117 -0.014477869 0.41160411 3815994
0.20743679 -0.010019308 0.41144675 3815994
0.20872821 -0.010751542 0.41106683 3815994
0.21070555 -0.011870624 0.41131026 3815994
0.20437111 -0.0082838275 0.41125205 3815994
0.20610711 -0.0092674391 0.41101664 3815994
0.19956851 -0.0055641979 0.4112927 3815994
0.20130801 -0.0065497956 0.41105637 3815994
0.19432625 -0.0025959711 0.41118902 3815994
0.19629559 -0.0037105265 0.41142935 3815994
0.19826789 -0.0048267646 0.41167301 3815994
0.19105241 -0.00074178103 0.41132557 3815994
0.19302112 -0.0018559794 0.41156915 3815994
0.18646781 0.0018535567 0.41103193 3815994
0.18843181 0.00074203312 0.41127533 3815994
0.18123218 0.0048180339 0.4109284 3815994
0.18319258 0.0037085447 0.41117164 3815994
0.18515593 0.0025973776 0.41141179 3815994
0.17729665 0.0070473859 0.41125774 3815994
0.17904882 0.0060546263 0.41102147 3815994
0.17209178 0.0099924263 0.41034284 3815994
0.17401659 0.0089050904 0.41139442 3815994
0.17597556 0.0077964184 0.41163805 3815994
0.16877949 0.011870402 0.41129065 3815994
0.17116629 0.010519822 0.41167793 3815994
0.1642112 0.014456516 0.41099706 3815994
0.16616185 0.01335255 0.4112404 3815994
0.15898162 0.017417567 0.41089353 3815994
0.16092868 0.016315628 0.41113675 3815994
0.16287884 0.015211919 0.41137683 3815994
0.15496366 0.019695621 0.41203439 3815994
0.15594298 0.019137749 0.41069937 3815994
0.15764476 0.018175514 0.41127309 3815994
0.15174142 0.021518562 0.41135946 3815994
0.15368703 0.020417456 0.41160306 3815994
0.14651038 0.024480443 0.41125572 3815994
0.14912543 0.022999778 0.41130921 3815994
0.14195836 0.027057337 0.41096219 3815994
0.14389566 0.025960922 0.4112055 3815994
0.13866857 0.028920574 0.41110188 3815994
0.14060555 0.02782432 0.41134191 3815994
0.13318212 0.032027896 0.41133144 3815994
0.13621484 0.03031108 0.4115274 3815994
0.12878788 0.034516636 0.41151455 3815994
0.13098557 0.03327195 0.41142356 3815994
0.12424503 0.037088342 0.41122082 3815994
0.12658948 0.035761733 0.41160789 3815994
0.12765937 0.035152581 0.41027331 3815994
0.11970929 0.039656021 0.41092733 3815994
0.12163326 0.038567159 0.41117057 3815994
0.11641221 0.041523378 0.41106695 3815994
0.11833605 0.040434577 0.41130698 3815994
0.11091381 0.044637471 0.41129649 3815994
0.11393566 0.042926807 0.41149244 3815994
0.10651004 0.047131617 0.41147959 3815994
0.10871246 0.045884252 0.41138864 3815994
0.10349188 0.048840191 0.41128483 3815994
0.10528577 0.047823798 0.41104943 3815994
0.09746401 0.052252568 0.41089249 3815994
0.099084973 0.05133611 0.41146913 3815994
0.10076626 0.050382286 0.41075557 3815994
0.093865812 0.054291259 0.4113653 3815994
0.095555723 0.053332552 0.41065216 3815994
0.088948734 0.057074517 0.41092774 3815994
0.091660269 0.055540398 0.41145745 3815994
0.084235974 0.059744455 0.41144463 3815994
0.086443126 0.0584944 0.41135368 3815994
0.088050395 0.057585701 0.41192925 3815994
0.081228621 0.061446916 0.41124997 3815994
0.083035097 0.060423393 0.41101453 3815994
-0.12876864 0.064940833 0.41145226 5934
-0.12641175 0.06487406 0.41102925 5935
-0.1238222 0.064876914 0.41104734 5935
-0.12175062 0.06495849 0.41156417 5935
0.076016746 0.064397946 0.41114625 3815994
0.078224115 0.063147761 0.41105428 3815994
-0.13594714 0.067230627 0.41183978 5934
-0.13376088 0.066555105 0.41168487 5934
-0.13123123 0.066056833 0.41129827 5934
-0.128683 0.066060051 0.41050342 5934
-0.12656501 0.065502897 0.41032398 5934
-0.12100273 0.065596938 0.41091889 5934
-0.11876187 0.06630794 0.41114953 268591
-0.11695682 0.067018203 0.4116773 5326916
0.071599014 0.066899985 0.41133037 3815994
0.074292324 0.065376192 0.41186067 3815994
-0.13768731 0.068658091 0.41149038 5677
-0.136243 0.068445116 0.41077268 5934
-0.13382322 0.067929447 0.41045225 5935
-0.13203689 0.06768278 0.41007829 5935
-0.11798201 0.067682467 0.41007641 6509640
-0.11608629 0.068533517 0.41074693 6183252
-0.11446926 0.069386058 0.41140941 5921367
0.066706032 0.069669604 0.4108929 3815994
0.069074452 0.068330601 0.41175669 3815994
0.070017092 0.06779433 0.41075414 3815994
-0.13868238 0.071194768 0.41113937 5676
-0.11319947 0.071159795 0.41110265 5263438
0.061965693 0.072355151 0.41140968 3815994
0.06417758 0.071102411 0.41131875 3815994
0.065753572 0.07021144 0.41189426 3815994
-0.14055593 0.073996529 0.41228426 5676
-0.13967475 0.073727518 0.41078657 5676
-0.11303598 0.073751993 0.41092288 5789783
-0.11155613 0.074742705 0.41229916 6053211
0.058969136 0.074051507 0.41121504 3815994
0.060788199 0.073020846 0.41097966 3815994
-0.14057808 0.07640212 0.4108265 5419
-0.11326655 0.075141057 0.41041282 6776679
-0.11106777 0.075849079 0.41104341 6316384
-0.1090392 0.07667575 0.41150326 5592402
-0.10746774 0.076975167 0.41230628 6379084
0.053763311 0.076999098 0.41111138 3815994
0.055975478 0.075746201 0.41101941 3815994
-0.14145751 0.078339927 0.41166195 5418
-0.10824927 0.078663588 0.41119799 5460818
-0.10747766 0.077726066 0.41234437 5592145
0.048947461 0.079726219 0.41115201 3815994
0.051371265 0.078355193 0.41174459 3815994
-0.14053729 0.081208803 0.4111422 1713200
-0.10809873 0.080981165 0.41074824 4408131
-0.10684496 0.081588507 0.41181839 5197646
0.044904813 0.08201623 0.41147855 3815994
0.046788577 0.080950126 0.41172171 3815994
0.04778539 0.080383182 0.41071931 3815994
-0.14002028 0.083566479 0.41180277 6245954
-0.13921404 0.083875 0.41088513 6180161
-0.10584078 0.083345883 0.41112548 5066060
-0.1047509 0.084468514 0.41137418 5066316
0.039699197 0.084963702 0.41137475 3815994
0.04157941 0.083899617 0.41161779 3815994
0.043359522 0.082889833 0.41090417 3815994
-0.13856959 0.086258203 0.41135374 6574403
-0.1037631 0.086160377 0.41129303 5329233
0.036713425 0.086653948 0.41118014 3815994
0.038545072 0.085616164 0.41094476 3815994
-0.13778445 0.089133218 0.41178071 6574403
-0.13732542 0.087725401 0.41040882 6574403
-0.10286102 0.088660218 0.41074049 5723991
-0.10199048 0.088986158 0.41196239 4408131
0.031895094 0.089382485 0.41122076 3815994
0.033730615 0.08834251 0.41098452 3815994
-0.13650657 0.090798043 0.41091421 6574403
-0.10114336 0.091295846 0.41133624 4737096
-0.09989851 0.092471108 0.41176212 5460819
0.027014133 0.092144094 0.41030598 3815994
0.028567031 0.09126737 0.41135737 3815994
0.030439682 0.090207569 0.41160095 3815994
-0.13584894 0.09279228 0.41154134 6574403
-0.1345793 0.094169088 0.41106576 6574403
-0.10030625 0.092903569 0.41039151 4934475
-0.098816358 0.09380763 0.41138384 5921369
-0.097076982 0.094845325 0.41239694 6838605
0.023883006 0.093920372 0.41160569 3815994
0.02596768 0.09273915 0.41130632 3815994
-0.13333847 0.096018963 0.41105029 6772297
-0.13228685 0.097455017 0.41085458 7365981
-0.098215386 0.095888086 0.41049412 5658197
-0.096912891 0.096583158 0.41135237 5986645
0.019303389 0.096513569 0.41158283 3815994
0.021121962 0.095481999 0.41086936 3815994
-0.13266723 0.098478474 0.41203594 7563876
-0.13109103 0.099243373 0.41058975 7695977
-0.096108735 0.098705076 0.41117635 5657940
-0.094819531 0.099653348 0.41228479 5657424
0.014102913 0.099458128 0.41147894 3815994
0.016306654 0.098208815 0.41090935 3815994
-0.13090725 0.10105709 0.4116416 7168343
-0.12906146 0.101696 0.41002548 6838091
-0.095494017 0.10097633 0.41070876 4671303
-0.094409168 0.1015401 0.41179338 6118748
0.0096413726 0.1019838 0.41118586 3815994
0.011502732 0.10093038 0.41142619 3815994
0.013020708 0.10007345 0.41248319 3815994
-0.12916048 0.10345164 0.41112456 6574660
-0.095111981 0.10251369 0.41033804 5329233
-0.093652308 0.10379066 0.41124538 5592661
0.0048103286 0.10471715 0.41027123 3815994
0.006306204 0.10387272 0.41132241 3815994
0.0081655132 0.10282046 0.41156596 3815994
-0.12835607 0.10608499 0.41155705 6574403
-0.12689185 0.10691471 0.41018453 6574403
-0.092877433 0.10582825 0.41027606 1776411
-0.09181536 0.1062889 0.41148859 4473922
0.0011122968 0.10681356 0.4112187 3815994
0.0033408313 0.10555259 0.41160583 3815994
-0.12757006 0.10897384 0.41237688 6574403
-0.12666421 0.10862268 0.41104648 6574403
-0.090942979 0.10874355 0.4111546 5526611
-0.0029688515 0.10912537 0.41154784 3815994
-0.0011118273 0.10807204 0.41083452 3815994
-0.12546667 0.11099084 0.41157854 6574403
-0.12443581 0.11147393 0.41062558 6574403
-0.090442084 0.11119931 0.41098192 6316128
-0.089648612 0.11196777 0.41244516 6316128
-0.008163264 0.11206649 0.41144395 3815994
-0.0062977071 0.11100835 0.41073105 3815994
-0.0048224479 0.11017439 0.41130489 3815994
-0.12374017 0.11385038 0.41118422 6706505
-0.09005174 0.11302791 0.41088995 6579300
-0.089543514 0.11393093 0.41147685 6513507
-0.013004259 0.11480904 0.41196209 3815994
-0.011244535 0.11381027 0.41104063 3815994
-0.0092997141 0.11271254 0.41244808 3815994
-0.12323911 0.11630273 0.41198882 7432288
-0.12207577 0.1157871 0.41016188 7234394
-0.088602893 0.1161717 0.41104907 6776679
-0.087341852 0.11707525 0.41209203 6842471
-0.01643046 0.11674658 0.41093698 3815994
-0.014104864 0.11543117 0.41153085 3815994
-0.12125668 0.11866102 0.411147 7432289
-0.087684564 0.11802268 0.41021776 6579556
-0.086453572 0.11873452 0.41140461 5658196
-0.021138687 0.11941327 0.4111836 3815994
-0.018931288 0.11816428 0.41157067 3815994
-0.11944464 0.1211743 0.41086665 6706505
-0.085372426 0.12046015 0.41096398 5723988
-0.08448749 0.1215841 0.41131726 5197388
-0.025570255 0.12192194 0.41089007 3815994
-0.023732452 0.12088189 0.41113329 3815994
-0.11889075 0.12334828 0.41194212 6574660
-0.11735558 0.1240193 0.41047257 6574404
-0.083406568 0.12381288 0.41101816 202797
-0.082145572 0.1241475 0.41212744 5676
-0.030425634 0.12467264 0.41140872 3815994
-0.028521663 0.1235927 0.41069588 3815994
-0.02707758 0.12277642 0.41126963 3815994
-0.11782107 0.12525457 0.4121007 6574403
-0.11623355 0.12636229 0.41086793 6574403
-0.082877412 0.12613089 0.41059798 5676
-0.081587367 0.12632242 0.41181359 5676
-0.035294246 0.12743081 0.41192675 3815994
-0.034096032 0.12674981 0.41092521 3815994
-0.031939354 0.12553073 0.41178924 3815994
-0.11561808 0.12860893 0.41153404 6574403
-0.11444242 0.1299977 0.41064662 6574403
-0.082526952 0.12767623 0.41032749 5676
-0.081327416 0.12866636 0.41112888 5419
-0.079975918 0.12944944 0.41243967 5161
-0.039274737 0.12968203 0.41082162 3815994
-0.036729153 0.1282419 0.41135111 3815994
-0.11403384 0.13157666 0.41095224 6574403
-0.080889046 0.13110764 0.41114077 5418
-0.043385856 0.13201079 0.41114837 3815994
-0.041199591 0.13077377 0.41153535 3815994
-0.11303046 0.13378359 0.41089922 6574403
-0.081252314 0.13377312 0.41137415 2832452
-0.047801167 0.13451026 0.41085491 3815994
-0.046384197 0.13370933 0.41143146 3815994
-0.044754151 0.13278298 0.41009799 3815994
-0.11199224 0.136097 0.41116983 6377282
-0.080848053 0.13604309 0.41072983 5263694
-0.079430155 0.13673471 0.41181666 1776410
-0.052975535 0.13744003 0.41075134 3815994
-0.051566172 0.13664341 0.41132763 3815994
-0.049031679 0.13520956 0.41185796 3815994
-0.11100881 0.13848256 0.41164792 5786176
-0.10989578 0.1387573 0.41026479 5457726
-0.082881674 0.13949317 0.41025251 1911866
-0.081128612 0.13891955 0.41074315 4015436
-0.078914843 0.1385199 0.4117586 3815993
-0.056328118 0.13933879 0.41089007 3815994
-0.054218363 0.1381463 0.41175389 3815994
-0.11035182 0.14007622 0.41196728 4603707
-0.1091674 0.14131175 0.41123721 2107441
-0.086407624 0.14203669 0.41118896 5161
-0.083832696 0.14075944 0.41092414 859953
-0.081385657 0.14047357 0.41204262 5067607
-0.061500777 0.14226758 0.41078648 3815994
-0.058633141 0.14064546 0.41145977 3815994
-0.10842027 0.14332134 0.41168493 70953
-0.10669605 0.14448404 0.41076669 5161
-0.094062671 0.14479789 0.41060591 5161
-0.091158971 0.14397115 0.41120505 5161
-0.088692285 0.14311986 0.41145876 5161
-0.06381239 0.14357798 0.41135594 3815994
-0.10606542 0.14616458 0.41167283 5161
-0.10437852 0.14657402 0.41039455 5161
-0.097825781 0.14710987 0.41085726 5161
-0.096322224 0.14615299 0.41108409 5161
-0.094061129 0.14573857 0.41221854 5161
-0.070028275 0.14709643 0.41081974 3815994
-0.068642616 0.14631324 0.41139624 3815994
-0.066670835 0.14519492 0.41068298 3815994
-0.10515507 0.14751436 0.41198695 70954
-0.10349392 0.14856391 0.41129142 465453
-0.10141592 0.14897858 0.41039065 597039
-0.098975711 0.14858837 0.41153088 399661
-0.097047634 0.14761652 0.41227227 5161
-0.073818535 0.14924388 0.4112924 3815994
-0.071312942 0.14782639 0.41182265 3815994
-0.10133981 0.15034007 0.41158482 2437435
-0.078556404 0.15192565 0.41085494 3815994
-0.076061241 0.15051405 0.41138446 3815994
-0.083723009 0.15485102 0.41075134 3815994
-0.081235141 0.15344356 0.41128063 3815994
-0.079862751 0.15266787 0.41185609 3815994
-0.086065225 0.15617873 0.41132069 3815994
-0.091235809 0.15910634 0.41121688 3815994
-0.088887021 0.1577749 0.41064781 3815994
-0.096067078 0.16184218 0.41125715 3815994
-0.093590386 0.16044107 0.41178733 3815994
-0.10078087 0.16451031 0.41081974 3815994
-0.098764926 0.16337092 0.41168332 3815994
-0.09741386 0.16260336 0.41068107 3815994
-0.10573097 0.16731462 0.4113363 3815994
-0.10348242 0.16604114 0.41124544 3815994
-0.10214127 0.16528314 0.41182074 3815994
-0.10864765 0.16896574 0.41114166 3815994
-0.10673299 0.16788095 0.4109064 3815994
-0.11381029 0.17188884 0.41103801 3815994
-0.11129004 0.17046358 0.41177496 3815994
-0.11831181 0.17443831 0.41122195 3815994
-0.11586401 0.17305356 0.41175199 3815994
-0.12300155 0.17709284 0.4107846 3815994
-0.12103248 0.17597999 0.41164801 3815994
-0.11962733 0.17518182 0.41064596 3815994
-0.12441597 0.17789628 0.41178545 3815994
0.23589382 -0.026127428 0.41384828 3815994
0.23790093 -0.027263371 0.41409156 3815994
0.22988711 -0.022727899 0.41311327 3815994
0.23085065 -0.023271427 0.4139533 3815994
0.23325127 -0.024631198 0.41379416 3815994
0.22642268 -0.020764932 0.41359127 3815994
0.22860891 -0.02200314 0.41349697 3815994
0.22140224 -0.017921114 0.41396886 3815994
0.22423504 -0.019525932 0.4136844 3815994
0.21676642 -0.015296769 0.41367143 3815994
0.21876109 -0.016425654 0.41391796 3815994
0.22062849 -0.017486574 0.41252148 3815994
0.2134805 -0.013435731 0.41381294 3815994
0.21547426 -0.014564118 0.41405618 3815994
0.20820259 -0.010447322 0.41370797 3815994
0.21084112 -0.01194129 0.41375881 3815994
0.20402408 -0.0080815768 0.41355595 3815994
0.20621522 -0.0093225678 0.41346166 3815994
0.19963777 -0.0055973209 0.41374105 3815994
0.20183159 -0.0068398244 0.41364908 3815994
0.19436429 -0.0026114204 0.41363609 3815994
0.19634543 -0.0037326501 0.41388258 3815994
0.19832948 -0.0048555238 0.41412592 3815994
0.191071 -0.00074620196 0.41377759 3815994
0.19305143 -0.0018670351 0.41402078 3815994
0.18645909 0.0018645982 0.4134804 3815994
0.18843478 0.00074645109 0.41372347 3815994
0.18119228 0.0048467265 0.41337562 3815994
0.18316436 0.0037306151 0.41361851 3815994
0.18513936 0.0026128644 0.41386479 3815994
0.17723335 0.0070893341 0.41370571 3815994
0.17920463 0.0059736972 0.41395226 3815994
0.17393364 0.0089581851 0.41384721 3815994
0.17590432 0.0078428676 0.41409051 3815994
0.16866532 0.011941158 0.41374224 3815994
0.1712992 0.010449819 0.41379309 3815994
0.16406991 0.014542625 0.41344512 3815994
0.16603225 0.013432025 0.41368812 3815994
0.15886699 0.017486531 0.41252044 3815994
0.16076797 0.016412716 0.41358322 3815994
0.16272947 0.015302612 0.41382945 3815994
0.15483275 0.01977382 0.41367036 3815994
0.15654576 0.018805269 0.41425481 3815994
0.1581381 0.017901793 0.41353163 3815994
0.15152565 0.021646854 0.41381186 3815994
0.153483 0.020539088 0.41405511 3815994
0.14651763 0.024481602 0.41336879 3815994
0.14889438 0.023136698 0.41375774 3815994
0.14168453 0.027218487 0.41340983 3815994
0.14363357 0.026115432 0.41365278 3815994
0.14550108 0.025060598 0.41472125 3815994
0.13837543 0.029092655 0.4135479 3815994
0.14032343 0.027990192 0.4137941 3815994
0.13243598 0.032456141 0.41363505 3815994
0.1341172 0.031505588 0.41421941 3815994
0.13574855 0.030580021 0.41349635 3815994
0.12912151 0.034333352 0.41377652 3815994
0.13106552 0.033233136 0.4140197 3815994
0.12455411 0.036918953 0.41347939 3815994
0.12649339 0.035821408 0.4137224 3815994
0.119303 0.039892189 0.41337457 3815994
0.12123871 0.038796671 0.41361749 3815994
0.12317684 0.037699804 0.41386378 3815994
0.11612277 0.041694578 0.41399732 3815994
0.1179212 0.040675603 0.41375875 3815994
0.11127932 0.044437341 0.41403854 3815994
0.11308149 0.043416243 0.41379902 3815994
0.10672265 0.047016855 0.4137404 3815994
